ply
format ascii 1.0
element vertex 1336
property float32 x
property float32 y
property float32 z
property float32 I
end_header
-15.5431 11.7216 -1.8690 0.9248
-16.4629 10.2532 -1.8620 0.9250
-17.5564 -7.9105 -1.8487 0.9255
-16.0188 10.9963 -1.8654 0.9249
-17.2749 9.7187 -1.9029 0.9234
-17.8719 -7.1129 -1.8467 0.9256
18.9873 1.6967 -2.2644 0.9261
18.3574 5.0286 -2.2609 0.9262
17.8100 6.6325 -2.2575 0.9263
17.1149 8.1751 -2.2530 0.9264
14.2237 12.2997 -2.2337 0.9271
12.7820 13.2165 -2.1840 0.9286
10.8874 13.4754 -2.0579 0.9326
-10.8737 11.7566 -1.9023 0.9375
-15.1973 7.6796 -2.0226 0.9337
-15.7845 6.2821 -2.0180 0.9339
-16.2507 4.8432 -2.0143 0.9340
-16.9024 0.3767 -2.0083 0.9342
-16.8671 -1.1291 -2.0081 0.9342
-16.7055 -2.6268 -2.0088 0.9341
-16.4184 -4.1065 -2.0104 0.9341
-13.7627 -7.7428 -1.8758 0.9384
19.0408 -0.8491 -2.2640 0.9261
18.8892 2.5403 -2.2640 0.9261
18.5738 4.2083 -2.2622 0.9262
17.4805 7.4124 -2.2554 0.9264
16.7142 8.9190 -2.2504 0.9265
15.8118 10.3436 -2.2444 0.9267
14.7826 11.6737 -2.2375 0.9269
13.6373 12.8980 -2.2297 0.9272
11.5004 13.0037 -2.0621 0.9325
-12.2757 10.1461 -1.8918 0.9379
-14.0524 9.6464 -2.0247 0.9336
-14.8593 8.3597 -2.0252 0.9336
-16.0329 5.5672 -2.0160 0.9339
-16.8726 1.1295 -2.0087 0.9342
-16.9006 -0.3766 -2.0081 0.9342
-16.8021 -1.8796 -2.0083 0.9342
-16.2284 -4.8366 -2.0115 0.9341
-14.0785 -7.1142 -1.8737 0.9384
-13.4203 -8.3582 -1.8780 0.9383
17.0187 -4.6619 -2.0961 0.9314
17.3920 -3.1333 -2.0992 0.9313
18.7176 -1.6726 -2.2323 0.9271
15.8186 0.0000 -2.2413 0.9381
15.7556 1.4079 -2.2413 0.9381
15.2369 4.1738 -2.2384 0.9382
14.7864 5.5065 -2.2356 0.9382
11.8302 10.2299 -2.2160 0.9388
8.0032 11.9416 -2.0368 0.9436
6.8821 12.5582 -2.0290 0.9438
-9.1715 9.9161 -1.9138 0.9469
-11.5458 8.7071 -2.0490 0.9433
-13.7432 4.0959 -2.0319 0.9437
-14.0362 2.8530 -2.0294 0.9438
-14.3009 0.3187 -2.0268 0.9438
-14.2713 -0.9553 -2.0266 0.9439
-14.1338 -2.2224 -2.0272 0.9438
13.4523 -5.7043 -2.0703 0.9427
15.6653 -2.1068 -2.2396 0.9381
15.8004 -0.7046 -2.2410 0.9381
15.8036 0.7047 -2.2414 0.9381
13.8840 7.4087 -2.2298 0.9384
13.1403 8.5960 -2.2248 0.9385
11.3458 10.7308 -2.2127 0.9389
10.2962 11.6421 -2.2021 0.9391
8.5428 11.5944 -2.0406 0.9435
-8.7354 10.3323 -1.9171 0.9468
-9.8268 9.7179 -1.9582 0.9457
-11.9063 8.1732 -2.0462 0.9433
-13.1073 5.9059 -2.0370 0.9436
-13.7272 -4.0911 -2.0295 0.9438
-12.2962 -6.2135 -1.9520 0.9459
-11.3420 -7.0639 -1.8932 0.9474
-10.6927 -8.0637 -1.8976 0.9473
13.7062 -5.1043 -2.0723 0.9426
15.5316 -2.7982 -2.2361 0.9382
15.7493 -1.4074 -2.2404 0.9381
13.2862 2.3936 -2.2240 0.9467
12.6286 4.7029 -2.2200 0.9468
12.1428 5.8001 -2.2169 0.9469
11.5583 6.8460 -2.2130 0.9470
10.8807 7.8315 -2.2085 0.9471
10.1168 8.7483 -2.2033 0.9472
8.3595 10.3466 -2.1913 0.9475
5.8971 10.7608 -2.0215 0.9515
-3.5152 11.3320 -1.9546 0.9530
-4.4935 10.9343 -1.9475 0.9532
-6.3175 9.8962 -1.9342 0.9535
-10.5893 6.5951 -2.0551 0.9507
-11.1124 5.6153 -2.0511 0.9508
-11.5488 4.5963 -2.0477 0.9509
-12.1515 2.4699 -2.0428 0.9510
-12.3141 1.3775 -2.0413 0.9510
-12.3828 0.2759 -2.0404 0.9510
-12.2378 -1.9243 -2.0408 0.9510
-12.0249 -3.0076 -2.0420 0.9510
-11.3252 -5.1029 -2.0464 0.9509
-10.8138 -6.0837 -2.0440 0.9509
-9.5398 -6.5487 -1.9062 0.9542
-8.9379 -7.3874 -1.9103 0.9541
-8.2646 -8.1731 -1.9148 0.9540
10.4049 -6.8066 -2.0483 0.9508
10.9934 -5.8663 -2.0528 0.9507
13.3759 -1.7989 -2.2234 0.9468
13.4923 0.6016 -2.2249 0.9467
13.3827 1.7998 -2.2245 0.9467
13.1622 2.9822 -2.2233 0.9468
12.8330 4.1381 -2.2213 0.9468
11.2307 7.3468 -2.2109 0.9470
7.8675 10.6779 -2.1850 0.9477
6.4167 10.5634 -2.0361 0.9511
3.3436 11.6933 -2.0036 0.9519
2.2810 11.8998 -1.9960 0.9521
-1.9846 11.7654 -1.9656 0.9528
-3.0125 11.4986 -1.9582 0.9530
-4.0092 11.1437 -1.9510 0.9531
-10.2961 7.0679 -2.0574 0.9506
-10.8615 6.1106 -2.0530 0.9507
-11.3417 5.1103 -2.0493 0.9508
-12.0352 3.0102 -2.0437 0.9510
-12.2445 1.9253 -2.0419 0.9510
-12.3602 0.8274 -2.0408 0.9510
-12.3818 -0.2759 -2.0403 0.9510
-11.8839 -3.5418 -2.0428 0.9510
-11.5338 -4.5903 -2.0450 0.9509
-11.0947 -5.6064 -2.0478 0.9509
-9.9859 -6.2193 -1.9380 0.9534
12.9979 -3.5605 -2.2201 0.9468
13.4469 -1.2016 -2.2241 0.9467
11.5807 2.0864 -2.2118 0.9532
10.5884 5.0576 -2.2056 0.9534
8.0956 8.3708 -2.1888 0.9537
7.3001 9.0355 -2.1834 0.9538
6.4495 9.6233 -2.1775 0.9539
4.4201 10.1090 -2.0738 0.9561
3.3838 10.1070 -2.0034 0.9575
2.4628 10.3345 -1.9969 0.9577
-0.3514 10.5116 -1.9769 0.9581
-1.2813 10.4034 -1.9702 0.9582
-3.0851 9.9454 -1.9572 0.9585
-3.9954 9.7222 -1.9757 0.9581
-5.0412 9.7060 -2.0557 0.9565
-8.1779 7.3964 -2.0726 0.9561
-8.7844 6.6246 -2.0680 0.9562
-10.1698 4.0475 -2.0574 0.9564
-10.4771 3.1225 -2.0549 0.9565
-10.7035 2.1756 -2.0530 0.9565
-10.8477 1.2135 -2.0517 0.9565
-10.8864 -0.7288 -2.0508 0.9566
-10.7808 -1.6952 -2.0513 0.9566
-10.5925 -2.6494 -2.0523 0.9565
-10.3229 -3.5845 -2.0540 0.9565
-9.9737 -4.4939 -2.0562 0.9565
-9.5470 -5.3710 -2.0589 0.9564
-7.8661 -6.5015 -1.9182 0.9593
-7.2715 -7.1909 -1.9222 0.9592
8.4956 -6.7089 -2.0347 0.9569
9.0785 -5.9389 -2.0391 0.9568
11.1759 -3.6038 -2.2071 0.9533
11.4646 -2.5975 -2.2095 0.9533
11.7579 -0.5243 -2.2122 0.9532
11.4730 2.5994 -2.2111 0.9532
10.8102 4.5839 -2.2070 0.9533
10.3451 5.5203 -2.2040 0.9534
9.7965 6.4085 -2.2003 0.9535
7.7052 8.7124 -2.1861 0.9538
6.8812 9.3393 -2.1805 0.9539
6.0059 9.8871 -2.1744 0.9540
5.0185 10.2123 -2.1388 0.9547
2.9255 10.2312 -2.0001 0.9576
1.9967 10.4167 -1.9936 0.9578
1.0581 10.5178 -1.9869 0.9579
-0.8180 10.4678 -1.9735 0.9582
-4.5080 9.7146 -2.0130 0.9573
-5.5487 9.6106 -2.0859 0.9558
-6.3820 9.0786 -2.0859 0.9558
-7.8495 7.7626 -2.0750 0.9561
-8.4897 7.0169 -2.0702 0.9562
-9.5616 5.3793 -2.0621 0.9563
-9.9864 4.4996 -2.0588 0.9564
-10.3335 3.5882 -2.0560 0.9565
-10.7860 1.6960 -2.0523 0.9565
-10.8440 -1.2131 -2.0510 0.9566
-10.6969 -2.1743 -2.0517 0.9565
-10.4678 -3.1197 -2.0531 0.9565
-10.1581 -4.0428 -2.0550 0.9565
-9.3022 -5.7934 -2.0598 0.9564
-8.2491 -6.2209 -1.9420 0.9588
8.1787 -7.0725 -2.0323 0.9569
9.3432 -5.5340 -2.0411 0.9568
10.2621 -4.9018 -2.1376 0.9548
11.3318 -3.1041 -2.2084 0.9533
11.7207 -1.0474 -2.2118 0.9532
10.4213 0.0000 -2.2029 0.9583
10.3799 0.9275 -2.2028 0.9583
10.0425 2.7509 -2.2010 0.9583
9.3777 4.4793 -2.1968 0.9584
8.4103 6.0533 -2.1904 0.9585
7.8239 6.7656 -2.1864 0.9586
6.4729 8.0116 -2.1771 0.9588
5.7204 8.5354 -2.1719 0.9589
4.9254 8.9878 -2.1664 0.9590
3.2311 9.6508 -2.1513 0.9592
1.4222 9.7513 -2.0830 0.9605
-1.1957 9.7087 -2.0677 0.9608
-2.9518 9.5155 -2.1059 0.9601
-3.7842 9.2084 -2.1044 0.9601
-4.5762 8.8108 -2.0987 0.9602
-6.0350 7.8198 -2.0880 0.9604
-9.3522 2.7872 -2.0628 0.9609
-9.5553 1.9422 -2.0611 0.9609
-9.7197 -0.6507 -2.0591 0.9610
-9.6251 -1.5135 -2.0596 0.9609
-9.4565 -2.3652 -2.0605 0.9609
-9.2150 -3.1998 -2.0620 0.9609
-8.9022 -4.0112 -2.0639 0.9609
-6.4855 -6.4136 -1.9280 0.9634
-5.2683 -7.4942 -1.9364 0.9632
-4.5914 -7.9526 -1.9411 0.9632
6.3281 -7.1553 -2.0191 0.9617
7.5296 -5.9461 -2.0281 0.9615
8.2276 -5.3823 -2.0782 0.9606
9.5624 -4.0548 -2.1955 0.9584
10.1516 -2.3001 -2.2002 0.9583
10.3231 -1.3883 -2.2017 0.9583
10.4099 -0.4642 -2.2026 0.9583
10.4113 0.4643 -2.2029 0.9583
10.3272 1.3889 -2.2026 0.9583
9.9063 3.1943 -2.2002 0.9583
7.5074 7.1004 -2.1842 0.9586
6.1024 8.2822 -2.1746 0.9588
5.3278 8.7708 -2.1692 0.9589
3.6684 9.5247 -2.1575 0.9591
1.8740 9.7765 -2.1042 0.9601
0.1082 9.7144 -2.0536 0.9611
-1.6372 9.7057 -2.0806 0.9606
-3.3717 9.3719 -2.1053 0.9601
-6.3698 7.5342 -2.0855 0.9605
-7.5721 6.2585 -2.0765 0.9606
-8.9124 4.0157 -2.0663 0.9608
-9.4629 2.3668 -2.0619 0.9609
-9.7215 0.6508 -2.0595 0.9609
-9.7390 -0.2170 -2.0591 0.9610
-9.6817 -1.0831 -2.0593 0.9610
-9.5500 -1.9411 -2.0600 0.9609
-8.3039 -5.1717 -2.0679 0.9608
-6.8765 -6.2195 -1.9599 0.9628
-5.5905 -7.2438 -1.9342 0.9633
5.2980 -7.9052 -2.0116 0.9618
5.9958 -7.4211 -2.0167 0.9617
6.6483 -6.8743 -2.0215 0.9617
7.7947 -5.6103 -2.0300 0.9615
8.8357 -5.2334 -2.1707 0.9589
9.3658 -4.4737 -2.1940 0.9585
10.0347 -2.7488 -2.1993 0.9584
10.3772 -0.9273 -2.2023 0.9583
9.3402 0.0000 -2.1952 0.9623
9.0015 2.4657 -2.1935 0.9624
8.7398 3.2547 -2.1919 0.9624
8.4072 4.0158 -2.1897 0.9624
7.5422 5.4285 -2.1840 0.9625
6.4380 6.6568 -2.1765 0.9627
2.1171 8.8838 -2.1464 0.9632
1.3145 9.0131 -2.1407 0.9633
0.5057 9.0699 -2.1349 0.9634
-1.8931 8.8098 -2.1178 0.9637
-2.6627 8.5838 -2.1122 0.9637
-3.4074 8.2915 -2.1068 0.9638
-4.1217 7.9357 -2.1016 0.9639
-5.4383 7.0466 -2.0920 0.9641
-7.0656 5.3284 -2.0799 0.9643
-7.8750 3.9794 -2.0737 0.9644
-8.1882 3.2588 -2.0712 0.9644
-8.4376 2.5147 -2.0692 0.9645
-8.6215 1.7524 -2.0677 0.9645
-8.7388 0.9776 -2.0666 0.9645
-8.7707 -0.5871 -2.0659 0.9645
-8.6852 -1.3657 -2.0663 0.9645
-8.0312 -3.6187 -2.0703 0.9645
-7.2797 -4.9972 -2.0752 0.9644
-6.2690 -6.1995 -2.0721 0.9644
-4.7479 -6.7540 -1.9403 0.9666
-3.4908 -7.5225 -1.9490 0.9665
-2.1122 -8.0620 -1.9587 0.9663
-0.6527 -8.3525 -1.9690 0.9662
3.0517 -7.9235 -1.9955 0.9657
4.4303 -7.2933 -2.0056 0.9655
5.0738 -6.8862 -2.0103 0.9655
5.6791 -6.4214 -2.0147 0.9654
6.2409 -5.9027 -2.0189 0.9653
7.7658 -5.0802 -2.1810 0.9626
8.5733 -3.6354 -2.1886 0.9625
9.2526 -1.2444 -2.1942 0.9624
9.3301 -0.4160 -2.1950 0.9624
9.3312 0.4161 -2.1952 0.9623
9.1049 2.0629 -2.1941 0.9624
8.8797 2.8633 -2.1927 0.9624
8.5822 3.6391 -2.1909 0.9624
7.7822 5.0909 -2.1856 0.9625
7.2871 5.7546 -2.1823 0.9626
6.7344 6.3693 -2.1785 0.9626
4.0534 8.2483 -2.1600 0.9629
3.2950 8.5553 -2.1547 0.9630
2.5140 8.7921 -2.1492 0.9631
1.7170 8.9575 -2.1435 0.9632
0.9105 9.0505 -2.1378 0.9633
-5.1247 7.2899 -2.0943 0.9640
-5.7407 6.7901 -2.0897 0.9641
-6.3095 6.2396 -2.0855 0.9642
-6.8272 5.6427 -2.0817 0.9643
-8.0395 3.6224 -2.0724 0.9644
-8.6885 1.3662 -2.0671 0.9645
-8.7721 0.5872 -2.0663 0.9645
-8.7881 -0.1958 -2.0659 0.9645
-8.4316 -2.5129 -2.0678 0.9645
-7.8661 -3.9749 -2.0713 0.9644
-7.4900 -4.6648 -2.0738 0.9644
-7.0550 -5.3204 -2.0767 0.9643
-6.5545 -5.9282 -2.0771 0.9643
-5.7487 -6.2155 -1.9898 0.9658
-5.0389 -6.5290 -1.9383 0.9667
-3.8180 -7.3509 -1.9468 0.9665
-3.1560 -7.6797 -1.9514 0.9665
-1.7532 -8.1586 -1.9612 0.9663
-0.2803 -8.3846 -1.9717 0.9661
1.2173 -8.3464 -1.9823 0.9659
2.6922 -8.0411 -1.9929 0.9658
4.0960 -7.4743 -2.0031 0.9656
5.3815 -6.6608 -2.0125 0.9654
7.5093 -5.4049 -2.1745 0.9627
8.7317 -3.2517 -2.1898 0.9624
8.9952 -2.4640 -2.1920 0.9624
9.1855 -1.6548 -2.1936 0.9624
9.3009 -0.8311 -2.1946 0.9624
6.8297 4.9157 -2.1788 0.9658
5.8317 6.0300 -2.1720 0.9659
4.6527 6.9424 -2.1639 0.9661
3.3339 7.6248 -2.1547 0.9662
2.6360 7.8733 -2.1498 0.9663
1.1926 8.1770 -2.1396 0.9664
-2.4187 7.7971 -2.1137 0.9668
-4.3633 6.8350 -2.0996 0.9670
-5.9798 5.4085 -2.0876 0.9672
-7.4511 2.9655 -2.0764 0.9674
-7.8466 1.5949 -2.0732 0.9675
-7.9537 0.8897 -2.0722 0.9675
-7.9992 0.1782 -2.0716 0.9675
-7.9829 -0.5344 -2.0715 0.9675
-7.7659 -1.9424 -2.0727 0.9675
-7.5666 -2.6274 -2.0739 0.9674
-6.6232 -4.5466 -2.0800 0.9674
-6.2007 -5.1250 -2.0829 0.9673
-3.7607 -6.5137 -1.9474 0.9694
-3.1727 -6.8369 -1.9515 0.9693
-1.9188 -7.3240 -1.9603 0.9692
0.0850 -7.6255 -1.9745 0.9690
1.4427 -7.5264 -1.9842 0.9688
2.7675 -7.1858 -1.9937 0.9687
3.4040 -6.9269 -1.9984 0.9686
4.0159 -6.6112 -2.0028 0.9685
4.5982 -6.2407 -2.0071 0.9685
6.5895 -5.2037 -2.1740 0.9659
7.0374 -4.6037 -2.1774 0.9658
7.4294 -3.9645 -2.1803 0.9658
8.2369 -1.8662 -2.1867 0.9657
8.3749 -1.1263 -2.1879 0.9657
8.4447 -0.3766 -2.1887 0.9657
8.4456 0.3766 -2.1889 0.9657
7.7692 3.2944 -2.1850 0.9657
7.4378 3.9689 -2.1828 0.9658
7.0466 4.6097 -2.1802 0.9658
6.5993 5.2114 -2.1772 0.9659
6.0997 5.7691 -2.1738 0.9659
5.5524 6.2782 -2.1701 0.9660
4.3344 7.1354 -2.1616 0.9661
3.6743 7.4770 -2.1570 0.9662
2.9875 7.7570 -2.1522 0.9662
1.5575 8.1256 -2.1422 0.9664
-0.6398 8.1881 -2.1265 0.9666
-1.3628 8.0789 -2.1213 0.9667
-2.0714 7.9065 -2.1162 0.9668
-2.7604 7.6727 -2.1112 0.9669
-3.4245 7.3796 -2.1064 0.9669
-4.6587 6.6270 -2.0974 0.9671
-5.2197 6.1739 -2.0933 0.9671
-6.2097 5.1325 -2.0859 0.9673
-7.0011 3.9388 -2.0799 0.9674
-7.3154 3.2961 -2.0775 0.9674
-7.5723 2.6294 -2.0754 0.9674
-7.7702 1.9435 -2.0738 0.9674
-7.9842 0.5345 -2.0719 0.9675
-7.9516 -0.8895 -2.0717 0.9675
-7.8430 -1.5942 -2.0722 0.9675
-7.4448 -2.9630 -2.0746 0.9674
-6.4183 -4.8403 -2.0814 0.9673
-5.4681 -5.9121 -2.0851 0.9673
-2.8681 -6.9791 -1.9536 0.9693
-2.2406 -7.2229 -1.9580 0.9692
-0.9288 -7.5412 -1.9673 0.9691
-0.2545 -7.6124 -1.9721 0.9690
1.1046 -7.5739 -1.9818 0.9689
1.7787 -7.4637 -1.9866 0.9688
2.4418 -7.2933 -1.9914 0.9687
3.0885 -7.0636 -1.9961 0.9686
3.7133 -6.7760 -2.0006 0.9686
4.8766 -6.0358 -2.0091 0.9684
6.3344 -5.4776 -2.1682 0.9660
7.6033 -3.6318 -2.1817 0.9658
7.9049 -2.9438 -2.1840 0.9657
8.4184 -0.7523 -2.1884 0.9657
7.6826 0.6865 -2.1836 0.9684
7.5894 1.3673 -2.1831 0.9684
6.9458 3.3177 -2.1791 0.9685
6.2339 4.4869 -2.1744 0.9686
4.2494 6.3405 -2.1608 0.9688
3.6613 6.6809 -2.1567 0.9688
3.0460 6.9664 -2.1524 0.9689
1.7551 7.3649 -2.1433 0.9690
1.0903 7.4754 -2.1386 0.9691
-1.5730 7.3202 -2.1196 0.9694
-2.2135 7.1355 -2.1150 0.9694
-2.8338 6.8955 -2.1105 0.9695
-5.0236 5.4314 -2.0944 0.9697
-5.4782 4.9547 -2.0911 0.9698
-5.8888 4.4409 -2.0880 0.9698
-6.5666 3.3182 -2.0828 0.9699
-6.8291 2.7179 -2.0808 0.9699
-7.2909 0.8156 -2.0769 0.9700
-7.1187 -1.7805 -2.0773 0.9700
-6.6987 -3.0183 -2.0800 0.9699
-6.4092 -3.6058 -2.0818 0.9699
-4.7731 -5.6456 -2.0929 0.9697
-4.2488 -6.0441 -2.0915 0.9698
-3.5859 -6.2109 -2.0303 0.9706
-2.3409 -6.5066 -1.9575 0.9717
-0.5422 -6.9385 -1.9702 0.9715
0.0777 -6.9748 -1.9746 0.9714
0.6998 -6.9558 -1.9791 0.9714
1.3190 -6.8813 -1.9835 0.9713
1.9305 -6.7515 -1.9879 0.9712
2.5293 -6.5672 -1.9922 0.9712
3.1103 -6.3293 -1.9964 0.9711
5.0505 -5.7107 -2.1582 0.9688
6.0158 -4.7507 -2.1700 0.9686
7.0836 -3.0037 -2.1782 0.9685
7.3294 -2.3634 -2.1801 0.9685
7.5159 -1.7029 -2.1816 0.9685
7.7050 -0.3436 -2.1834 0.9684
7.7058 0.3436 -2.1836 0.9684
7.6438 1.0280 -2.1834 0.9684
7.5196 1.7037 -2.1827 0.9685
7.3343 2.3650 -2.1816 0.9685
7.0897 3.0063 -2.1800 0.9685
6.7879 3.6221 -2.1781 0.9685
6.4316 4.2073 -2.1757 0.9686
5.5687 5.2669 -2.1699 0.9686
5.0699 5.7326 -2.1665 0.9687
3.9590 6.5175 -2.1588 0.9688
3.3567 6.8307 -2.1546 0.9689
0.0839 7.5288 -2.1315 0.9692
-1.2467 7.3912 -2.1219 0.9693
-2.5264 7.0223 -2.1127 0.9695
-4.2662 6.0687 -2.1000 0.9696
-4.7807 5.6547 -2.0962 0.9697
-5.2562 5.1980 -2.0927 0.9697
-6.4158 3.6095 -2.0840 0.9699
-7.1223 1.7814 -2.0784 0.9699
-7.2488 1.1398 -2.0773 0.9700
-7.3325 -0.1634 -2.0763 0.9700
-7.1895 -1.4613 -2.0769 0.9700
-7.0340 -2.0964 -2.0778 0.9699
-5.8813 -4.4353 -2.0853 0.9698
-5.4705 -4.9478 -2.0881 0.9698
-3.9584 -6.2007 -2.0826 0.9699
-3.2306 -6.2199 -1.9842 0.9713
-2.6257 -6.3893 -1.9556 0.9717
-0.2328 -6.9635 -1.9724 0.9715
2.8223 -6.4548 -1.9944 0.9711
3.3927 -6.1908 -1.9985 0.9711
5.3121 -5.4927 -2.1632 0.9687
5.7938 -5.0101 -2.1684 0.9687
7.6811 -0.6864 -2.1831 0.9684
7.0846 0.0000 -2.1791 0.9708
6.8290 1.8706 -2.1778 0.9708
6.6316 2.4696 -2.1766 0.9708
6.0786 3.6004 -2.1730 0.9709
5.3316 4.6104 -2.1680 0.9709
4.4169 5.4668 -2.1617 0.9710
2.2155 6.6173 -2.1464 0.9712
1.0031 6.8777 -2.1378 0.9713
-1.4483 6.7397 -2.1203 0.9716
-2.0383 6.5708 -2.1161 0.9716
-3.1589 6.0819 -2.1079 0.9717
-4.6296 5.0054 -2.0971 0.9719
-5.0492 4.5667 -2.0940 0.9719
-5.4282 4.0936 -2.0912 0.9719
-5.7640 3.5899 -2.0886 0.9720
-6.0542 3.0593 -2.0864 0.9720
-6.4899 1.9342 -2.0829 0.9721
-6.7235 0.7521 -2.0809 0.9721
-6.7623 0.1507 -2.0805 0.9721
-6.5646 -1.6419 -2.0813 0.9721
-6.3956 -2.2208 -2.0824 0.9721
-6.1766 -2.7831 -2.0837 0.9720
-5.9093 -3.3245 -2.0855 0.9720
-5.2375 -4.3289 -2.0900 0.9720
-3.9245 -5.5827 -2.0989 0.9718
-1.0635 -6.3051 -1.9667 0.9736
-0.4991 -6.3877 -1.9707 0.9735
2.3680 -6.1483 -2.0265 0.9728
2.9965 -6.0978 -2.0898 0.9720
4.1555 -5.6399 -2.1547 0.9711
4.6527 -5.2609 -2.1602 0.9710
5.5284 -4.3657 -2.1667 0.9710
5.9027 -3.8613 -2.1695 0.9709
6.5077 -2.7595 -2.1741 0.9709
6.7330 -2.1711 -2.1759 0.9708
7.0771 -0.3156 -2.1789 0.9708
7.0778 0.3156 -2.1791 0.9708
6.9070 1.5649 -2.1783 0.9708
6.5128 2.7616 -2.1758 0.9708
6.2360 3.3276 -2.1740 0.9709
5.9091 3.8656 -2.1719 0.9709
3.6398 5.9919 -2.1563 0.9711
2.5105 6.5183 -2.1485 0.9712
1.3098 6.8332 -2.1400 0.9713
0.0772 6.9287 -2.1312 0.9714
-0.5387 6.8938 -2.1268 0.9715
-1.7453 6.6618 -2.1182 0.9716
-2.3267 6.4671 -2.1140 0.9716
-3.4235 5.9297 -2.1060 0.9718
-4.4055 5.2108 -2.0988 0.9718
-5.2439 4.3342 -2.0925 0.9719
-5.6017 3.8453 -2.0898 0.9720
-6.3996 2.2222 -2.0837 0.9720
-6.5676 1.6427 -2.0823 0.9721
-6.6845 1.0511 -2.0813 0.9721
-6.7620 -0.1507 -2.0804 0.9721
-6.7221 -0.7520 -2.0805 0.9721
-6.6300 -1.3476 -2.0809 0.9721
-6.2922 -2.5043 -2.0830 0.9721
-6.0489 -3.0567 -2.0846 0.9720
-4.6230 -4.9983 -2.0941 0.9719
-4.1660 -5.3980 -2.0973 0.9719
-1.3420 -6.2452 -1.9647 0.9736
-0.7824 -6.3526 -1.9687 0.9736
0.9295 -6.3729 -1.9809 0.9734
1.4960 -6.2777 -1.9850 0.9734
2.6776 -6.1238 -2.0557 0.9724
4.4100 -5.4584 -2.1584 0.9711
5.3246 -4.6044 -2.1651 0.9710
5.7212 -4.1179 -2.1681 0.9709
6.0724 -3.5967 -2.1708 0.9709
6.6270 -2.4679 -2.1751 0.9708
6.3080 1.7279 -2.1741 0.9728
6.1260 2.2814 -2.1729 0.9728
5.8946 2.8156 -2.1715 0.9728
5.2923 3.8091 -2.1675 0.9729
4.9266 4.2602 -2.1650 0.9729
4.5221 4.6758 -2.1622 0.9730
4.0823 5.0527 -2.1592 0.9730
2.5898 5.9231 -2.1488 0.9731
2.0487 6.1192 -2.1450 0.9732
1.4932 6.2658 -2.1411 0.9732
0.9279 6.3620 -2.1371 0.9733
-0.2140 6.4013 -2.1290 0.9734
-0.7814 6.3447 -2.1249 0.9734
-1.3405 6.2381 -2.1209 0.9735
-1.8869 6.0828 -2.1170 0.9735
-2.9250 5.6317 -2.1095 0.9736
-3.4090 5.3401 -2.1059 0.9736
-4.2885 4.6367 -2.0994 0.9737
-5.0294 3.7929 -2.0939 0.9738
-5.6103 2.8350 -2.0895 0.9739
-6.0149 1.7926 -2.0863 0.9739
-6.2318 0.6971 -2.0844 0.9739
-6.1938 -0.9739 -2.0842 0.9739
-6.0844 -1.5218 -2.0848 0.9739
-5.9275 -2.0583 -2.0857 0.9739
-5.4763 -3.0809 -2.0886 0.9739
-4.8529 -4.0110 -2.0928 0.9738
-4.0751 -4.8201 -2.0981 0.9737
-3.6352 -5.1711 -2.1011 0.9737
-3.1654 -5.4826 -2.1044 0.9737
-2.1466 -5.9667 -2.1078 0.9736
-0.4851 -6.2078 -2.0698 0.9741
0.0692 -6.2087 -2.0639 0.9742
0.6238 -6.2011 -2.0717 0.9741
1.1859 -6.1867 -2.0939 0.9738
1.7612 -6.1592 -2.1294 0.9734
2.3115 -6.0017 -2.1378 0.9733
3.3593 -5.5302 -2.1509 0.9731
4.3004 -4.8626 -2.1578 0.9730
4.7230 -4.4670 -2.1609 0.9730
5.4540 -3.5678 -2.1664 0.9729
6.0120 -2.5493 -2.1707 0.9728
6.2198 -2.0056 -2.1723 0.9728
6.4834 -0.8719 -2.1745 0.9728
6.4851 0.8721 -2.1751 0.9728
6.0164 2.5511 -2.1722 0.9728
5.1145 4.0389 -2.1663 0.9729
4.7290 4.4727 -2.1636 0.9729
4.3064 4.8693 -2.1608 0.9730
3.3646 5.5389 -2.1542 0.9731
2.3214 6.0273 -2.1470 0.9731
1.7725 6.1988 -2.1431 0.9732
1.2115 6.3203 -2.1391 0.9732
0.0714 6.4106 -2.1310 0.9733
-1.6155 6.1665 -2.1190 0.9735
-2.1540 5.9872 -2.1151 0.9735
-4.0807 4.8267 -2.1010 0.9737
-4.4877 4.4379 -2.0980 0.9737
-4.8584 4.0156 -2.0952 0.9738
-5.4811 3.0836 -2.0905 0.9738
-5.9310 2.0594 -2.0870 0.9739
-6.0870 1.5225 -2.0857 0.9739
-6.1956 0.9742 -2.0847 0.9739
-6.2559 0.4188 -2.0841 0.9739
-6.2306 -0.6970 -2.0840 0.9739
-6.0118 -1.7917 -2.0852 0.9739
-5.8316 -2.3209 -2.0863 0.9739
-5.3359 -3.3233 -2.0896 0.9739
-5.0240 -3.7888 -2.0917 0.9738
-4.6721 -4.2257 -2.0940 0.9738
-4.2829 -4.6306 -2.0967 0.9738
-3.8591 -5.0004 -2.0996 0.9737
-2.4102 -5.8648 -2.1077 0.9736
-1.3322 -6.1996 -2.1078 0.9736
-0.2076 -6.2091 -2.0651 0.9742
1.4712 -6.1734 -2.1095 0.9736
2.0388 -6.0896 -2.1347 0.9733
2.5806 -5.9020 -2.1412 0.9732
4.5161 -4.6696 -2.1594 0.9730
5.6106 -3.3232 -2.1676 0.9729
5.8899 -2.8134 -2.1697 0.9729
6.1220 -2.2799 -2.1715 0.9728
6.4369 -1.1597 -2.1741 0.9728
6.0734 0.0000 -2.1719 0.9745
6.0492 0.5406 -2.1719 0.9745
5.9761 1.0766 -2.1715 0.9745
5.8547 1.6038 -2.1708 0.9745
5.6859 2.1175 -2.1698 0.9746
5.4714 2.6135 -2.1684 0.9746
5.2130 3.0877 -2.1667 0.9746
4.5739 3.9552 -2.1624 0.9746
3.7907 4.6918 -2.1570 0.9747
3.3534 5.0036 -2.1540 0.9747
2.8904 5.2743 -2.1508 0.9748
1.3874 5.8219 -2.1402 0.9749
0.8622 5.9120 -2.1365 0.9749
0.3320 5.9547 -2.1328 0.9750
-0.1989 5.9501 -2.1290 0.9750
-1.2463 5.8000 -2.1215 0.9751
-1.7546 5.6562 -2.1178 0.9752
-3.1711 4.9674 -2.1075 0.9753
-3.9902 4.3141 -2.1015 0.9753
-4.3527 3.9368 -2.0988 0.9754
-5.4316 2.1617 -2.0905 0.9755
-5.8011 0.6489 -2.0875 0.9755
-5.6638 -1.4166 -2.0878 0.9755
-5.3282 -2.4008 -2.0899 0.9755
-4.8258 -3.3127 -2.0932 0.9754
-4.1707 -4.1245 -2.0976 0.9754
-3.7918 -4.4849 -2.1002 0.9754
-3.3821 -4.8111 -2.1030 0.9753
-2.9447 -5.1003 -2.1061 0.9753
-2.4828 -5.3503 -2.1093 0.9753
-1.4997 -5.7244 -2.1162 0.9752
-0.9852 -5.8409 -2.1183 0.9752
-0.4620 -5.9124 -2.1208 0.9751
0.5956 -5.9209 -2.1280 0.9750
1.1227 -5.8573 -2.1327 0.9750
2.6465 -5.3854 -2.1458 0.9748
3.1203 -5.1367 -2.1493 0.9748
3.5706 -4.8460 -2.1526 0.9748
4.3854 -4.1477 -2.1586 0.9747
4.7431 -3.7456 -2.1613 0.9747
5.0633 -3.3123 -2.1637 0.9746
5.9191 -1.3411 -2.1704 0.9745
6.0174 -0.8093 -2.1712 0.9745
6.0670 -0.2705 -2.1717 0.9745
6.0674 0.2705 -2.1719 0.9745
6.0188 0.8095 -2.1717 0.9745
5.7761 1.8625 -2.1703 0.9745
5.3476 2.8535 -2.1676 0.9746
4.7481 3.7496 -2.1636 0.9746
3.9986 4.5213 -2.1585 0.9747
3.5755 4.8527 -2.1555 0.9747
2.6505 5.3936 -2.1491 0.9748
2.1565 5.5991 -2.1457 0.9748
1.6468 5.7592 -2.1421 0.9749
0.5975 5.9393 -2.1347 0.9750
0.0664 5.9583 -2.1309 0.9750
-0.9876 5.8549 -2.1233 0.9751
-1.5022 5.7337 -2.1196 0.9751
-2.0031 5.5677 -2.1160 0.9752
-2.9489 5.1077 -2.1091 0.9753
-4.5210 3.7367 -2.0975 0.9754
-5.1012 2.8699 -2.0931 0.9754
-5.3319 2.4024 -2.0913 0.9755
-5.5206 1.9169 -2.0898 0.9755
-5.7204 -1.1627 -2.0875 0.9755
-5.5962 -1.6678 -2.0882 0.9755
-5.4282 -2.1604 -2.0893 0.9755
-4.9663 -3.0930 -2.0923 0.9755
-4.3478 -3.9324 -2.0964 0.9754
-3.1666 -4.9605 -2.1045 0.9753
-2.7166 -5.2304 -2.1077 0.9753
-1.7518 -5.6472 -2.1144 0.9752
-1.2439 -5.7887 -2.1173 0.9752
-0.7245 -5.8822 -2.1194 0.9751
0.3310 -5.9357 -2.1259 0.9751
0.8597 -5.8947 -2.1303 0.9750
1.9002 -5.6758 -2.1404 0.9749
2.4019 -5.4934 -2.1441 0.9749
2.8861 -5.2664 -2.1476 0.9748
3.3486 -4.9965 -2.1509 0.9748
4.1936 -4.3361 -2.1572 0.9747
4.9080 -3.5326 -2.1625 0.9746
5.2085 -3.0850 -2.1648 0.9746
5.4674 -2.6116 -2.1668 0.9746
5.6373 0.5037 -2.1689 0.9760
5.5692 1.0033 -2.1686 0.9761
5.2991 1.9734 -2.1670 0.9761
5.0994 2.4358 -2.1657 0.9761
4.2637 3.6869 -2.1601 0.9761
3.5342 4.3744 -2.1551 0.9762
2.6954 4.9184 -2.1493 0.9763
1.7753 5.3024 -2.1429 0.9763
1.2942 5.4308 -2.1395 0.9764
-2.9611 4.6385 -2.1089 0.9767
-3.3576 4.3506 -2.1060 0.9767
-3.7267 4.0292 -2.1033 0.9768
-4.0656 3.6771 -2.1007 0.9768
-4.6435 2.8920 -2.0964 0.9768
-5.2311 1.5590 -2.0918 0.9769
-5.4519 0.1215 -2.0898 0.9769
-5.3875 -0.8471 -2.0900 0.9769
-5.1553 -1.7901 -2.0913 0.9769
-4.7620 -2.6791 -2.0939 0.9769
-3.8958 -3.8526 -2.0997 0.9768
-3.1586 -4.4931 -2.1047 0.9767
-2.7498 -4.7628 -2.1076 0.9767
-1.4000 -5.3439 -2.1170 0.9766
-0.4318 -5.5253 -2.1238 0.9765
0.0618 -5.5510 -2.1274 0.9765
1.0485 -5.4701 -2.1344 0.9764
1.5337 -5.3638 -2.1379 0.9764
2.4683 -5.0228 -2.1447 0.9763
3.3294 -4.5188 -2.1510 0.9762
3.7234 -4.2102 -2.1539 0.9762
4.0885 -3.8669 -2.1566 0.9762
4.7197 -3.0875 -2.1613 0.9761
4.9803 -2.6576 -2.1633 0.9761
5.3804 -1.7350 -2.1664 0.9761
5.5163 -1.2498 -2.1675 0.9761
5.6077 -0.7542 -2.1683 0.9761
5.6538 -0.2521 -2.1688 0.9760
5.6089 0.7543 -2.1688 0.9760
5.3831 1.7358 -2.1675 0.9761
5.2045 2.2069 -2.1664 0.9761
4.4259 3.4951 -2.1612 0.9761
3.7279 4.2152 -2.1564 0.9762
3.3337 4.5246 -2.1537 0.9762
2.9138 4.7968 -2.1508 0.9762
2.0113 5.2221 -2.1445 0.9763
1.0502 5.4786 -2.1377 0.9764
-1.8700 5.1977 -2.1168 0.9766
-3.1626 4.4989 -2.1074 0.9767
-4.2230 3.4904 -2.0996 0.9768
-4.5122 3.0975 -2.0974 0.9768
-5.1580 1.7910 -2.0924 0.9769
-5.3888 0.8473 -2.0905 0.9769
-5.4415 0.3642 -2.0899 0.9769
-5.4517 -0.1215 -2.0897 0.9769
-5.4195 -0.6063 -2.0898 0.9769
-5.3450 -1.0864 -2.0902 0.9769
-4.0614 -3.6733 -2.0985 0.9768
-3.7224 -4.0246 -2.1009 0.9768
-3.3535 -4.3452 -2.1034 0.9768
-2.5367 -4.8840 -2.1090 0.9767
-1.6354 -5.2721 -2.1153 0.9766
-1.1615 -5.4053 -2.1187 0.9766
-0.1853 -5.5436 -2.1256 0.9765
1.7726 -5.2945 -2.1396 0.9764
2.6916 -4.9116 -2.1463 0.9763
3.5298 -4.3690 -2.1524 0.9762
4.5752 -3.2930 -2.1602 0.9761
4.8548 -2.8755 -2.1623 0.9761
5.0959 -2.4341 -2.1642 0.9761
5.2961 -1.9723 -2.1657 0.9761
5.4538 -1.4940 -2.1670 0.9761
5.5676 -1.0031 -2.1680 0.9761
5.6365 -0.5037 -2.1686 0.9761
4.5447 2.6918 -2.1618 0.9774
3.6619 3.7864 -2.1558 0.9775
3.3066 4.0926 -2.1534 0.9775
1.6615 4.9627 -2.1419 0.9776
1.2114 5.0834 -2.1388 0.9777
-0.1738 5.1988 -2.1289 0.9778
-0.6349 5.1547 -2.1256 0.9778
-1.0895 5.0699 -2.1224 0.9778
-1.5341 4.9454 -2.1192 0.9779
-1.9652 4.7821 -2.1160 0.9779
-2.3797 4.5817 -2.1130 0.9779
-3.4921 3.7756 -2.1049 0.9780
-3.8099 3.4459 -2.1025 0.9780
-4.0973 3.0899 -2.1003 0.9781
-4.3521 2.7105 -2.0984 0.9781
-4.7566 1.8931 -2.0953 0.9781
-4.9035 1.4614 -2.0941 0.9781
-2.1261 0.2378 -0.8756 0.9908
-2.1285 0.0474 -0.8714 0.9908
-2.1302 -0.1426 -0.8738 0.9908
-4.6663 -2.1025 -2.0947 0.9781
-4.4635 -2.5111 -2.0960 0.9781
-4.2254 -2.9006 -2.0976 0.9781
-3.6509 -3.6105 -2.1015 0.9781
-3.3187 -3.9253 -2.1038 0.9780
-1.3114 -5.0054 -2.1177 0.9779
-0.8619 -5.1099 -2.1209 0.9779
0.0579 -5.1978 -2.1274 0.9778
0.5211 -5.1800 -2.1307 0.9778
0.9816 -5.1210 -2.1340 0.9777
1.8797 -4.8806 -2.1405 0.9776
2.7230 -4.4828 -2.1466 0.9776
3.8250 -3.6177 -2.1548 0.9775
4.1363 -3.2664 -2.1571 0.9775
4.4149 -2.8881 -2.1592 0.9775
4.6584 -2.4858 -2.1610 0.9774
4.8648 -2.0629 -2.1626 0.9774
5.0322 -1.6227 -2.1640 0.9774
5.1591 -1.1689 -2.1650 0.9774
5.2445 -0.7053 -2.1658 0.9774
5.2879 0.2358 -2.1664 0.9774
5.2455 0.7055 -2.1662 0.9774
4.6617 2.4876 -2.1626 0.9774
4.4185 2.8905 -2.1610 0.9774
3.4877 3.9435 -2.1546 0.9775
3.1191 4.2333 -2.1521 0.9775
2.3131 4.7070 -2.1465 0.9776
-0.8632 5.1174 -2.1240 0.9778
-1.7515 4.8685 -2.1176 0.9779
-2.1748 4.6865 -2.1145 0.9779
-2.5796 4.4681 -2.1116 0.9779
-3.6547 3.6142 -2.1036 0.9780
-4.2289 2.9030 -2.0993 0.9781
-4.6691 2.1038 -2.0960 0.9781
-4.8348 1.6788 -2.0947 0.9781
-2.1308 0.5329 -0.8989 0.9906
-2.1345 0.3356 -0.8843 0.9907
-2.1302 0.1426 -0.8738 0.9908
-2.1261 -0.2379 -0.8756 0.9908
-4.9014 -1.4608 -2.0932 0.9781
-4.5694 -2.3090 -2.0953 0.9781
-4.3487 -2.7084 -2.0968 0.9781
-3.4883 -3.7715 -2.1026 0.9780
-2.3766 -4.5758 -2.1103 0.9780
-1.5319 -4.9384 -2.1162 0.9779
-1.0879 -5.0627 -2.1193 0.9779
-0.6339 -5.1472 -2.1225 0.9778
0.2896 -5.1941 -2.1291 0.9778
1.2097 -5.0761 -2.1357 0.9777
3.3028 -4.0879 -2.1509 0.9775
4.2798 -3.0804 -2.1582 0.9775
4.7664 -2.2767 -2.1619 0.9774
5.1008 -1.3973 -2.1645 0.9774
5.2070 -0.9381 -2.1654 0.9774
5.2713 -0.4711 -2.1660 0.9774
4.8860 0.8802 -2.1637 0.9786
4.2638 2.5255 -2.1597 0.9786
2.3673 4.3197 -2.1468 0.9787
1.9709 4.5075 -2.1440 0.9788
-0.1632 4.8821 -2.1289 0.9789
-1.8462 4.4925 -2.1168 0.9790
-2.2358 4.3046 -2.1140 0.9791
-3.2816 3.5480 -2.1063 0.9791
-3.8509 2.9041 -2.1020 0.9792
-4.4712 1.7795 -2.0973 0.9792
-1.8741 0.5585 -0.8523 0.9915
-1.9300 0.3923 -0.8583 0.9914
-1.9433 0.2174 -0.8522 0.9915
-1.9470 0.0434 -0.8487 0.9915
-1.9479 -0.1304 -0.8508 0.9915
-4.3864 -1.9764 -2.0967 0.9792
-3.9716 -2.7264 -2.0995 0.9792
-3.7162 -3.0715 -2.1012 0.9792
-3.4312 -3.3932 -2.1031 0.9792
-3.1188 -3.6889 -2.1053 0.9791
-2.7811 -3.9562 -2.1076 0.9791
-2.4208 -4.1930 -2.1101 0.9791
-2.0406 -4.3974 -2.1127 0.9791
-1.2319 -4.7021 -2.1184 0.9790
-0.3797 -4.8598 -2.1244 0.9790
0.0544 -4.8814 -2.1275 0.9789
0.4893 -4.8642 -2.1306 0.9789
0.9217 -4.8084 -2.1337 0.9789
1.3479 -4.7140 -2.1368 0.9788
1.7646 -4.5818 -2.1398 0.9788
3.2694 -3.6968 -2.1508 0.9787
3.5894 -3.3948 -2.1531 0.9787
4.1424 -2.7098 -2.1573 0.9786
4.5641 -1.9353 -2.1605 0.9786
4.7209 -1.5223 -2.1618 0.9786
4.8399 -1.0966 -2.1628 0.9786
4.9602 -0.2212 -2.1639 0.9786
4.9605 0.2212 -2.1640 0.9786
4.9208 0.6618 -2.1639 0.9786
4.8414 1.0969 -2.1634 0.9786
4.7230 1.5230 -2.1627 0.9786
4.5666 1.9364 -2.1617 0.9786
4.3736 2.3338 -2.1605 0.9786
4.1456 2.7119 -2.1590 0.9786
3.8846 3.0676 -2.1572 0.9786
3.5928 3.3981 -2.1552 0.9787
3.2728 3.7006 -2.1530 0.9787
2.9272 3.9728 -2.1507 0.9787
2.5589 4.2126 -2.1481 0.9787
0.9229 4.8149 -2.1366 0.9788
-0.3803 4.8665 -2.1274 0.9789
-2.0431 4.4028 -2.1154 0.9790
-2.4237 4.1980 -2.1126 0.9791
-3.1220 3.6928 -2.1075 0.9791
-3.7195 3.0742 -2.1030 0.9792
-3.9747 2.7285 -2.1011 0.9792
-4.3888 1.9775 -2.0979 0.9792
-1.9080 0.4772 -0.8571 0.9915
-1.9397 0.3050 -0.8557 0.9915
-1.9479 0.1304 -0.8508 0.9915
-1.9433 -0.2174 -0.8522 0.9915
-1.9300 -0.3923 -0.8583 0.9914
-4.0876 -2.5458 -2.0987 0.9792
-3.5773 -3.2355 -2.1021 0.9792
-3.2783 -3.5445 -2.1042 0.9792
-1.4391 -4.6393 -2.1169 0.9790
-1.0219 -4.7556 -2.1199 0.9790
-0.5954 -4.8345 -2.1229 0.9790
-0.1630 -4.8754 -2.1260 0.9789
0.7061 -4.8411 -2.1322 0.9789
1.1358 -4.7660 -2.1352 0.9788
1.5577 -4.6526 -2.1383 0.9788
2.3644 -4.3145 -2.1441 0.9788
2.7425 -4.0921 -2.1469 0.9787
3.0996 -3.8365 -2.1495 0.9787
3.7390 -3.2332 -2.1543 0.9787
4.0158 -2.8904 -2.1563 0.9786
4.6472 -1.7306 -2.1612 0.9786
4.8848 -0.8800 -2.1631 0.9786
4.2091 2.0105 -2.1592 0.9796
4.0111 2.3758 -2.1579 0.9797
2.5837 3.8551 -2.1482 0.9798
1.0705 4.4922 -2.1376 0.9799
0.6656 4.5635 -2.1347 0.9799
-0.1537 4.5966 -2.1289 0.9799
-0.5614 4.5584 -2.1260 0.9800
-0.9636 4.4843 -2.1231 0.9800
-1.3571 4.3748 -2.1203 0.9800
-2.1059 4.0545 -2.1148 0.9801
-2.4554 3.8463 -2.1123 0.9801
-2.7848 3.6084 -2.1098 0.9801
-3.3735 3.0511 -2.1055 0.9802
-3.8544 2.4005 -2.1019 0.9802
-1.5257 0.6072 -0.7601 0.9928
-1.5924 0.4746 -0.7692 0.9927
-1.6716 0.0373 -0.7739 0.9927
-1.6738 -0.1120 -0.7765 0.9926
-1.6521 -0.2598 -0.7741 0.9927
-1.6165 -0.4043 -0.7713 0.9927
-4.1335 -1.8625 -2.0986 0.9802
-3.9535 -2.2242 -2.0998 0.9802
-3.7424 -2.5690 -2.1012 0.9802
-3.2329 -3.1970 -2.1046 0.9802
-2.2804 -3.9498 -2.1112 0.9801
-1.1602 -4.4284 -2.1190 0.9800
-0.3576 -4.5761 -2.1247 0.9800
0.0512 -4.5960 -2.1276 0.9799
0.4607 -4.5795 -2.1305 0.9799
1.6609 -4.3125 -2.1391 0.9798
2.7514 -3.7343 -2.1471 0.9798
3.0763 -3.4785 -2.1495 0.9797
3.3772 -3.1941 -2.1517 0.9797
3.6516 -2.8836 -2.1537 0.9797
3.8971 -2.5494 -2.1556 0.9797
4.2934 -1.8206 -2.1586 0.9797
4.5526 -1.0315 -2.1607 0.9796
4.6659 0.2080 -2.1619 0.9796
4.6285 0.6225 -2.1618 0.9796
4.5539 1.0318 -2.1614 0.9796
4.4426 1.4326 -2.1607 0.9796
4.2956 1.8215 -2.1598 0.9796
4.1142 2.1954 -2.1586 0.9797
3.6546 2.8860 -2.1555 0.9797
3.0794 3.4819 -2.1516 0.9797
2.4080 3.9641 -2.1470 0.9798
-1.1616 4.4339 -2.1217 0.9800
-1.5496 4.3072 -2.1189 0.9800
-2.2830 3.9542 -2.1135 0.9801
-3.2358 3.1999 -2.1065 0.9801
-3.7451 2.5708 -2.1027 0.9802
-3.9560 2.2256 -2.1011 0.9802
-1.5621 0.5424 -0.7654 0.9927
-1.6165 0.4043 -0.7713 0.9927
-1.6716 -0.0373 -0.7739 0.9927
-1.6675 -0.1865 -0.7767 0.9926
-3.6255 -2.7342 -2.1019 0.9802
-3.0887 -3.3394 -2.1056 0.9801
-2.7820 -3.6047 -2.1077 0.9801
-1.3554 -4.3694 -2.1176 0.9800
-0.5607 -4.5525 -2.1232 0.9800
1.8526 -4.2370 -2.1405 0.9798
2.9167 -3.6101 -2.1483 0.9798
3.7781 -2.7193 -2.1547 0.9797
4.6513 -0.4157 -2.1616 0.9796
4.3331 0.7806 -2.1597 0.9806
4.2454 1.1629 -2.1592 0.9806
3.5653 2.5662 -2.1548 0.9806
3.3202 2.8711 -2.1531 0.9806
2.7536 3.4081 -2.1493 0.9807
2.4368 3.6360 -2.1471 0.9807
2.1013 3.8343 -2.1447 0.9807
1.0100 4.2380 -2.1371 0.9808
0.6280 4.3057 -2.1344 0.9808
0.2419 4.3389 -2.1316 0.9808
-0.1450 4.3376 -2.1289 0.9808
-0.9095 4.2322 -2.1234 0.9809
-1.2809 4.1293 -2.1207 0.9809
-1.6413 3.9939 -2.1181 0.9809
-1.9879 3.8275 -2.1156 0.9810
-2.3181 3.6312 -2.1132 0.9810
-2.6292 3.4068 -2.1109 0.9810
-3.1854 2.8810 -2.1068 0.9810
-3.4262 2.5838 -2.1050 0.9811
-3.8245 1.9326 -2.1019 0.9811
-1.3200 0.3934 -0.6756 0.9939
-1.3047 0.2652 -0.6531 0.9941
-1.3419 0.1501 -0.6624 0.9940
-1.3257 -0.2085 -0.6583 0.9940
-1.3149 -0.3289 -0.6649 0.9940
-1.2865 -0.5797 -0.6922 0.9937
-3.0526 -3.0188 -2.1059 0.9811
-2.7743 -3.2815 -2.1078 0.9810
-2.4737 -3.5189 -2.1099 0.9810
-2.1529 -3.7290 -2.1121 0.9810
-1.8145 -3.9102 -2.1145 0.9810
-0.7196 -4.2661 -2.1222 0.9809
0.4347 -4.3213 -2.1304 0.9808
0.8187 -4.2710 -2.1331 0.9808
1.1971 -4.1865 -2.1359 0.9808
1.9251 -3.9175 -2.1411 0.9807
2.2688 -3.7350 -2.1436 0.9807
2.5951 -3.5222 -2.1460 0.9807
3.1850 -3.0123 -2.1504 0.9807
4.0483 -1.7166 -2.1569 0.9806
4.2924 -0.9725 -2.1589 0.9806
4.3989 -0.1962 -2.1599 0.9806
4.3991 0.1962 -2.1600 0.9806
4.3639 0.5869 -2.1599 0.9806
3.8793 2.0701 -2.1569 0.9806
2.5977 3.5257 -2.1482 0.9807
2.2712 3.7390 -2.1459 0.9807
1.1985 4.1914 -2.1384 0.9808
-0.3379 4.3240 -2.1275 0.9809
-0.7205 4.2713 -2.1248 0.9809
-2.4762 3.5224 -2.1120 0.9810
-2.7769 3.2846 -2.1098 0.9810
-3.0553 3.0214 -2.1077 0.9810
-3.3091 2.7350 -2.1058 0.9811
-1.2865 0.5797 -0.6922 0.9937
-1.3149 0.3289 -0.6649 0.9940
-1.3513 0.0905 -0.6643 0.9940
-1.3536 -0.0302 -0.6641 0.9940
-1.3200 -0.3934 -0.6756 0.9939
-1.3059 -0.5198 -0.6895 0.9938
-3.8224 -1.9316 -2.1008 0.9811
-3.4237 -2.5819 -2.1034 0.9811
-3.1827 -2.8786 -2.1050 0.9811
-2.9164 -3.1532 -2.1069 0.9810
-2.6267 -3.4035 -2.1089 0.9810
-0.9084 -4.2272 -2.1208 0.9809
-0.5292 -4.2966 -2.1235 0.9809
0.6272 -4.3004 -2.1318 0.9808
1.0088 -4.2330 -2.1345 0.9808
1.7477 -3.9970 -2.1398 0.9808
2.4343 -3.6323 -2.1448 0.9807
2.7509 -3.4049 -2.1472 0.9807
3.0462 -3.1497 -2.1494 0.9807
3.3175 -2.8688 -2.1514 0.9806
3.7797 -2.2387 -2.1549 0.9806
3.9666 -1.8947 -2.1563 0.9806
4.1218 -1.5350 -2.1575 0.9806
4.3854 -0.3919 -2.1597 0.9806
4.1602 -0.0000 -2.1582 0.9814
3.3689 2.4248 -2.1533 0.9815
3.1374 2.7130 -2.1518 0.9815
2.8812 2.9791 -2.1500 0.9815
2.6022 3.2208 -2.1481 0.9815
1.9860 3.6240 -2.1438 0.9816
1.6538 3.7823 -2.1415 0.9816
1.3091 3.9100 -2.1391 0.9816
0.9548 4.0063 -2.1366 0.9816
0.5937 4.0705 -2.1341 0.9816
-0.5010 4.0678 -2.1263 0.9817
-0.8600 4.0022 -2.1237 0.9817
-1.5524 3.7774 -2.1187 0.9818
-1.8803 3.6202 -2.1163 0.9818
-2.4871 3.2227 -2.1118 0.9818
-3.2415 2.4445 -2.1062 0.9819
-3.4437 2.1448 -2.1047 0.9819
-1.1266 0.3358 -0.6099 0.9947
-1.1785 0.0263 -0.6115 0.9947
-1.1739 -0.0786 -0.6103 0.9947
-1.1517 -0.1811 -0.6048 0.9948
-3.5327 -1.9875 -2.1028 0.9819
-3.3438 -2.2954 -2.1041 0.9819
-3.1284 -2.5857 -2.1055 0.9819
-2.8880 -2.8560 -2.1072 0.9819
-2.0365 -3.5274 -2.1130 0.9818
-1.7163 -3.6986 -2.1152 0.9818
-0.6805 -4.0344 -2.1225 0.9817
-0.3191 -4.0839 -2.1251 0.9817
0.7740 -4.0379 -2.1329 0.9816
1.1317 -3.9577 -2.1355 0.9816
1.4812 -3.8458 -2.1380 0.9816
1.8197 -3.7030 -2.1404 0.9816
2.1444 -3.5302 -2.1428 0.9816
3.2540 -2.5697 -2.1510 0.9815
3.6633 -1.9548 -2.1541 0.9815
3.8250 -1.6219 -2.1554 0.9815
4.0555 -0.9189 -2.1572 0.9814
4.1223 -0.5544 -2.1578 0.9814
4.1559 -0.1853 -2.1582 0.9814
4.1562 0.1853 -2.1583 0.9814
4.1229 0.5545 -2.1581 0.9814
3.9575 1.2761 -2.1572 0.9814
3.8268 1.6227 -2.1564 0.9814
3.6654 1.9559 -2.1553 0.9815
3.4747 2.2730 -2.1540 0.9815
3.0123 2.8490 -2.1509 0.9815
2.7444 3.1031 -2.1491 0.9815
2.4550 3.3320 -2.1471 0.9815
1.8216 3.7069 -2.1427 0.9816
1.4828 3.8500 -2.1403 0.9816
1.1330 3.9622 -2.1379 0.9816
0.7749 4.0425 -2.1353 0.9816
0.4115 4.0905 -2.1328 0.9816
-0.3195 4.0886 -2.1276 0.9817
-0.6813 4.0390 -2.1250 0.9817
-1.3833 3.8451 -2.1199 0.9818
-2.6269 3.1072 -2.1108 0.9818
-3.1307 2.5875 -2.1071 0.9819
-3.3460 2.2969 -2.1054 0.9819
-3.5347 1.9886 -2.1040 0.9819
-1.0898 0.4910 -0.6201 0.9946
-1.1739 0.0786 -0.6103 0.9947
-1.1785 -0.0263 -0.6115 0.9947
-1.1649 -0.1303 -0.6081 0.9947
-1.1333 -0.2304 -0.5999 0.9948
-1.1070 -0.4406 -0.6181 0.9946
-3.4417 -2.1435 -2.1034 0.9819
-3.2393 -2.4429 -2.1048 0.9819
-3.0112 -2.7235 -2.1063 0.9819
-2.7591 -2.9831 -2.1080 0.9819
-2.4849 -3.2197 -2.1099 0.9818
-1.5507 -3.7734 -2.1164 0.9818
-1.2101 -3.9008 -2.1188 0.9818
-0.1370 -4.0965 -2.1264 0.9817
0.5930 -4.0659 -2.1316 0.9817
1.9839 -3.6203 -2.1416 0.9816
2.5999 -3.2179 -2.1462 0.9815
3.1350 -2.7110 -2.1501 0.9815
3.5715 -2.1154 -2.1534 0.9815
3.8945 -1.4503 -2.1559 0.9814
4.0098 -1.0984 -2.1568 0.9814
4.0930 -0.7374 -2.1575 0.9814
4.1433 -0.3703 -2.1580 0.9814
2.0356 0.1819 -1.1193 0.9907
2.0004 0.5480 -1.1360 0.9906
3.3827 2.0036 -2.1533 0.9822
3.1890 2.2953 -2.1520 0.9822
2.7276 2.8203 -2.1489 0.9823
2.4636 3.0493 -2.1471 0.9823
2.1805 3.2535 -2.1451 0.9823
1.5659 3.5814 -2.1408 0.9823
0.9042 3.7940 -2.1362 0.9824
0.5622 3.8551 -2.1338 0.9824
0.2166 3.8853 -2.1313 0.9824
-0.4746 3.8533 -2.1264 0.9824
-1.1476 3.6996 -2.1215 0.9825
-1.4707 3.5788 -2.1192 0.9825
-1.7815 3.4300 -2.1169 0.9825
-3.2638 2.0327 -2.1060 0.9826
-1.0000 0.2032 -0.5589 0.9954
-1.0415 0.0232 -0.5706 0.9953
-1.0166 -0.1599 -0.5637 0.9953
-0.9240 -0.5198 -0.5806 0.9952
-2.9649 -2.4505 -2.1067 0.9826
-2.7370 -2.7067 -2.1083 0.9826
-2.2175 -3.1544 -2.1118 0.9826
-1.9297 -3.3424 -2.1138 0.9826
-1.6262 -3.5044 -2.1159 0.9825
-1.3092 -3.6390 -2.1182 0.9825
-0.6447 -3.8219 -2.1228 0.9825
0.0433 -3.8846 -2.1277 0.9824
1.4026 -3.6419 -2.1375 0.9824
1.7231 -3.5064 -2.1398 0.9823
2.0305 -3.3426 -2.1421 0.9823
2.3222 -3.1518 -2.1442 0.9823
3.0804 -2.4326 -2.1498 0.9823
1.9407 -0.8229 -1.1546 0.9904
2.0226 -0.2720 -1.1178 0.9907
2.0226 0.2720 -1.1178 0.9907
1.9895 0.6415 -1.1449 0.9905
1.9407 0.8229 -1.1546 0.9904
3.0826 2.4343 -2.1513 0.9822
2.8516 2.6970 -2.1497 0.9823
2.3243 3.1546 -2.1461 0.9823
1.4041 3.6456 -2.1397 0.9823
1.0729 3.7521 -2.1374 0.9824
-0.3026 3.8728 -2.1276 0.9824
-0.6454 3.8261 -2.1252 0.9825
-0.9822 3.7492 -2.1227 0.9825
-1.3106 3.6428 -2.1204 0.9825
-1.9316 3.3456 -2.1158 0.9825
-2.4893 2.9444 -2.1117 0.9826
-2.7391 2.7087 -2.1099 0.9826
-2.9669 2.4522 -2.1082 0.9826
-3.1711 2.1768 -2.1067 0.9826
-0.9472 0.4268 -0.5690 0.9953
-0.9847 0.2463 -0.5559 0.9954
-1.0376 0.0695 -0.5696 0.9953
-1.0415 -0.0232 -0.5706 0.9953
-1.0293 -0.1152 -0.5673 0.9953
-0.9825 -0.2928 -0.5615 0.9953
-3.2619 -2.0316 -2.1047 0.9826
-2.6147 -2.8270 -2.1091 0.9826
-2.3547 -3.0511 -2.1109 0.9826
-2.0757 -3.2515 -2.1128 0.9826
-1.7798 -3.4267 -2.1149 0.9825
-0.8138 -3.7873 -2.1217 0.9825
0.2164 -3.8810 -2.1290 0.9824
0.5616 -3.8508 -2.1314 0.9824
0.9032 -3.7899 -2.1339 0.9824
1.2383 -3.6987 -2.1363 0.9824
1.5643 -3.5777 -2.1387 0.9823
2.1784 -3.2505 -2.1431 0.9823
2.4615 -3.0466 -2.1452 0.9823
2.7254 -2.8180 -2.1472 0.9823
3.3808 -2.0024 -2.1521 0.9822
1.9714 -0.7342 -1.1522 0.9905
2.0004 -0.5480 -1.1360 0.9906
2.0356 -0.1819 -1.1193 0.9907
1.8754 -0.0000 -1.0828 0.9914
1.8700 0.1671 -1.0839 0.9914
1.8426 0.3319 -1.0810 0.9914
2.8160 2.4351 -2.1494 0.9830
2.0677 3.0852 -2.1443 0.9830
1.7832 3.2540 -2.1423 0.9830
0.8576 3.5985 -2.1358 0.9831
0.5333 3.6566 -2.1335 0.9831
0.2055 3.6856 -2.1312 0.9831
-0.1232 3.6852 -2.1288 0.9831
-0.7730 3.5971 -2.1242 0.9832
-1.0889 3.5102 -2.1219 0.9832
-1.3955 3.3958 -2.1197 0.9832
-1.6905 3.2548 -2.1175 0.9832
-2.4835 2.6852 -2.1117 0.9832
-2.7105 2.4515 -2.1100 0.9833
-2.9158 2.1989 -2.1085 0.9833
-0.8760 0.4426 -0.5667 0.9955
-0.9237 0.1033 -0.5366 0.9957
-0.9306 0.0207 -0.5374 0.9957
-0.9274 -0.0621 -0.5366 0.9957
-0.8984 -0.3119 -0.5490 0.9956
-0.8858 -0.3991 -0.5609 0.9955
-0.8638 -0.4860 -0.5722 0.9954
-2.8141 -2.3259 -2.1078 0.9833
-2.5977 -2.5690 -2.1093 0.9833
-2.1044 -2.9936 -2.1127 0.9832
-1.8313 -3.1719 -2.1146 0.9832
-0.9310 -3.5536 -2.1209 0.9832
-0.2868 -3.6702 -2.1254 0.9831
0.0411 -3.6852 -2.1278 0.9831
0.3693 -3.6710 -2.1301 0.9831
0.6953 -3.6275 -2.1325 0.9831
1.3303 -3.4541 -2.1370 0.9830
1.9256 -3.1699 -2.1414 0.9830
2.2022 -2.9888 -2.1434 0.9830
2.7018 -2.5554 -2.1471 0.9830
3.1166 -2.0388 -2.1502 0.9829
1.6861 -0.8997 -1.1034 0.9912
1.8108 -0.5839 -1.0985 0.9913
1.8316 -0.4150 -1.0843 0.9914
1.8592 -0.2500 -1.0831 0.9914
1.8755 0.0836 -1.0839 0.9914
1.8316 0.4150 -1.0843 0.9914
1.6357 3.3286 -2.1413 0.9830
0.6960 3.6312 -2.1347 0.9831
0.3697 3.6748 -2.1323 0.9831
0.0411 3.6891 -2.1300 0.9831
-0.6123 3.6299 -2.1253 0.9831
-0.9319 3.5571 -2.1230 0.9832
-1.2435 3.4564 -2.1208 0.9832
-1.5446 3.3286 -2.1186 0.9832
-1.8329 3.1747 -2.1165 0.9832
-2.1062 2.9962 -2.1145 0.9832
-2.3624 2.7943 -2.1126 0.9832
-2.5996 2.5708 -2.1109 0.9833
-3.0098 2.0661 -2.1078 0.9833
-0.8638 0.4859 -0.5722 0.9954
-0.8984 0.3119 -0.5490 0.9956
-0.9030 0.2258 -0.5374 0.9957
-0.9189 0.1445 -0.5370 0.9957
-0.9274 0.0621 -0.5366 0.9957
-0.9306 -0.0207 -0.5374 0.9957
-0.9237 -0.1033 -0.5366 0.9957
-0.9120 -0.1854 -0.5373 0.9957
-0.8491 -0.5289 -0.5776 0.9954
-2.9140 -2.1975 -2.1072 0.9833
-2.7086 -2.4498 -2.1086 0.9833
-2.2348 -2.8957 -2.1118 0.9832
-1.9699 -3.0857 -2.1136 0.9832
-1.6890 -3.2518 -2.1156 0.9832
-1.3942 -3.3926 -2.1176 0.9832
-1.0878 -3.5067 -2.1198 0.9832
-0.7722 -3.5934 -2.1220 0.9832
-0.4498 -3.6518 -2.1243 0.9831
-0.1231 -3.6814 -2.1266 0.9831
0.2053 -3.6817 -2.1289 0.9831
0.5328 -3.6529 -2.1313 0.9831
0.8567 -3.5949 -2.1336 0.9831
1.4836 -3.3932 -2.1381 0.9830
2.8141 -2.4334 -2.1479 0.9830
3.0217 -2.1749 -2.1495 0.9830
3.2053 -1.8986 -2.1509 0.9829
1.7869 -0.6654 -1.1009 0.9912
