ply
format ascii 1.0
element vertex 1343
property float32 x
property float32 y
property float32 z
property float32 I
end_header
-16.4648 10.2544 -1.8622 0.9250
-18.1625 -6.3067 -1.8458 0.9257
-17.5653 -7.9146 -1.8496 0.9255
-16.0204 10.9974 -1.8655 0.9249
18.7471 3.3774 -2.2627 0.9261
17.1099 8.1727 -2.2524 0.9265
16.2744 9.6394 -2.2468 0.9266
14.2190 12.2956 -2.2329 0.9271
10.8837 13.4709 -2.0572 0.9326
-10.8738 11.7566 -1.9023 0.9375
-12.8910 9.7215 -1.9179 0.9370
-16.5975 3.3736 -2.0119 0.9341
-16.8727 -1.1295 -2.0087 0.9342
-16.7115 -2.6278 -2.0095 0.9341
-14.3734 -6.4763 -1.8727 0.9385
-13.7690 -7.7463 -1.8766 0.9383
17.2222 -3.9021 -2.0976 0.9313
17.5223 -2.3565 -2.1001 0.9313
19.0380 -0.8489 -2.2637 0.9261
19.0420 0.8491 -2.2642 0.9261
18.0978 5.8358 -2.2588 0.9263
11.4966 12.9993 -2.0614 0.9325
-11.3651 11.2391 -1.8987 0.9376
-12.2765 10.1468 -1.8919 0.9379
-14.8612 8.3608 -2.0255 0.9336
-15.5083 6.9877 -2.0205 0.9338
-16.0360 5.5683 -2.0164 0.9339
-16.7223 2.6295 -2.0108 0.9341
-16.8079 -1.8802 -2.0090 0.9341
-15.5828 -6.2018 -1.9922 0.9347
18.7175 -1.6726 -2.2322 0.9271
15.8167 0.0000 -2.2411 0.9381
15.5585 2.8030 -2.2400 0.9381
14.7832 5.5053 -2.2352 0.9383
13.5225 8.0094 -2.2269 0.9385
12.7253 9.1591 -2.2215 0.9386
11.8270 10.2272 -2.2154 0.9388
8.0010 11.9384 -2.0363 0.9436
6.8803 12.5549 -2.0285 0.9438
-7.3197 11.4660 -1.9274 0.9465
-8.2809 10.7298 -1.9204 0.9467
-9.1717 9.9164 -1.9139 0.9469
-10.7185 9.6943 -2.0477 0.9433
-12.8459 6.4913 -2.0393 0.9435
-14.2259 1.5914 -2.0282 0.9438
-14.2755 -0.9556 -2.0272 0.9438
-14.1383 -2.2231 -2.0279 0.9438
-13.5439 -4.7030 -2.0314 0.9437
13.4526 -5.7044 -2.0704 0.9427
14.9401 -3.3850 -2.1705 0.9400
15.6641 -2.1067 -2.2394 0.9381
15.8015 0.7046 -2.2411 0.9381
15.6722 2.1077 -2.2406 0.9381
15.4122 3.4919 -2.2391 0.9382
14.5119 6.1536 -2.2334 0.9383
13.1371 8.5939 -2.2243 0.9385
12.2883 9.7039 -2.2185 0.9387
10.2936 11.6391 -2.2016 0.9392
8.5406 11.5913 -2.0400 0.9435
-6.8146 11.8031 -1.9311 0.9464
-7.8087 11.1080 -1.9239 0.9466
-11.9073 8.1739 -2.0464 0.9433
-13.1092 5.9067 -2.0373 0.9436
-13.5596 4.7084 -2.0338 0.9437
-13.9058 3.4781 -2.0310 0.9437
-14.1460 2.2243 -2.0290 0.9438
-12.2965 -6.2137 -1.9521 0.9459
-11.3466 -7.0667 -1.8940 0.9474
-10.6971 -8.0671 -1.8983 0.9473
13.1715 -6.2915 -2.0682 0.9427
13.7063 -5.1043 -2.0723 0.9426
14.1289 -3.8703 -2.0757 0.9425
15.5307 -2.7980 -2.2360 0.9382
15.7479 -1.4073 -2.2402 0.9381
13.5040 0.0000 -2.2246 0.9467
13.4500 1.2019 -2.2246 0.9467
13.2845 2.3933 -2.2237 0.9467
13.0091 3.5636 -2.2221 0.9468
12.6265 4.7022 -2.2196 0.9468
12.1406 5.7991 -2.2165 0.9469
10.8785 7.8299 -2.2081 0.9471
10.1146 8.7465 -2.2029 0.9472
4.8979 11.2019 -2.0141 0.9516
3.8676 11.5518 -2.0069 0.9518
-2.5017 11.6420 -1.9617 0.9529
-5.4296 10.4538 -1.9406 0.9534
-6.3174 9.8960 -1.9341 0.9535
-7.4933 9.7094 -2.0205 0.9515
-8.5345 9.2274 -2.0706 0.9503
-9.9833 7.5288 -2.0599 0.9506
-10.5904 6.5957 -2.0553 0.9507
-11.1139 5.6161 -2.0514 0.9508
-12.3606 -0.8274 -2.0408 0.9510
-12.0286 -3.0085 -2.0426 0.9510
-11.7239 -4.0710 -2.0445 0.9509
-10.8174 -6.0858 -2.0447 0.9509
-8.2678 -8.1762 -1.9156 0.9540
12.7752 -4.1195 -2.2113 0.9470
13.1507 -2.9796 -2.2214 0.9468
13.4890 -0.6015 -2.2244 0.9467
13.4910 0.6016 -2.2247 0.9467
12.8310 4.1375 -2.2209 0.9468
9.7026 9.1766 -2.2001 0.9473
7.8659 10.6756 -2.1845 0.9477
3.3430 11.6911 -2.0032 0.9519
-4.0089 11.1428 -1.9508 0.9531
-4.9670 10.7037 -1.9439 0.9533
-5.8799 10.1843 -1.9373 0.9534
-8.1050 9.5866 -2.0681 0.9504
-8.9247 8.8258 -2.0677 0.9504
-9.6497 7.9756 -2.0624 0.9505
-10.2970 7.0685 -2.0575 0.9506
-10.8628 6.1113 -2.0533 0.9507
-12.0375 3.0108 -2.0441 0.9509
-12.2471 1.9258 -2.0424 0.9510
-12.3850 -0.2760 -2.0408 0.9510
-12.1465 -2.4689 -2.0419 0.9510
-11.8876 -3.5429 -2.0435 0.9510
-11.5376 -4.5918 -2.0457 0.9509
-9.9861 -6.2194 -1.9381 0.9534
-8.6132 -7.7902 -1.9132 0.9540
10.7107 -6.3440 -2.0507 0.9508
11.2554 -5.3762 -2.0549 0.9507
12.9977 -3.5605 -2.2201 0.9468
13.4460 -1.2015 -2.2239 0.9467
11.7231 1.0476 -2.2123 0.9532
11.3405 3.1065 -2.2101 0.9533
11.0085 4.0996 -2.2080 0.9533
10.5868 5.0569 -2.2053 0.9534
9.4909 6.8311 -2.1979 0.9535
8.0941 8.3693 -2.1884 0.9537
6.4483 9.6216 -2.1771 0.9540
3.3833 10.1054 -2.0030 0.9576
0.5874 10.5353 -1.9833 0.9580
-5.0412 9.7060 -2.0557 0.9565
-5.9745 9.3589 -2.0870 0.9558
-6.7709 8.7733 -2.0830 0.9559
-8.1783 7.3968 -2.0727 0.9561
-10.1713 4.0481 -2.0577 0.9564
-10.8891 -0.7289 -2.0513 0.9566
-10.5955 -2.6501 -2.0529 0.9565
-10.3260 -3.5856 -2.0546 0.9565
-9.5500 -5.3727 -2.0596 0.9564
-9.0168 -6.1897 -2.0557 0.9565
7.8471 -7.4217 -2.0301 0.9570
9.5900 -5.1174 -2.0431 0.9567
11.1761 -3.6038 -2.2072 0.9533
11.4644 -2.5975 -2.2095 0.9533
11.6588 -1.5680 -2.2111 0.9532
11.7573 -0.5243 -2.2121 0.9532
11.4718 2.5992 -2.2109 0.9533
11.1860 3.6070 -2.2091 0.9533
10.8087 4.5833 -2.2067 0.9533
10.3435 5.5194 -2.2036 0.9534
9.1680 7.2399 -2.1958 0.9536
6.8800 9.3376 -2.1801 0.9539
5.0184 10.2122 -2.1387 0.9547
3.8611 10.0252 -2.0193 0.9572
2.9251 10.2296 -1.9998 0.9576
1.9964 10.4151 -1.9933 0.9578
1.0580 10.5164 -1.9866 0.9579
0.1173 10.5333 -1.9800 0.9580
-1.7404 10.3177 -1.9667 0.9583
-3.5192 9.7818 -1.9540 0.9586
-4.5080 9.7146 -2.0130 0.9573
-5.5486 9.6104 -2.0858 0.9558
-6.3820 9.0786 -2.0859 0.9558
-9.0624 6.2210 -2.0661 0.9562
-10.6024 2.6518 -2.0542 0.9565
-10.6998 -2.1748 -2.0523 0.9565
-10.1612 -4.0441 -2.0556 0.9565
-9.7729 -4.9385 -2.0581 0.9564
-8.2492 -6.2210 -1.9420 0.9588
-7.5790 -6.8548 -1.9208 0.9593
-6.9542 -7.5188 -1.9251 0.9592
10.2621 -4.9018 -2.1376 0.9548
11.5735 -2.0851 -2.2104 0.9533
10.3792 0.9275 -2.2027 0.9583
10.2524 1.8471 -2.2020 0.9583
9.7487 3.6305 -2.1989 0.9584
9.3766 4.4788 -2.1965 0.9584
8.9286 5.2884 -2.1935 0.9585
8.4091 6.0525 -2.1901 0.9585
7.8228 6.7646 -2.1861 0.9586
7.1751 7.4190 -2.1817 0.9587
5.7196 8.5342 -2.1716 0.9589
4.9247 8.9865 -2.1661 0.9590
4.0943 9.3640 -2.1603 0.9591
0.5420 9.7196 -2.0577 0.9610
-1.1957 9.7086 -2.0677 0.9608
-2.9516 9.5150 -2.1058 0.9601
-3.7841 9.2080 -2.1043 0.9601
-4.5761 8.8106 -2.0986 0.9602
-6.0351 7.8199 -2.0880 0.9604
-6.6917 7.2350 -2.0832 0.9605
-7.2935 6.5966 -2.0787 0.9606
-9.0780 3.6129 -2.0653 0.9608
-9.7219 -0.6508 -2.0596 0.9609
-9.6275 -1.5138 -2.0601 0.9609
-9.2176 -3.2007 -2.0625 0.9609
-8.9047 -4.0123 -2.0645 0.9609
-8.5226 -4.7947 -2.0670 0.9608
-6.4876 -6.4157 -1.9287 0.9634
-5.9030 -6.9821 -1.9327 0.9633
-5.2700 -7.4967 -1.9370 0.9632
-4.5929 -7.9552 -1.9417 0.9631
-3.8766 -8.3538 -1.9467 0.9630
5.6532 -7.6725 -2.0145 0.9618
7.5305 -5.9468 -2.0283 0.9615
9.5628 -4.0550 -2.1956 0.9584
9.8975 -3.1915 -2.1982 0.9584
10.1516 -2.3001 -2.2002 0.9583
10.3229 -1.3883 -2.2017 0.9583
10.1574 2.3014 -2.2015 0.9583
9.5723 4.0590 -2.1978 0.9584
8.6775 5.6766 -2.1919 0.9585
6.8301 7.7229 -2.1793 0.9587
6.1015 8.2810 -2.1743 0.9588
2.7901 9.7575 -2.1452 0.9594
1.8740 9.7764 -2.1042 0.9601
0.1082 9.7143 -2.0535 0.9611
-0.7588 9.7108 -2.0589 0.9610
-3.3716 9.3715 -2.1053 0.9601
-4.1847 9.0179 -2.1014 0.9602
-4.9575 8.5867 -2.0958 0.9603
-7.5726 6.2589 -2.0767 0.9606
-9.2248 3.2032 -2.0641 0.9609
-9.6310 1.5144 -2.0608 0.9609
-9.7234 0.6509 -2.0599 0.9609
-9.5524 -1.9416 -2.0605 0.9609
-9.0700 -3.6098 -2.0635 0.9609
-8.7222 -4.4075 -2.0657 0.9608
-8.3064 -5.1732 -2.0685 0.9608
-7.8161 -5.8944 -2.0693 0.9608
-6.8767 -6.2196 -1.9599 0.9628
-6.2016 -6.7051 -1.9306 0.9633
-5.5923 -7.2461 -1.9348 0.9633
6.6493 -6.8753 -2.0218 0.9617
8.8357 -5.2334 -2.1707 0.9589
9.3662 -4.4739 -2.1941 0.9585
9.7400 -3.6272 -2.1970 0.9584
10.0348 -2.7488 -2.1993 0.9584
10.2478 -1.8462 -2.2010 0.9583
10.3769 -0.9273 -2.2022 0.9583
9.3399 -0.0000 -2.1951 0.9623
9.1892 1.6555 -2.1944 0.9624
8.7390 3.2544 -2.1917 0.9624
8.4064 4.0154 -2.1895 0.9624
8.0059 4.7419 -2.1869 0.9625
7.5413 5.4279 -2.1837 0.9625
7.0168 6.0677 -2.1802 0.9626
5.8077 7.1882 -2.1719 0.9627
5.1338 7.6601 -2.1672 0.9628
4.4215 8.0682 -2.1623 0.9629
2.9066 8.6816 -2.1517 0.9631
2.1169 8.8828 -2.1461 0.9632
1.3144 9.0122 -2.1405 0.9633
-2.6626 8.5834 -2.1121 0.9637
-3.4073 8.2913 -2.1068 0.9638
-5.4385 7.0468 -2.0920 0.9641
-6.5754 5.9471 -2.0837 0.9642
-7.0662 5.3289 -2.0800 0.9643
-8.1893 3.2593 -2.0715 0.9644
-8.5347 -2.1347 -2.0677 0.9645
-7.6877 -4.3250 -2.0731 0.9644
-6.2691 -6.1996 -2.0722 0.9644
-5.3210 -6.2937 -1.9370 0.9667
-4.7494 -6.7561 -1.9409 0.9666
-4.1382 -7.1676 -1.9451 0.9666
-3.4919 -7.5248 -1.9496 0.9665
-1.3902 -8.2417 -1.9644 0.9662
-0.6529 -8.3548 -1.9696 0.9662
1.5904 -8.2971 -1.9855 0.9659
2.3288 -8.1442 -1.9908 0.9658
4.4311 -7.2946 -2.0059 0.9655
5.0746 -6.8873 -2.0106 0.9655
5.6799 -6.4224 -2.0150 0.9654
7.7664 -5.0806 -2.1812 0.9626
8.8727 -2.8611 -2.1910 0.9624
9.0997 -2.0617 -2.1928 0.9624
9.3298 -0.4160 -2.1949 0.9624
9.1043 2.0628 -2.1939 0.9624
8.8789 2.8631 -2.1926 0.9624
7.7814 5.0903 -2.1854 0.9625
7.2863 5.7539 -2.1820 0.9626
6.1283 6.9294 -2.1741 0.9627
4.7821 7.8723 -2.1648 0.9629
2.5138 8.7911 -2.1489 0.9631
1.7168 8.9565 -2.1433 0.9632
-0.7048 9.0190 -2.1261 0.9635
-1.5007 8.8967 -2.1205 0.9636
-2.2806 8.7048 -2.1149 0.9637
-3.0384 8.4455 -2.1094 0.9638
-5.1248 7.2901 -2.0943 0.9640
-5.7409 6.7904 -2.0898 0.9641
-6.3098 6.2399 -2.0856 0.9642
-6.8276 5.6431 -2.0818 0.9643
-8.0405 3.6229 -2.0727 0.9644
-8.5392 2.1358 -2.0687 0.9645
-8.7738 0.5873 -2.0667 0.9645
-8.1828 -3.2567 -2.0699 0.9645
-7.8682 -3.9760 -2.0719 0.9644
-7.4921 -4.6661 -2.0744 0.9644
-6.5563 -5.9299 -2.0776 0.9643
-4.4485 -6.9684 -1.9430 0.9666
-2.4668 -7.9522 -1.9568 0.9664
1.2176 -8.3485 -1.9828 0.9659
1.9611 -8.2290 -1.9882 0.9658
2.6928 -8.0429 -1.9934 0.9657
3.4067 -7.7913 -1.9985 0.9657
4.0968 -7.4758 -2.0035 0.9656
4.7573 -7.0984 -2.0083 0.9655
5.3824 -6.6619 -2.0128 0.9654
6.5770 -5.6873 -2.0435 0.9649
7.5100 -5.4053 -2.1747 0.9627
7.9966 -4.7364 -2.1843 0.9625
8.3981 -4.0114 -2.1873 0.9625
8.7320 -3.2519 -2.1899 0.9624
8.9953 -2.4641 -2.1920 0.9624
9.1855 -1.6549 -2.1936 0.9624
9.3007 -0.8311 -2.1946 0.9624
8.4536 -0.0000 -2.1888 0.9657
8.3175 1.4985 -2.1882 0.9657
8.1473 2.2318 -2.1872 0.9657
7.2488 4.2935 -2.1814 0.9658
6.3551 5.4954 -2.1753 0.9659
5.8311 6.0294 -2.1718 0.9659
5.2618 6.5127 -2.1678 0.9660
2.6357 7.8725 -2.1496 0.9663
1.9201 8.0570 -2.1445 0.9664
0.4589 8.2300 -2.1342 0.9665
-0.2748 8.2180 -2.1290 0.9666
-1.0027 8.1411 -2.1238 0.9667
-2.4186 7.7969 -2.1137 0.9668
-3.0958 7.5333 -2.1088 0.9669
-3.7457 7.2117 -2.1041 0.9670
-4.3634 6.8351 -2.0996 0.9670
-5.4847 5.9300 -2.0914 0.9672
-6.4277 4.8473 -2.0844 0.9673
-6.8239 4.2499 -2.0815 0.9673
-7.6798 2.2888 -2.0749 0.9674
-7.8479 1.5952 -2.0735 0.9675
-7.9551 0.8899 -2.0726 0.9675
-7.9846 -0.5345 -2.0720 0.9675
-7.3103 -3.2939 -2.0760 0.9674
-6.9951 -3.9354 -2.0781 0.9674
-6.2023 -5.1264 -2.0834 0.9673
-5.7303 -5.6668 -2.0866 0.9672
-5.1956 -6.1454 -2.0836 0.9673
-4.3734 -6.2213 -1.9690 0.9691
-3.7618 -6.5156 -1.9480 0.9694
-1.9193 -7.3260 -1.9608 0.9692
-1.2626 -7.4853 -1.9655 0.9691
0.0850 -7.6274 -1.9750 0.9690
2.1124 -7.3876 -1.9894 0.9688
3.4046 -6.9282 -1.9987 0.9686
4.0166 -6.6123 -2.0032 0.9685
4.5989 -6.2417 -2.0074 0.9685
5.2077 -5.8885 -2.0353 0.9680
6.0689 -5.7400 -2.1628 0.9661
6.5902 -5.2042 -2.1742 0.9659
7.0380 -4.6040 -2.1775 0.9658
7.4299 -3.9647 -2.1805 0.9658
7.7623 -3.2915 -2.1830 0.9658
8.3749 -1.1263 -2.1879 0.9657
8.4446 -0.3766 -2.1886 0.9657
8.3772 1.1266 -2.1885 0.9657
8.2408 1.8671 -2.1878 0.9657
8.0373 2.5917 -2.1865 0.9657
7.4371 3.9686 -2.1826 0.9658
7.0460 4.6093 -2.1800 0.9658
6.5986 5.2109 -2.1770 0.9659
4.9618 6.7342 -2.1658 0.9660
3.6739 7.4762 -2.1568 0.9662
2.9872 7.7562 -2.1520 0.9662
1.5574 8.1248 -2.1420 0.9664
0.8261 8.2114 -2.1368 0.9665
0.0917 8.2322 -2.1316 0.9666
-0.6398 8.1876 -2.1264 0.9666
-1.3627 8.0785 -2.1212 0.9667
-2.0713 7.9062 -2.1162 0.9668
-3.4245 7.3796 -2.1064 0.9669
-4.0588 7.0301 -2.1018 0.9670
-6.2102 5.1328 -2.0861 0.9673
-6.6323 4.5529 -2.0829 0.9673
-7.0019 3.9392 -2.0801 0.9673
-7.7714 1.9437 -2.0741 0.9674
-7.9091 1.2436 -2.0730 0.9675
-7.9856 0.5346 -2.0722 0.9675
-7.8448 -1.5945 -2.0727 0.9675
-7.4466 -2.9637 -2.0752 0.9674
-7.1597 -3.6180 -2.0770 0.9674
-5.9723 -5.4016 -2.0850 0.9673
-4.0442 -6.3352 -1.9460 0.9694
-1.5929 -7.4129 -1.9631 0.9692
0.4252 -7.6253 -1.9774 0.9689
1.7791 -7.4654 -1.9871 0.9688
3.0891 -7.0650 -1.9965 0.9686
4.8773 -6.0368 -2.0094 0.9684
5.6278 -5.8191 -2.0960 0.9671
6.8208 -4.9094 -2.1759 0.9659
7.2412 -4.2890 -2.1791 0.9658
8.4183 -0.7523 -2.1883 0.9657
7.5891 1.3672 -2.1830 0.9685
7.4341 2.0364 -2.1821 0.9685
7.2189 2.6883 -2.1807 0.9685
6.9453 3.3175 -2.1790 0.9685
6.6158 3.9186 -2.1768 0.9685
5.3240 5.5050 -2.1680 0.9687
4.8050 5.9472 -2.1644 0.9687
4.2490 6.3400 -2.1606 0.9688
1.0902 7.4749 -2.1385 0.9691
-0.2513 7.5162 -2.1290 0.9692
-0.9172 7.4473 -2.1242 0.9693
-1.5730 7.3200 -2.1195 0.9694
-2.2134 7.1354 -2.1149 0.9694
-2.8337 6.8955 -2.1105 0.9695
-3.4292 6.6024 -2.1062 0.9695
-4.5283 5.8675 -2.0982 0.9697
-5.8892 4.4413 -2.0881 0.9698
-6.2530 3.8944 -2.0854 0.9698
-6.5673 3.3186 -2.0830 0.9699
-7.0393 2.0979 -2.0794 0.9699
-7.3342 0.1634 -2.0768 0.9700
-7.3194 -0.4900 -2.0767 0.9700
-7.2479 -1.1397 -2.0770 0.9700
-7.1202 -1.7809 -2.0778 0.9699
-6.9373 -2.4089 -2.0789 0.9699
-6.7002 -3.0190 -2.0804 0.9699
-6.0709 -4.1675 -2.0846 0.9699
-5.6830 -4.6971 -2.0872 0.9698
-5.2498 -5.1916 -2.0902 0.9698
-4.7743 -5.6471 -2.0934 0.9697
-2.9056 -6.2614 -1.9541 0.9717
-2.3415 -6.5083 -1.9581 0.9717
0.6999 -6.9574 -1.9795 0.9713
1.3193 -6.8828 -1.9839 0.9713
2.5298 -6.5684 -1.9926 0.9712
3.1109 -6.3305 -1.9968 0.9711
6.4244 -4.2027 -2.1733 0.9686
6.7813 -3.6187 -2.1760 0.9686
7.0840 -3.0039 -2.1783 0.9685
7.3297 -2.3635 -2.1802 0.9685
7.7050 -0.3436 -2.1834 0.9684
7.7056 0.3436 -2.1836 0.9684
7.6435 1.0280 -2.1833 0.9684
7.3340 2.3649 -2.1815 0.9685
6.4311 4.2070 -2.1755 0.9686
6.0235 4.7567 -2.1728 0.9686
5.0694 5.7321 -2.1663 0.9687
4.5313 6.1500 -2.1626 0.9687
2.7296 7.0872 -2.1500 0.9689
0.7553 7.5077 -2.1361 0.9691
0.0839 7.5283 -2.1314 0.9692
-0.5852 7.4892 -2.1266 0.9693
-1.2467 7.3909 -2.1219 0.9693
-1.8954 7.2347 -2.1172 0.9694
-3.7163 6.4367 -2.1041 0.9696
-4.2663 6.0689 -2.1001 0.9696
-4.7809 5.6549 -2.0963 0.9697
-5.2565 5.1983 -2.0928 0.9697
-5.6896 4.7026 -2.0896 0.9698
-6.0771 4.1717 -2.0867 0.9698
-6.4165 3.6098 -2.0842 0.9699
-7.1233 1.7817 -2.0787 0.9699
-7.3203 0.4900 -2.0770 0.9700
-7.1911 -1.4616 -2.0774 0.9700
-7.0356 -2.0968 -2.0783 0.9699
-6.2470 -3.8907 -2.0834 0.9699
-5.4719 -4.9490 -2.0887 0.9698
-5.0171 -5.4245 -2.0918 0.9697
-3.2306 -6.2200 -1.9842 0.9713
-2.6264 -6.3910 -1.9561 0.9717
-1.4577 -6.7837 -1.9643 0.9716
-0.8500 -6.9016 -1.9685 0.9715
0.3889 -6.9739 -1.9773 0.9714
1.6264 -6.8247 -1.9861 0.9713
2.8229 -6.4561 -1.9947 0.9711
3.3933 -6.1919 -1.9989 0.9711
4.0328 -6.0173 -2.0506 0.9703
4.7800 -5.9163 -2.1532 0.9689
5.3128 -5.4934 -2.1634 0.9687
5.7944 -5.0106 -2.1686 0.9687
6.2266 -4.4816 -2.1718 0.9686
6.6095 -3.9148 -2.1747 0.9686
7.2141 -2.6866 -2.1793 0.9685
7.5866 -1.3668 -2.1823 0.9685
7.0846 0.0000 -2.1791 0.9708
7.0564 0.6306 -2.1790 0.9708
6.8287 1.8706 -2.1777 0.9708
6.3804 3.0477 -2.1749 0.9708
3.9061 5.8283 -2.1580 0.9711
2.2153 6.6169 -2.1462 0.9712
1.6144 6.7744 -2.1420 0.9713
0.3861 6.9252 -2.1333 0.9714
-0.8444 6.8557 -2.1246 0.9715
-2.0383 6.5708 -2.1160 0.9716
-3.1589 6.0820 -2.1080 0.9717
-4.6298 5.0057 -2.0972 0.9719
-5.0495 4.5670 -2.0941 0.9719
-5.4287 4.0939 -2.0913 0.9719
-6.4908 1.9345 -2.0832 0.9721
-6.6335 1.3483 -2.0821 0.9721
-6.7246 0.7523 -2.0813 0.9721
-6.7635 0.1507 -2.0808 0.9721
-6.6839 -1.0510 -2.0811 0.9721
-6.1780 -2.7837 -2.0842 0.9720
-5.2388 -4.3300 -2.0905 0.9720
-3.4141 -5.9135 -2.1002 0.9718
-2.2352 -6.2128 -2.0308 0.9727
-1.0638 -6.3066 -1.9672 0.9736
-0.4993 -6.3892 -1.9712 0.9735
0.0715 -6.4214 -1.9752 0.9735
1.7764 -6.2124 -1.9874 0.9733
2.9966 -6.0979 -2.0898 0.9720
4.6533 -5.2616 -2.1604 0.9710
5.1111 -4.8340 -2.1638 0.9710
5.5289 -4.3662 -2.1669 0.9709
5.9032 -3.8617 -2.1697 0.9709
6.7333 -2.1712 -2.1760 0.9708
7.0771 -0.3156 -2.1789 0.9708
7.0777 0.3156 -2.1791 0.9708
7.0207 0.9442 -2.1789 0.9708
6.9068 1.5649 -2.1782 0.9708
5.9088 3.8653 -2.1717 0.9709
5.5349 4.3708 -2.1692 0.9709
5.1171 4.8397 -2.1664 0.9710
4.6593 5.2684 -2.1632 0.9710
4.1653 5.6532 -2.1598 0.9710
2.5103 6.5179 -2.1483 0.9712
1.9165 6.7024 -2.1441 0.9712
1.3097 6.8328 -2.1399 0.9713
0.6950 6.9082 -2.1355 0.9714
-0.5387 6.8935 -2.1268 0.9715
-1.7453 6.6617 -2.1181 0.9716
-2.3267 6.4671 -2.1140 0.9716
-2.8875 6.2225 -2.1099 0.9717
-3.9309 5.5917 -2.1023 0.9718
-4.4057 5.2111 -2.0989 0.9718
-4.8446 4.7909 -2.0957 0.9719
-5.9155 3.3280 -2.0877 0.9720
-6.5686 1.6429 -2.0826 0.9721
-6.7632 -0.1507 -2.0807 0.9721
-6.7234 -0.7521 -2.0809 0.9721
-6.6313 -1.3479 -2.0814 0.9721
-6.2936 -2.5048 -2.0835 0.9721
-6.0503 -3.0573 -2.0850 0.9720
-5.0439 -4.5619 -2.0918 0.9719
-4.6241 -4.9996 -2.0947 0.9719
-2.5505 -6.2062 -2.0638 0.9723
-1.9290 -6.2184 -2.0026 0.9731
-0.7826 -6.3542 -1.9692 0.9736
-0.2144 -6.4117 -1.9732 0.9735
0.9297 -6.3742 -1.9813 0.9734
2.6776 -6.1239 -2.0557 0.9724
5.7217 -4.1182 -2.1683 0.9709
6.0729 -3.5970 -2.1710 0.9709
6.3757 -3.0454 -2.1732 0.9709
6.5179 0.5824 -2.1752 0.9728
5.8944 2.8155 -2.1714 0.9728
5.2920 3.8089 -2.1673 0.9729
3.1118 5.6783 -2.1524 0.9731
2.5897 5.9227 -2.1487 0.9731
2.0486 6.1189 -2.1449 0.9732
0.9278 6.3617 -2.1370 0.9733
0.3572 6.4069 -2.1330 0.9733
-0.2140 6.4011 -2.1289 0.9734
-1.8869 6.0827 -2.1170 0.9735
-2.4164 5.8801 -2.1132 0.9736
-2.9251 5.6318 -2.1095 0.9736
-4.6781 4.2311 -2.0967 0.9738
-5.3415 3.3267 -2.0917 0.9738
-5.8362 2.3227 -2.0880 0.9739
-6.1482 1.2497 -2.0855 0.9739
-6.2328 0.6972 -2.0847 0.9739
-6.2689 0.1397 -2.0843 0.9739
-6.1950 -0.9741 -2.0846 0.9739
-6.0856 -1.5221 -2.0852 0.9739
-5.7255 -2.5798 -2.0875 0.9739
-5.4775 -3.0816 -2.0891 0.9739
-5.1863 -3.5602 -2.0910 0.9738
-4.8540 -4.0119 -2.0933 0.9738
-4.4831 -4.4334 -2.0958 0.9738
-4.0761 -4.8212 -2.0986 0.9737
-3.1661 -5.4839 -2.1049 0.9737
-2.1471 -5.9680 -2.1083 0.9736
-1.6081 -6.1381 -2.1092 0.9736
-1.0464 -6.2032 -2.0911 0.9738
-0.4851 -6.2079 -2.0698 0.9741
0.0692 -6.2088 -2.0640 0.9742
1.1859 -6.1867 -2.0939 0.9738
1.7612 -6.1592 -2.1294 0.9734
3.3598 -5.5311 -2.1512 0.9731
3.8451 -5.2186 -2.1547 0.9730
4.3010 -4.8632 -2.1580 0.9730
6.0124 -2.5495 -2.1708 0.9728
6.3776 -1.4450 -2.1737 0.9728
6.5371 -0.2915 -2.1751 0.9728
6.5375 0.2915 -2.1753 0.9728
6.3799 1.4455 -2.1745 0.9728
6.2231 2.0067 -2.1735 0.9728
5.1142 4.0386 -2.1661 0.9729
4.3061 4.8690 -2.1606 0.9730
3.8500 5.2253 -2.1575 0.9730
2.8534 5.8065 -2.1506 0.9731
0.6429 6.3907 -2.1350 0.9733
0.0714 6.4103 -2.1310 0.9733
-1.6155 6.1664 -2.1189 0.9735
-2.6736 5.7615 -2.1113 0.9736
-3.6407 5.1789 -2.1043 0.9737
-4.0809 4.8269 -2.1011 0.9737
-4.4879 4.4382 -2.0981 0.9737
-5.4816 3.0839 -2.0907 0.9738
-5.9317 2.0597 -2.0872 0.9739
-6.1965 0.9743 -2.0851 0.9739
-6.2569 0.4188 -2.0845 0.9739
-6.2317 -0.6971 -2.0844 0.9739
-6.1463 -1.2493 -2.0848 0.9739
-5.3371 -3.3240 -2.0900 0.9738
-4.2839 -4.6317 -2.0972 0.9738
-2.9211 -5.6241 -2.1066 0.9736
-2.4107 -5.8661 -2.1082 0.9736
-1.8794 -6.0587 -2.1086 0.9736
-1.3322 -6.1997 -2.1079 0.9736
-0.2076 -6.2092 -2.0651 0.9742
0.3460 -6.2054 -2.0659 0.9741
0.9037 -6.1962 -2.0814 0.9740
2.0392 -6.0907 -2.1350 0.9733
2.5810 -5.9029 -2.1415 0.9732
3.6059 -5.3804 -2.1530 0.9731
4.0770 -5.0461 -2.1564 0.9730
4.5166 -4.6702 -2.1596 0.9730
4.9212 -4.2555 -2.1626 0.9729
5.2870 -3.8054 -2.1653 0.9729
5.8903 -2.8136 -2.1699 0.9729
6.1224 -2.2800 -2.1716 0.9728
6.3052 -1.7272 -2.1731 0.9728
6.5169 -0.5824 -2.1749 0.9728
6.0492 0.5406 -2.1719 0.9745
5.9761 1.0766 -2.1715 0.9745
5.8546 1.6037 -2.1708 0.9745
5.6858 2.1174 -2.1697 0.9746
5.4713 2.6134 -2.1683 0.9746
5.2128 3.0876 -2.1666 0.9746
4.9128 3.5360 -2.1646 0.9746
4.5737 3.9550 -2.1623 0.9746
3.7905 4.6916 -2.1569 0.9747
2.4056 5.5017 -2.1473 0.9748
1.3874 5.8216 -2.1402 0.9749
0.8622 5.9118 -2.1365 0.9749
0.3320 5.9546 -2.1327 0.9750
-0.1989 5.9499 -2.1289 0.9750
-0.7264 5.8982 -2.1252 0.9751
-1.7546 5.6563 -2.1178 0.9752
-2.2473 5.4685 -2.1143 0.9752
-2.7207 5.2383 -2.1108 0.9752
-4.3530 3.9371 -2.0989 0.9754
-4.6807 3.5299 -2.0965 0.9754
-4.9712 3.0961 -2.0943 0.9754
-5.2223 2.6389 -2.0924 0.9755
-5.7231 1.1633 -2.0885 0.9755
-5.8020 0.6490 -2.0878 0.9755
-5.8357 0.1300 -2.0874 0.9755
-5.3293 -2.4013 -2.0903 0.9755
-5.0982 -2.8682 -2.0919 0.9755
-4.5172 -3.7336 -2.0957 0.9754
-3.7926 -4.4859 -2.1007 0.9754
-2.9453 -5.1015 -2.1065 0.9753
-2.4834 -5.3515 -2.1098 0.9752
-2.0004 -5.5602 -2.1131 0.9752
-1.5001 -5.7257 -2.1166 0.9752
-0.9854 -5.8421 -2.1187 0.9751
-0.4621 -5.9136 -2.1212 0.9751
0.5958 -5.9220 -2.1284 0.9750
1.6439 -5.7492 -2.1383 0.9749
2.1534 -5.5912 -2.1426 0.9749
2.6469 -5.3862 -2.1462 0.9748
3.5711 -4.8467 -2.1529 0.9747
3.9940 -4.5161 -2.1560 0.9747
4.7435 -3.7459 -2.1615 0.9747
5.7734 -1.8617 -2.1693 0.9746
6.0175 -0.8093 -2.1713 0.9745
6.0675 0.2705 -2.1719 0.9745
6.0187 0.8094 -2.1717 0.9745
4.3904 4.1524 -2.1610 0.9747
3.9984 4.5211 -2.1584 0.9747
3.1247 5.1440 -2.1523 0.9748
2.6504 5.3934 -2.1490 0.9748
2.1564 5.5988 -2.1456 0.9748
1.6467 5.7589 -2.1420 0.9749
0.5975 5.9391 -2.1346 0.9750
-0.4634 5.9299 -2.1271 0.9750
-0.9876 5.8548 -2.1233 0.9751
-3.3868 4.8178 -2.1060 0.9753
-4.1759 4.1296 -2.1002 0.9754
-5.6669 1.4174 -2.0889 0.9755
-5.8355 -0.1300 -2.0873 0.9755
-5.7215 -1.1629 -2.0879 0.9755
-5.2189 -2.6372 -2.0911 0.9755
-4.6767 -3.5269 -2.0947 0.9754
-4.3488 -3.9333 -2.0969 0.9754
-3.9862 -4.3098 -2.0994 0.9754
-3.5914 -4.6535 -2.1021 0.9753
-3.1674 -4.9616 -2.1050 0.9753
-2.7172 -5.2316 -2.1081 0.9753
-1.2442 -5.7899 -2.1178 0.9752
0.3310 -5.9368 -2.1263 0.9751
0.8599 -5.8958 -2.1307 0.9750
2.8865 -5.2672 -2.1479 0.9748
3.3491 -4.9972 -2.1513 0.9748
3.7862 -4.6862 -2.1544 0.9747
4.1940 -4.3366 -2.1574 0.9747
4.9085 -3.5329 -2.1627 0.9746
5.8523 -1.6031 -2.1699 0.9746
5.9745 -1.0764 -2.1709 0.9745
6.0484 -0.5405 -2.1716 0.9745
5.6599 0.0000 -2.1690 0.9760
5.5692 1.0033 -2.1686 0.9761
5.0993 2.4357 -2.1656 0.9761
4.5793 3.2960 -2.1622 0.9761
4.2635 3.6868 -2.1600 0.9761
3.9141 4.0472 -2.1576 0.9762
3.5341 4.3742 -2.1550 0.9762
1.7752 5.3022 -2.1428 0.9763
1.2942 5.4306 -2.1394 0.9764
0.8044 5.5153 -2.1359 0.9764
0.3098 5.5559 -2.1324 0.9764
-0.6780 5.5046 -2.1254 0.9765
-1.1633 5.4136 -2.1219 0.9766
-2.0981 5.1054 -2.1152 0.9766
-2.5403 4.8910 -2.1120 0.9767
-2.9613 4.6387 -2.1090 0.9767
-3.3578 4.3508 -2.1061 0.9767
-3.7269 4.0295 -2.1034 0.9768
-4.0659 3.6774 -2.1009 0.9768
-4.3723 3.2973 -2.0986 0.9768
-4.6440 2.8923 -2.0966 0.9768
-5.0752 2.0199 -2.0933 0.9769
-5.4212 0.6064 -2.0905 0.9769
-5.4528 0.1215 -2.0901 0.9769
-5.3884 -0.8473 -2.0903 0.9769
-4.9792 -2.2435 -2.0929 0.9769
-4.7630 -2.6796 -2.0943 0.9769
-4.5092 -3.0954 -2.0960 0.9768
-3.8966 -3.8535 -2.1001 0.9768
-3.1593 -4.4941 -2.1052 0.9767
-2.7504 -4.7639 -2.1080 0.9767
-0.9205 -5.4572 -2.1208 0.9766
0.0619 -5.5520 -2.1278 0.9765
0.5567 -5.5336 -2.1313 0.9765
1.0487 -5.4711 -2.1348 0.9764
1.5340 -5.3648 -2.1383 0.9764
2.0086 -5.2153 -2.1417 0.9763
2.4686 -5.0235 -2.1450 0.9763
3.3299 -4.5194 -2.1512 0.9762
3.7239 -4.2107 -2.1541 0.9762
4.4220 -3.4920 -2.1593 0.9762
4.7201 -3.0877 -2.1615 0.9761
4.9807 -2.6578 -2.1634 0.9761
5.5165 -1.2499 -2.1676 0.9761
5.6079 -0.7542 -2.1684 0.9761
5.6543 0.2521 -2.1690 0.9760
5.5182 1.2503 -2.1683 0.9761
5.3830 1.7358 -2.1675 0.9761
4.9840 2.6595 -2.1649 0.9761
4.0929 3.8710 -2.1589 0.9762
3.3336 4.5244 -2.1536 0.9762
2.9137 4.7966 -2.1507 0.9762
2.0112 5.2219 -2.1444 0.9763
1.0501 5.4785 -2.1377 0.9764
-1.4022 5.3521 -2.1202 0.9766
-2.3216 5.0030 -2.1136 0.9767
-3.5459 4.1941 -2.1047 0.9767
-3.9003 3.8571 -2.1021 0.9768
-4.2233 3.4907 -2.0997 0.9768
-4.5126 3.0978 -2.0976 0.9768
-4.9819 2.2447 -2.0940 0.9769
-5.3896 0.8475 -2.0908 0.9769
-5.4526 -0.1215 -2.0901 0.9769
-5.2298 -1.5586 -2.0913 0.9769
-4.8759 -2.4639 -2.0935 0.9769
-4.6407 -2.8902 -2.0951 0.9769
-4.0622 -3.6741 -2.0990 0.9768
-3.7232 -4.0255 -2.1013 0.9768
-3.3542 -4.3461 -2.1038 0.9768
-2.9579 -4.6334 -2.1066 0.9767
-2.5373 -4.8851 -2.1095 0.9767
-2.0954 -5.0990 -2.1126 0.9767
-1.1618 -5.4064 -2.1191 0.9766
-0.6770 -5.4972 -2.1225 0.9766
-0.1854 -5.5447 -2.1260 0.9765
0.8033 -5.5079 -2.1330 0.9764
1.2925 -5.4234 -2.1365 0.9764
1.7729 -5.2954 -2.1400 0.9764
2.2407 -5.1246 -2.1434 0.9763
4.2597 -3.6835 -2.1581 0.9762
4.5756 -3.2933 -2.1604 0.9761
4.8552 -2.8758 -2.1625 0.9761
5.4541 -1.4940 -2.1671 0.9761
5.5678 -1.0031 -2.1680 0.9761
5.2932 0.0000 -2.1664 0.9774
5.1028 1.3978 -2.1654 0.9774
4.9560 1.8456 -2.1644 0.9774
4.7694 2.2781 -2.1632 0.9774
4.5446 2.6917 -2.1617 0.9774
4.2835 3.0831 -2.1600 0.9774
2.5221 4.6023 -2.1479 0.9776
2.0996 4.8019 -2.1449 0.9776
1.2114 5.0833 -2.1387 0.9777
0.7530 5.1631 -2.1355 0.9777
-0.6349 5.1547 -2.1256 0.9778
-1.0895 5.0700 -2.1224 0.9778
-1.9653 4.7822 -2.1161 0.9779
-2.3798 4.5819 -2.1131 0.9779
-3.1461 4.0765 -2.1075 0.9780
-3.4923 3.7758 -2.1050 0.9780
-3.8102 3.4461 -2.1026 0.9780
-4.3525 2.7108 -2.0986 0.9781
-4.7572 1.8933 -2.0955 0.9781
-2.1365 0.4343 -0.8923 0.9906
-2.1285 0.0474 -0.8714 0.9908
-2.1302 -0.1426 -0.8738 0.9908
-2.1345 -0.3356 -0.8843 0.9907
-2.1308 -0.5330 -0.8989 0.9906
-4.8334 -1.6783 -2.0940 0.9781
-4.6672 -2.1029 -2.0951 0.9781
-3.6517 -3.6112 -2.1019 0.9780
-3.3194 -3.9262 -2.1042 0.9780
-2.9602 -4.2110 -2.1067 0.9780
-2.5769 -4.4633 -2.1093 0.9780
-2.1723 -4.6812 -2.1121 0.9779
-1.3116 -5.0065 -2.1182 0.9779
-0.4044 -5.1753 -2.1246 0.9778
0.0579 -5.1987 -2.1278 0.9778
0.5212 -5.1809 -2.1311 0.9777
1.4359 -5.0218 -2.1377 0.9777
2.3103 -4.7014 -2.1440 0.9776
3.4842 -3.9396 -2.1525 0.9775
3.8254 -3.6181 -2.1550 0.9775
4.1367 -3.2667 -2.1573 0.9775
4.4153 -2.8884 -2.1594 0.9775
4.6588 -2.4860 -2.1612 0.9774
5.2877 -0.2358 -2.1663 0.9774
5.2880 0.2358 -2.1664 0.9774
5.1608 1.1693 -2.1657 0.9774
4.8676 2.0640 -2.1639 0.9774
4.6616 2.4875 -2.1625 0.9774
2.7264 4.4883 -2.1493 0.9776
2.3130 4.7068 -2.1464 0.9776
1.4377 5.0280 -2.1403 0.9777
0.9830 5.1283 -2.1371 0.9777
0.5219 5.1875 -2.1338 0.9777
-2.5797 4.4682 -2.1116 0.9779
-2.9633 4.2153 -2.1089 0.9780
-3.3226 3.9300 -2.1062 0.9780
-3.6549 3.6144 -2.1038 0.9780
-3.9579 3.2713 -2.1016 0.9781
-4.2293 2.9032 -2.0995 0.9781
-4.6696 2.1040 -2.0962 0.9781
-4.8354 1.6790 -2.0949 0.9781
-2.1345 0.3356 -0.8843 0.9907
-2.1302 0.1426 -0.8738 0.9908
-2.1365 -0.4343 -0.8923 0.9906
-4.5703 -2.3094 -2.0957 0.9781
-4.3496 -2.7090 -2.0972 0.9781
-4.0946 -3.0878 -2.0989 0.9781
-3.8070 -3.4432 -2.1009 0.9781
-3.4890 -3.7723 -2.1030 0.9780
-3.1430 -4.0725 -2.1054 0.9780
-2.3771 -4.5767 -2.1107 0.9780
-1.9630 -4.7767 -2.1136 0.9779
-1.5322 -4.9394 -2.1166 0.9779
-1.0881 -5.0637 -2.1197 0.9779
-0.6341 -5.1482 -2.1229 0.9778
-0.1736 -5.1922 -2.1262 0.9778
0.2897 -5.1950 -2.1295 0.9778
0.7521 -5.1566 -2.1328 0.9777
1.2099 -5.0769 -2.1360 0.9777
1.6595 -4.9566 -2.1393 0.9777
2.0971 -4.7962 -2.1424 0.9776
2.5193 -4.5971 -2.1455 0.9776
3.3032 -4.0884 -2.1512 0.9775
3.6584 -3.7827 -2.1538 0.9775
3.9850 -3.4460 -2.1562 0.9775
4.5415 -2.6900 -2.1603 0.9774
4.7667 -2.2769 -2.1620 0.9774
5.2072 -0.9381 -2.1655 0.9774
5.2715 -0.4711 -2.1661 0.9774
4.6494 1.7314 -2.1622 0.9786
4.4745 2.1373 -2.1611 0.9786
3.7423 3.2361 -2.1562 0.9786
2.7457 4.0968 -2.1493 0.9787
2.3672 4.3196 -2.1467 0.9787
1.9708 4.5074 -2.1440 0.9788
1.5597 4.6586 -2.1411 0.9788
1.1373 4.7723 -2.1381 0.9788
0.7070 4.8477 -2.1351 0.9789
-0.1632 4.8821 -2.1289 0.9789
-1.0233 4.7621 -2.1228 0.9790
-1.4411 4.6455 -2.1198 0.9790
-2.6068 4.0834 -2.1114 0.9791
-3.8512 2.9043 -2.1022 0.9792
-4.0910 2.5479 -2.1004 0.9792
-4.2983 2.1720 -2.0988 0.9792
-4.4717 1.7797 -2.0975 0.9792
-1.8741 0.5585 -0.8523 0.9915
-1.9300 0.3923 -0.8583 0.9914
-1.9080 -0.4772 -0.8571 0.9915
-1.8290 -0.6351 -0.8438 0.9916
-4.1963 -2.3608 -2.0984 0.9792
-3.9724 -2.7269 -2.0999 0.9792
-3.4319 -3.3939 -2.1035 0.9792
-3.1194 -3.6897 -2.1057 0.9791
-2.7817 -3.9570 -2.1080 0.9791
-2.4213 -4.1939 -2.1105 0.9791
-2.0410 -4.3982 -2.1132 0.9791
-1.2321 -4.7030 -2.1188 0.9790
-0.8098 -4.8007 -2.1218 0.9790
0.9218 -4.8092 -2.1341 0.9789
1.3481 -4.7148 -2.1371 0.9788
1.7649 -4.5825 -2.1401 0.9788
2.1687 -4.4132 -2.1430 0.9788
3.2698 -3.6972 -2.1510 0.9787
3.5898 -3.3952 -2.1534 0.9787
4.3710 -2.3324 -2.1592 0.9786
4.9200 -0.6617 -2.1635 0.9786
4.7230 1.5230 -2.1627 0.9786
4.3735 2.3338 -2.1604 0.9786
4.1455 2.7119 -2.1589 0.9786
3.5928 3.3980 -2.1552 0.9787
3.2727 3.7005 -2.1530 0.9787
2.1711 4.4180 -2.1454 0.9787
1.3497 4.7202 -2.1396 0.9788
-0.3803 4.8665 -2.1274 0.9789
-0.8107 4.8064 -2.1243 0.9790
-1.2336 4.7084 -2.1213 0.9790
-1.6454 4.5736 -2.1183 0.9790
-2.4238 4.1982 -2.1127 0.9791
-2.7844 3.9608 -2.1101 0.9791
-3.1222 3.6930 -2.1076 0.9791
-3.4348 3.3967 -2.1053 0.9791
-3.7198 3.0745 -2.1032 0.9792
-3.9750 2.7287 -2.1013 0.9792
-1.9080 0.4772 -0.8571 0.9915
-1.9397 0.3050 -0.8557 0.9915
-1.9479 0.1304 -0.8508 0.9915
-1.9433 -0.2174 -0.8522 0.9915
-1.9300 -0.3923 -0.8583 0.9914
-4.4697 -1.7789 -2.0966 0.9792
-4.2960 -2.1709 -2.0977 0.9792
-2.9535 -3.8270 -2.1068 0.9791
-2.2335 -4.3002 -2.1118 0.9791
-1.4394 -4.6402 -2.1174 0.9790
-1.0221 -4.7565 -2.1203 0.9790
0.7062 -4.8420 -2.1325 0.9789
1.5579 -4.6533 -2.1386 0.9788
1.9686 -4.5024 -2.1416 0.9788
2.3647 -4.3151 -2.1444 0.9788
3.1000 -3.8369 -2.1498 0.9787
3.7394 -3.2336 -2.1545 0.9787
4.2611 -2.5239 -2.1584 0.9786
4.4722 -2.1362 -2.1600 0.9786
4.6474 -1.7307 -2.1613 0.9786
4.8850 -0.8801 -2.1632 0.9786
4.6706 0.0000 -2.1619 0.9796
4.5028 1.2334 -2.1611 0.9796
4.2091 2.0105 -2.1592 0.9796
3.5208 3.0446 -2.1546 0.9797
2.9197 3.6137 -2.1505 0.9797
2.5836 3.8551 -2.1481 0.9798
2.2277 4.0650 -2.1457 0.9798
1.8548 4.2420 -2.1431 0.9798
1.4680 4.3847 -2.1404 0.9798
1.0705 4.4921 -2.1376 0.9799
0.6656 4.5635 -2.1347 0.9799
0.2564 4.5983 -2.1318 0.9799
-0.5614 4.5585 -2.1260 0.9800
-1.7389 4.2313 -2.1176 0.9800
-2.1059 4.0547 -2.1149 0.9801
-2.4555 3.8465 -2.1124 0.9801
-2.7850 3.6086 -2.1100 0.9801
-3.3737 3.0514 -2.1056 0.9801
-3.6287 2.7365 -2.1037 0.9802
-3.8547 2.4007 -2.1021 0.9802
-4.0503 2.0467 -2.1006 0.9802
-1.6716 0.0372 -0.7739 0.9927
-1.6738 -0.1120 -0.7765 0.9926
-1.6521 -0.2598 -0.7741 0.9927
-1.5621 -0.5424 -0.7654 0.9927
-3.7431 -2.5695 -2.1015 0.9802
-3.5022 -2.8947 -2.1032 0.9802
-3.2335 -3.1977 -2.1050 0.9802
-1.9225 -4.1428 -2.1141 0.9801
-1.5480 -4.3028 -2.1167 0.9800
-0.3576 -4.5769 -2.1251 0.9800
0.4608 -4.5803 -2.1309 0.9799
0.8678 -4.5273 -2.1338 0.9799
1.6612 -4.3132 -2.1395 0.9798
3.0767 -3.4789 -2.1497 0.9797
3.6519 -2.8839 -2.1540 0.9797
4.1120 -2.1942 -2.1574 0.9797
4.6279 -0.6224 -2.1615 0.9796
4.6657 -0.2081 -2.1619 0.9796
4.6660 0.2080 -2.1620 0.9796
4.4426 1.4326 -2.1607 0.9796
3.6545 2.8859 -2.1555 0.9797
3.0793 3.4818 -2.1516 0.9797
2.0432 4.1577 -2.1444 0.9798
1.2704 4.4429 -2.1390 0.9798
0.4613 4.5855 -2.1333 0.9799
-0.3581 4.5821 -2.1274 0.9799
-1.5497 4.3073 -2.1189 0.9800
-1.9244 4.1470 -2.1162 0.9801
-2.2831 3.9544 -2.1136 0.9801
-2.9414 3.4791 -2.1088 0.9801
-3.2360 3.2002 -2.1067 0.9801
-3.5047 2.8967 -2.1047 0.9802
-3.9564 2.2258 -2.1013 0.9802
-1.5621 0.5424 -0.7654 0.9927
-1.6165 0.4043 -0.7713 0.9927
-1.6521 0.2598 -0.7741 0.9927
-1.5924 -0.4746 -0.7692 0.9927
-3.8525 -2.3993 -2.1008 0.9802
-3.6262 -2.7347 -2.1023 0.9802
-1.7371 -4.2269 -2.1154 0.9801
-1.3557 -4.3703 -2.1180 0.9800
-0.1535 -4.5915 -2.1265 0.9800
0.6648 -4.5584 -2.1323 0.9799
1.4664 -4.3800 -2.1381 0.9798
1.8529 -4.2376 -2.1408 0.9798
2.9171 -3.6105 -2.1485 0.9797
3.5182 -3.0423 -2.1530 0.9797
3.7784 -2.7196 -2.1549 0.9797
4.3718 -1.6281 -2.1594 0.9796
4.5015 -1.2331 -2.1604 0.9796
4.6515 -0.4157 -2.1617 0.9796
4.3332 0.7807 -2.1597 0.9806
4.1237 1.5357 -2.1585 0.9806
3.5653 2.5661 -2.1548 0.9806
3.3202 2.8711 -2.1531 0.9806
3.0489 3.1525 -2.1513 0.9807
2.4368 3.6360 -2.1470 0.9807
0.2419 4.3389 -2.1316 0.9808
-0.9095 4.2323 -2.1234 0.9809
-1.6414 3.9941 -2.1182 0.9809
-1.9880 3.8276 -2.1157 0.9810
-2.9192 3.1562 -2.1089 0.9810
-3.1856 2.8812 -2.1069 0.9810
-3.6401 2.2671 -2.1035 0.9811
-3.8249 1.9328 -2.1021 0.9811
-1.3200 0.3934 -0.6756 0.9939
-1.3419 0.1501 -0.6624 0.9940
-1.3149 -0.3289 -0.6649 0.9940
-1.3171 -0.4573 -0.6839 0.9938
-3.7343 -2.1009 -2.1017 0.9811
-2.4742 -3.5195 -2.1103 0.9810
-2.1533 -3.7297 -2.1125 0.9810
-1.8149 -3.9109 -2.1149 0.9810
-1.0953 -4.1807 -2.1199 0.9809
-0.3375 -4.3195 -2.1253 0.9809
0.4348 -4.3220 -2.1307 0.9808
0.8188 -4.2716 -2.1335 0.9808
2.2691 -3.7355 -2.1439 0.9807
2.9017 -3.2810 -2.1485 0.9807
4.1874 -1.3503 -2.1582 0.9806
4.2926 -0.9726 -2.1590 0.9806
4.3634 -0.5868 -2.1596 0.9806
4.3992 0.1962 -2.1601 0.9806
4.3640 0.5869 -2.1599 0.9806
3.8793 2.0701 -2.1569 0.9806
3.6774 2.4056 -2.1555 0.9806
3.4462 2.7214 -2.1540 0.9806
3.1877 3.0149 -2.1522 0.9806
2.9041 3.2836 -2.1503 0.9807
2.5977 3.5256 -2.1481 0.9807
2.2712 3.7389 -2.1459 0.9807
1.9273 3.9219 -2.1435 0.9807
1.5687 4.0731 -2.1410 0.9807
0.0484 4.3426 -2.1303 0.9808
-1.4627 4.0657 -2.1195 0.9809
-1.8166 3.9147 -2.1169 0.9810
-2.1553 3.7331 -2.1145 0.9810
-2.4763 3.5226 -2.1121 0.9810
-3.0555 3.0216 -2.1079 0.9810
-3.3093 2.7352 -2.1060 0.9811
-3.7362 2.1019 -2.1028 0.9811
-1.2865 0.5797 -0.6922 0.9937
-1.3171 0.4573 -0.6839 0.9938
-1.3149 0.3289 -0.6649 0.9940
-1.3257 0.2084 -0.6583 0.9940
-1.3513 0.0905 -0.6643 0.9940
-3.4243 -2.5824 -2.1038 0.9811
-3.1833 -2.8792 -2.1054 0.9811
-2.6272 -3.4041 -2.1093 0.9810
-2.3161 -3.6281 -2.1114 0.9810
-1.6398 -3.9902 -2.1161 0.9810
-0.9085 -4.2279 -2.1212 0.9809
-0.5293 -4.2974 -2.1239 0.9809
-0.1449 -4.3330 -2.1266 0.9809
0.2417 -4.3343 -2.1294 0.9808
0.6273 -4.3011 -2.1321 0.9808
1.0089 -4.2336 -2.1348 0.9808
1.7479 -3.9976 -2.1401 0.9807
2.7513 -3.4053 -2.1474 0.9807
3.0465 -3.1501 -2.1496 0.9807
3.7800 -2.2389 -2.1550 0.9806
4.1221 -1.5351 -2.1576 0.9806
4.2443 -1.1626 -2.1586 0.9806
4.3856 -0.3919 -2.1598 0.9806
4.1604 0.0000 -2.1583 0.9814
3.8961 1.4509 -2.1568 0.9814
3.7498 1.7911 -2.1559 0.9814
3.3689 2.4248 -2.1533 0.9815
3.1374 2.7130 -2.1518 0.9815
2.6022 3.2208 -2.1481 0.9815
1.9860 3.6240 -2.1438 0.9816
1.3091 3.9100 -2.1391 0.9816
0.2287 4.1023 -2.1315 0.9817
-1.2114 3.9053 -2.1212 0.9817
-1.5524 3.7776 -2.1188 0.9818
-2.1928 3.4349 -2.1141 0.9818
-2.7616 2.9858 -2.1100 0.9818
-3.0138 2.7258 -2.1081 0.9819
-3.4441 2.1450 -2.1049 0.9819
-1.0665 0.5389 -0.6199 0.9946
-1.1266 0.3358 -0.6099 0.9947
-1.1332 0.2303 -0.5999 0.9948
-1.1649 0.1303 -0.6081 0.9947
-1.1785 0.0263 -0.6115 0.9947
-1.1739 -0.0786 -0.6103 0.9947
-1.1198 -0.3889 -0.6150 0.9947
-1.0898 -0.4910 -0.6201 0.9946
-3.5333 -1.9878 -2.1032 0.9819
-3.1289 -2.5861 -2.1059 0.9819
-2.8886 -2.8566 -2.1075 0.9819
-2.6251 -3.1050 -2.1093 0.9818
-2.3405 -3.3294 -2.1113 0.9818
-1.7166 -3.6992 -2.1156 0.9818
-1.3821 -3.8416 -2.1180 0.9818
-1.0359 -3.9539 -2.1204 0.9818
0.0457 -4.1018 -2.1280 0.9817
0.4111 -4.0864 -2.1306 0.9817
1.8199 -3.7035 -2.1407 0.9816
2.1447 -3.5307 -2.1431 0.9816
2.4530 -3.3292 -2.1453 0.9815
3.2543 -2.5699 -2.1512 0.9815
3.8253 -1.6221 -2.1555 0.9815
3.9563 -1.2758 -2.1565 0.9814
4.1561 -0.1853 -2.1582 0.9814
4.1230 0.5545 -2.1582 0.9814
4.0566 0.9191 -2.1578 0.9814
3.8268 1.6227 -2.1564 0.9814
3.4747 2.2730 -2.1540 0.9815
3.2564 2.5715 -2.1526 0.9815
3.0122 2.8489 -2.1509 0.9815
2.1466 3.5337 -2.1449 0.9815
1.8216 3.7069 -2.1427 0.9816
1.1329 3.9621 -2.1379 0.9816
0.4115 4.0905 -2.1328 0.9816
-0.3195 4.0887 -2.1276 0.9817
-0.6813 4.0391 -2.1250 0.9817
-1.0369 3.9577 -2.1225 0.9817
-1.3834 3.8452 -2.1200 0.9818
-1.7182 3.7026 -2.1176 0.9818
-2.3424 3.3321 -2.1130 0.9818
-2.6271 3.1074 -2.1110 0.9818
-3.3463 2.2971 -2.1056 0.9819
-3.5351 1.9888 -2.1042 0.9819
-1.0898 0.4910 -0.6201 0.9946
-1.1198 0.3888 -0.6150 0.9947
-1.1275 0.2820 -0.6029 0.9948
-1.1517 0.1811 -0.6048 0.9948
-1.1739 0.0786 -0.6103 0.9947
-1.1070 -0.4406 -0.6181 0.9946
-3.2399 -2.4433 -2.1052 0.9819
-3.0118 -2.7240 -2.1067 0.9819
0.2285 -4.0981 -2.1293 0.9817
1.6522 -3.7787 -2.1395 0.9816
1.9842 -3.6207 -2.1419 0.9816
2.6002 -3.2183 -2.1464 0.9815
2.8790 -2.9769 -2.1484 0.9815
3.1353 -2.7112 -2.1503 0.9815
3.5717 -2.1156 -2.1536 0.9815
3.7482 -1.7904 -2.1549 0.9815
4.0100 -1.0985 -2.1570 0.9814
4.0932 -0.7374 -2.1576 0.9814
4.1434 -0.3703 -2.1581 0.9814
2.0429 0.0000 -1.1189 0.9907
2.0036 0.3610 -1.1150 0.9908
2.0004 0.5480 -1.1360 0.9906
3.3827 2.0036 -2.1533 0.9822
2.4636 3.0493 -2.1471 0.9823
1.8804 3.4313 -2.1430 0.9823
1.5659 3.5814 -2.1408 0.9823
0.9042 3.7940 -2.1362 0.9824
0.2166 3.8854 -2.1313 0.9824
-0.4746 3.8533 -2.1264 0.9824
-1.4708 3.5790 -2.1193 0.9825
-1.7816 3.4302 -2.1170 0.9825
-3.0723 2.3169 -2.1076 0.9826
-0.9364 0.4732 -0.5746 0.9952
-0.9825 0.2928 -0.5615 0.9953
-1.0000 0.2032 -0.5589 0.9954
-1.0293 0.1151 -0.5673 0.9953
-1.0376 -0.0695 -0.5696 0.9953
-1.0166 -0.1599 -0.5637 0.9953
-0.9847 -0.2463 -0.5559 0.9954
-0.9756 -0.3388 -0.5656 0.9953
-0.9240 -0.5198 -0.5806 0.9952
-3.1697 -2.1759 -2.1057 0.9826
-2.9654 -2.4510 -2.1071 0.9826
-2.7375 -2.7072 -2.1086 0.9826
-1.3094 -3.6397 -2.1185 0.9825
-0.9814 -3.7458 -2.1208 0.9825
0.3894 -3.8704 -2.1305 0.9824
1.4028 -3.6424 -2.1378 0.9824
1.7233 -3.5069 -2.1401 0.9823
2.0307 -3.3430 -2.1423 0.9823
2.5963 -2.9357 -2.1464 0.9823
3.0807 -2.4328 -2.1500 0.9823
1.9407 -0.8229 -1.1546 0.9904
2.0041 -0.4541 -1.1255 0.9907
2.0226 -0.2720 -1.1178 0.9907
2.0434 0.0911 -1.1203 0.9907
2.0041 0.4541 -1.1255 0.9907
1.9407 0.8229 -1.1546 0.9904
3.4695 1.8514 -2.1539 0.9822
3.0826 2.4343 -2.1513 0.9822
2.8516 2.6970 -2.1497 0.9823
2.5981 2.9378 -2.1480 0.9823
2.3243 3.1546 -2.1461 0.9823
1.7248 3.5099 -2.1419 0.9823
0.7338 3.8284 -2.1350 0.9824
0.0433 3.8889 -2.1301 0.9824
-0.3026 3.8729 -2.1277 0.9824
-0.6454 3.8262 -2.1252 0.9825
-0.9823 3.7493 -2.1228 0.9825
-1.3106 3.6429 -2.1204 0.9825
-1.9317 3.3457 -2.1160 0.9825
-2.2196 3.1574 -2.1139 0.9826
-2.4895 2.9446 -2.1119 0.9826
-2.9672 2.4524 -2.1084 0.9826
-0.9756 0.3387 -0.5656 0.9953
-0.9847 0.2463 -0.5559 0.9954
-1.0166 0.1599 -0.5637 0.9953
-1.0376 0.0695 -0.5696 0.9953
-1.0415 -0.0232 -0.5706 0.9953
-1.0293 -0.1151 -0.5673 0.9953
-0.9638 -0.3836 -0.5681 0.9953
-3.2625 -2.0319 -2.1051 0.9826
-3.0706 -2.3156 -2.1064 0.9826
-2.8543 -2.5815 -2.1079 0.9826
-2.6152 -2.8275 -2.1095 0.9826
-1.4695 -3.5758 -2.1174 0.9825
-0.1298 -3.8811 -2.1269 0.9824
0.9033 -3.7905 -2.1342 0.9824
1.2385 -3.6992 -2.1366 0.9824
1.5645 -3.5782 -2.1390 0.9823
2.1787 -3.2509 -2.1434 0.9823
2.7257 -2.8183 -2.1474 0.9823
3.1872 -2.2940 -2.1508 0.9822
3.3810 -2.0026 -2.1523 0.9822
1.9714 -0.7342 -1.1522 0.9905
2.0004 -0.5480 -1.1360 0.9906
1.8700 0.1671 -1.0839 0.9914
1.7869 0.6655 -1.1009 0.9912
1.7194 0.8213 -1.1001 0.9912
2.5862 2.6741 -2.1478 0.9830
2.3361 2.8914 -2.1461 0.9830
2.0677 3.0852 -2.1443 0.9830
1.4851 3.3965 -2.1402 0.9830
1.1757 3.5116 -2.1381 0.9830
0.5333 3.6567 -2.1335 0.9831
-0.1232 3.6853 -2.1289 0.9831
-0.7730 3.5972 -2.1242 0.9831
-2.2367 2.8982 -2.1137 0.9832
-2.7107 2.4517 -2.1102 0.9833
-2.9161 2.1991 -2.1087 0.9833
-0.8491 0.5288 -0.5776 0.9954
-0.8760 0.4426 -0.5667 0.9955
-0.9273 -0.0621 -0.5366 0.9957
-0.9189 -0.1445 -0.5370 0.9957
-0.9030 -0.2259 -0.5374 0.9957
-0.8983 -0.3119 -0.5490 0.9956
-0.8858 -0.3991 -0.5609 0.9955
-2.8146 -2.3263 -2.1082 0.9833
-2.5982 -2.5694 -2.1097 0.9833
-2.1048 -2.9941 -2.1131 0.9832
-1.8316 -3.1724 -2.1150 0.9832
-1.5434 -3.3260 -2.1170 0.9832
-1.2425 -3.4536 -2.1191 0.9832
-0.2868 -3.6708 -2.1258 0.9831
0.3694 -3.6715 -2.1305 0.9831
1.0167 -3.5556 -2.1351 0.9831
1.3305 -3.4546 -2.1373 0.9830
1.6344 -3.3259 -2.1395 0.9830
1.9258 -3.1703 -2.1416 0.9830
2.4619 -2.7837 -2.1455 0.9830
2.7021 -2.5556 -2.1473 0.9830
2.9211 -2.3067 -2.1489 0.9830
1.7564 -0.7448 -1.1014 0.9912
1.8108 -0.5839 -1.0985 0.9913
1.8316 -0.4150 -1.0843 0.9914
1.8755 0.0836 -1.0839 0.9914
1.8592 0.2500 -1.0831 0.9914
1.7564 0.7448 -1.1014 0.9912
3.1184 2.0400 -2.1515 0.9829
2.7038 2.5572 -2.1486 0.9830
2.2040 2.9913 -2.1452 0.9830
1.9273 3.1728 -2.1433 0.9830
1.6357 3.3286 -2.1413 0.9830
1.3316 3.4575 -2.1391 0.9830
1.0176 3.5587 -2.1369 0.9830
0.6961 3.6313 -2.1347 0.9831
0.0411 3.6891 -2.1300 0.9831
-0.2871 3.6741 -2.1277 0.9831
-0.9320 3.5573 -2.1231 0.9832
-1.2436 3.4565 -2.1209 0.9832
-1.5447 3.3287 -2.1187 0.9832
-3.0101 2.0663 -2.1080 0.9833
-0.8638 0.4860 -0.5722 0.9954
-0.8984 0.3119 -0.5490 0.9956
-0.9030 0.2258 -0.5374 0.9957
-0.9237 -0.1033 -0.5366 0.9957
-0.9120 -0.1854 -0.5373 0.9957
-0.9012 -0.2686 -0.5429 0.9957
-0.8491 -0.5289 -0.5776 0.9954
-2.9145 -2.1979 -2.1075 0.9833
-2.2352 -2.8962 -2.1122 0.9832
-1.6893 -3.2524 -2.1159 0.9832
-1.0880 -3.5073 -2.1201 0.9832
-0.7723 -3.5940 -2.1224 0.9832
-0.4498 -3.6524 -2.1246 0.9831
-0.1231 -3.6819 -2.1270 0.9831
0.2053 -3.6823 -2.1293 0.9831
1.1747 -3.5086 -2.1362 0.9831
1.7818 -3.2514 -2.1406 0.9830
2.5845 -2.6724 -2.1464 0.9830
2.8144 -2.4337 -2.1481 0.9830
1.7194 -0.8213 -1.1001 0.9912
1.7869 -0.6654 -1.1009 0.9912
1.8426 -0.3320 -1.0810 0.9914
1.8700 -0.1671 -1.0839 0.9914
