ply
format ascii 1.0
element vertex 1341
property float32 x
property float32 y
property float32 z
property float32 I
end_header
-15.5422 11.7209 -1.8689 0.9248
-18.1483 -6.3018 -1.8444 0.9257
-17.5510 -7.9081 -1.8481 0.9256
-16.0177 10.9955 -1.8652 0.9249
19.0648 0.0000 -2.2646 0.9261
18.3599 5.0293 -2.2612 0.9262
17.8127 6.6335 -2.2579 0.9263
16.2822 9.6440 -2.2479 0.9266
15.3151 11.0231 -2.2414 0.9268
14.2263 12.3020 -2.2341 0.9270
12.7822 13.2167 -2.1841 0.9286
10.8894 13.4779 -2.0582 0.9326
-10.8735 11.7563 -1.9022 0.9375
-15.7827 6.2813 -2.0178 0.9339
-16.5909 3.3722 -2.0111 0.9341
-16.8081 1.8803 -2.0090 0.9341
-16.8992 0.3766 -2.0079 0.9342
-16.8636 -1.1289 -2.0076 0.9342
-16.4146 -4.1056 -2.0099 0.9341
-13.7589 -7.7407 -1.8753 0.9384
17.2239 -3.9024 -2.0978 0.9313
19.0422 -0.8491 -2.2642 0.9261
18.1051 5.8381 -2.2597 0.9262
16.7170 8.9204 -2.2508 0.9265
13.6398 12.9004 -2.2301 0.9272
11.5025 13.0061 -2.0625 0.9325
10.2563 13.9200 -2.0539 0.9327
-14.8580 8.3590 -2.0251 0.9336
-16.7152 2.6283 -2.0099 0.9341
-14.0747 -7.1123 -1.8732 0.9385
17.3927 -3.1335 -2.0993 0.9313
18.7177 -1.6726 -2.2323 0.9271
15.8195 0.0000 -2.2415 0.9381
15.7568 1.4080 -2.2415 0.9381
14.2158 6.7903 -2.2322 0.9383
12.7303 9.1627 -2.2224 0.9386
10.8411 11.2096 -2.2095 0.9389
9.2999 11.5106 -2.0967 0.9420
8.0043 11.9432 -2.0371 0.9436
6.8830 12.5599 -2.0293 0.9438
-7.3200 11.4665 -1.9275 0.9465
-8.2809 10.7298 -1.9204 0.9467
-12.2423 7.6245 -2.0435 0.9434
-13.3436 5.3106 -2.0349 0.9436
-13.7415 4.0954 -2.0316 0.9437
-14.2985 0.3186 -2.0264 0.9439
-14.1310 -2.2220 -2.0268 0.9438
-13.0679 -5.8881 -2.0309 0.9437
-11.0254 -7.5685 -1.8948 0.9474
13.4520 -5.7042 -2.0703 0.9427
15.6659 -2.1069 -2.2397 0.9381
15.8013 -0.7046 -2.2411 0.9381
15.8047 0.7048 -2.2416 0.9381
15.4165 3.4929 -2.2397 0.9381
13.1421 8.5971 -2.2251 0.9385
11.3474 10.7323 -2.2130 0.9389
10.2976 11.6437 -2.2024 0.9391
-6.8150 11.8040 -1.9312 0.9464
-11.9055 8.1727 -2.0461 0.9433
-13.1060 5.9053 -2.0368 0.9436
-13.9011 3.4769 -2.0303 0.9438
-14.1406 2.2235 -2.0282 0.9438
-13.3220 -5.3020 -2.0316 0.9437
-11.3392 -7.0621 -1.8928 0.9475
-10.6900 -8.0617 -1.8971 0.9473
13.1705 -6.2910 -2.0681 0.9427
14.1292 -3.8704 -2.0757 0.9425
15.5320 -2.7982 -2.2361 0.9382
15.7500 -1.4074 -2.2405 0.9381
13.5058 0.0000 -2.2249 0.9467
13.2871 2.3938 -2.2241 0.9467
13.0120 3.5644 -2.2226 0.9468
12.1439 5.8007 -2.2171 0.9469
11.5594 6.8467 -2.2133 0.9470
10.8819 7.8323 -2.2087 0.9471
9.2748 9.5900 -2.1978 0.9474
7.2201 10.7731 -2.1365 0.9488
5.8977 10.7620 -2.0217 0.9515
4.8995 11.2054 -2.0147 0.9516
3.8687 11.5552 -2.0075 0.9518
2.8144 11.8097 -2.0000 0.9520
-1.4614 11.8655 -1.9695 0.9527
-3.5153 11.3324 -1.9546 0.9530
-4.4936 10.9345 -1.9475 0.9532
-9.2957 8.4075 -2.0648 0.9505
-9.9820 7.5278 -2.0596 0.9506
-11.1115 5.6149 -2.0509 0.9508
-11.8945 3.5449 -2.0447 0.9509
-10.8116 -6.0825 -2.0436 0.9510
-9.5376 -6.5472 -1.9058 0.9542
10.9929 -5.8660 -2.0527 0.9507
11.4932 -4.8735 -2.0566 0.9507
13.1512 -2.9797 -2.2214 0.9468
13.3761 -1.7989 -2.2234 0.9468
13.4930 0.6017 -2.2250 0.9467
10.5103 8.2999 -2.2062 0.9472
7.8684 10.6790 -2.1852 0.9476
5.4032 10.9952 -2.0182 0.9515
-1.9847 11.7661 -1.9657 0.9528
-4.9674 10.7045 -1.9441 0.9533
-8.1047 9.5863 -2.0680 0.9504
-11.3406 5.1098 -2.0491 0.9508
-11.7324 4.0739 -2.0460 0.9509
-12.3584 0.8273 -2.0405 0.9510
-12.1407 -2.4677 -2.0409 0.9510
-11.5314 -4.5894 -2.0446 0.9509
-11.0924 -5.6052 -2.0474 0.9509
-9.9858 -6.2192 -1.9380 0.9534
10.7093 -6.3431 -2.0505 0.9508
11.2544 -5.3758 -2.0547 0.9507
13.2774 -2.3920 -2.2225 0.9468
11.7713 -0.0000 -2.2125 0.9532
11.7246 1.0477 -2.2125 0.9532
11.5812 2.0865 -2.2119 0.9532
10.5891 5.0580 -2.2057 0.9534
10.0817 5.9714 -2.2024 0.9534
8.0963 8.3715 -2.1890 0.9537
7.3008 9.0363 -2.1836 0.9538
5.5411 10.1113 -2.1672 0.9542
2.4630 10.3352 -1.9970 0.9577
-1.2814 10.4039 -1.9703 0.9582
-3.0852 9.9456 -1.9573 0.9585
-5.0412 9.7060 -2.0557 0.9565
-5.9745 9.3589 -2.0870 0.9558
-8.1775 7.3961 -2.0725 0.9561
-9.3201 5.8046 -2.0638 0.9563
-9.7827 4.9434 -2.0602 0.9564
-10.8463 1.2133 -2.0514 0.9566
-10.9072 0.2431 -2.0506 0.9566
-10.5907 -2.6489 -2.0520 0.9565
-9.0123 -6.1866 -2.0547 0.9565
7.8453 -7.4200 -2.0297 0.9570
9.0779 -5.9385 -2.0390 0.9568
9.5889 -5.1168 -2.0429 0.9567
10.7725 -4.5679 -2.1993 0.9535
11.1757 -3.6037 -2.2071 0.9533
11.4645 -2.5975 -2.2095 0.9533
11.7582 -0.5243 -2.2123 0.9532
11.7601 0.5244 -2.2126 0.9532
11.4737 2.5996 -2.2113 0.9532
11.1881 3.6077 -2.2096 0.9533
10.8110 4.5842 -2.2072 0.9533
9.7973 6.4091 -2.2005 0.9535
7.7059 8.7132 -2.1863 0.9538
6.8819 9.3401 -2.1807 0.9539
6.0065 9.8880 -2.1746 0.9540
5.0185 10.2123 -2.1388 0.9547
1.9969 10.4174 -1.9937 0.9577
0.1174 10.5352 -1.9803 0.9580
-0.8180 10.4683 -1.9736 0.9582
-1.7406 10.3191 -1.9670 0.9583
-3.5195 9.7825 -1.9541 0.9586
-4.5081 9.7146 -2.0130 0.9573
-5.5487 9.6106 -2.0859 0.9558
-6.3820 9.0785 -2.0858 0.9558
-7.1452 8.4514 -2.0802 0.9560
-7.8492 7.7623 -2.0749 0.9561
-8.4892 7.0165 -2.0701 0.9562
-9.9855 4.4993 -2.0586 0.9564
-10.3324 3.5878 -2.0558 0.9565
-10.5993 2.6511 -2.0536 0.9565
-10.8422 -1.2129 -2.0506 0.9566
-10.6951 -2.1739 -2.0514 0.9566
-10.1562 -4.0421 -2.0546 0.9565
-9.7679 -4.9359 -2.0571 0.9564
-9.3004 -5.7923 -2.0594 0.9564
-8.2490 -6.2208 -1.9420 0.9588
-6.9503 -7.5146 -1.9240 0.9592
8.1781 -7.0719 -2.0322 0.9570
8.7951 -6.3304 -2.0368 0.9569
10.2620 -4.9018 -2.1376 0.9548
10.9970 -4.0953 -2.2057 0.9534
11.5738 -2.0851 -2.2104 0.9533
11.7208 -1.0474 -2.2118 0.9532
10.0430 2.7511 -2.2011 0.9583
9.7503 3.6310 -2.1993 0.9584
8.9304 5.2895 -2.1940 0.9585
7.1767 7.4206 -2.1821 0.9587
6.4734 8.0122 -2.1773 0.9588
5.7208 8.5361 -2.1721 0.9589
4.0952 9.3660 -2.1608 0.9591
2.3385 9.8126 -2.1323 0.9596
0.5420 9.7196 -2.0577 0.9610
-0.3247 9.7123 -2.0541 0.9610
-2.0848 9.7020 -2.0976 0.9602
-5.3282 8.3465 -2.0931 0.9603
-6.0348 7.8196 -2.0879 0.9604
-6.6912 7.2345 -2.0830 0.9605
-8.3155 5.1789 -2.0708 0.9607
-8.7299 4.4114 -2.0675 0.9608
-9.3512 2.7870 -2.0626 0.9609
-9.5542 1.9420 -2.0609 0.9609
-9.6834 1.0832 -2.0597 0.9609
-9.7382 0.2170 -2.0590 0.9610
-9.4550 -2.3648 -2.0602 0.9609
-8.5186 -4.7925 -2.0661 0.9608
-8.0698 -5.5396 -2.0690 0.9608
-7.5019 -6.2005 -2.0573 0.9610
-6.4842 -6.4124 -1.9277 0.9634
-5.8999 -6.9785 -1.9316 0.9633
-5.2672 -7.4927 -1.9360 0.9632
-4.5905 -7.9510 -1.9407 0.9632
-3.8745 -8.3494 -1.9457 0.9631
6.3274 -7.1546 -2.0189 0.9617
6.9552 -6.5782 -2.0236 0.9616
9.5621 -4.0547 -2.1954 0.9584
9.8970 -3.1914 -2.1981 0.9584
10.1515 -2.3000 -2.2002 0.9583
10.3231 -1.3883 -2.2017 0.9583
10.4101 -0.4642 -2.2027 0.9583
10.4116 0.4643 -2.2030 0.9583
10.1587 2.3017 -2.2018 0.9583
8.6793 5.6777 -2.1923 0.9585
7.5079 7.1009 -2.1844 0.9586
4.5145 9.1867 -2.1637 0.9590
3.6686 9.5253 -2.1576 0.9591
1.8740 9.7765 -2.1042 0.9601
0.9791 9.7327 -2.0677 0.9608
0.1082 9.7144 -2.0536 0.9611
-2.5261 9.6421 -2.1069 0.9601
-4.9575 8.5867 -2.0959 0.9603
-5.6875 8.0906 -2.0905 0.9604
-6.3696 7.5340 -2.0854 0.9605
-6.9991 6.9216 -2.0807 0.9606
-7.5717 6.2581 -2.0764 0.9606
-9.4618 2.3665 -2.0617 0.9609
-9.7376 -0.2170 -2.0588 0.9610
-9.6802 -1.0829 -2.0590 0.9610
-9.5485 -1.9408 -2.0596 0.9609
-9.3432 -2.7846 -2.0608 0.9609
-8.3023 -5.1708 -2.0675 0.9608
-7.8124 -5.8916 -2.0683 0.9608
-6.8765 -6.2194 -1.9599 0.9628
-6.1984 -6.7016 -1.9296 0.9634
-4.2371 -8.1579 -1.9431 0.9631
5.9951 -7.4203 -2.0165 0.9617
6.6477 -6.8737 -2.0213 0.9617
7.2492 -6.2686 -2.0258 0.9616
8.8356 -5.2334 -2.1707 0.9589
9.3654 -4.4735 -2.1939 0.9585
9.7394 -3.6270 -2.1968 0.9584
10.3772 -0.9273 -2.2023 0.9583
9.3403 0.0000 -2.1952 0.9623
9.3032 0.8313 -2.1952 0.9623
9.1900 1.6557 -2.1946 0.9624
8.7401 3.2548 -2.1920 0.9624
8.4076 4.0160 -2.1898 0.9624
8.0072 4.7426 -2.1872 0.9625
6.4384 6.6572 -2.1766 0.9627
5.1347 7.6615 -2.1676 0.9628
3.6776 8.4109 -2.1575 0.9630
2.9071 8.6831 -2.1521 0.9631
0.5058 9.0703 -2.1350 0.9634
-0.3027 9.0547 -2.1293 0.9635
-4.1217 7.9356 -2.1016 0.9639
-4.8002 7.5194 -2.0966 0.9640
-5.4382 7.0464 -2.0919 0.9641
-6.5746 5.9464 -2.0834 0.9642
-7.4994 4.6707 -2.0764 0.9643
-7.8743 3.9791 -2.0735 0.9644
-8.1875 3.2585 -2.0710 0.9644
-8.4368 2.5144 -2.0690 0.9645
-8.6206 1.7522 -2.0675 0.9645
-8.7874 0.1958 -2.0658 0.9645
-8.7694 -0.5871 -2.0656 0.9645
-8.5314 -2.1339 -2.0668 0.9645
-8.3129 -2.8865 -2.0681 0.9645
-7.6843 -4.3231 -2.0722 0.9644
-6.8150 -5.6327 -2.0780 0.9643
-4.7470 -6.7527 -1.9400 0.9667
-4.1362 -7.1640 -1.9442 0.9666
-3.4901 -7.5211 -1.9487 0.9665
-2.8137 -7.8209 -1.9534 0.9664
-1.3896 -8.2379 -1.9634 0.9663
1.5898 -8.2938 -1.9847 0.9659
2.3279 -8.1411 -1.9900 0.9658
3.0512 -7.9224 -1.9953 0.9657
4.4298 -7.2924 -2.0053 0.9655
7.0794 -5.5906 -2.1201 0.9636
7.7654 -5.0799 -2.1809 0.9626
8.2046 -4.3781 -2.1856 0.9625
8.5730 -3.6353 -2.1885 0.9625
8.8722 -2.8609 -2.1909 0.9624
9.2561 1.2448 -2.1950 0.9624
9.1052 2.0630 -2.1942 0.9624
8.2156 4.3840 -2.1886 0.9625
7.2875 5.7549 -2.1824 0.9626
6.7348 6.3697 -2.1786 0.9626
6.1295 6.9307 -2.1745 0.9627
5.4769 7.4333 -2.1700 0.9628
4.7829 7.8738 -2.1652 0.9629
4.0536 8.2488 -2.1601 0.9629
2.5142 8.7926 -2.1493 0.9631
1.7171 8.9579 -2.1436 0.9632
0.9105 9.0509 -2.1379 0.9633
0.1011 9.0715 -2.1321 0.9634
-0.7048 9.0200 -2.1264 0.9635
-3.0386 8.4458 -2.1095 0.9638
-3.7687 8.1213 -2.1042 0.9639
-4.4657 7.7348 -2.0991 0.9640
-5.1246 7.2898 -2.0942 0.9640
-6.3092 6.2393 -2.0854 0.9642
-6.8267 5.6425 -2.0815 0.9643
-7.2895 5.0040 -2.0780 0.9643
-7.6945 4.3288 -2.0749 0.9644
-8.3202 2.8891 -2.0700 0.9645
-8.6875 1.3660 -2.0669 0.9645
-8.4303 -2.5125 -2.0674 0.9645
-7.8648 -3.9742 -2.0710 0.9644
-7.0537 -5.3194 -2.0763 0.9643
-6.5534 -5.9272 -2.0767 0.9643
-5.0379 -6.5278 -1.9379 0.9667
-4.4463 -6.9649 -1.9420 0.9666
-3.8173 -7.3495 -1.9464 0.9665
-3.1554 -7.6783 -1.9510 0.9665
-2.4656 -7.9483 -1.9559 0.9664
-0.2803 -8.3831 -1.9713 0.9661
1.2171 -8.3451 -1.9820 0.9659
2.6918 -8.0399 -1.9927 0.9658
3.4055 -7.7887 -1.9978 0.9657
4.0955 -7.4734 -2.0029 0.9656
4.7559 -7.0963 -2.0077 0.9655
5.3810 -6.6601 -2.0123 0.9654
5.9652 -6.1680 -2.0167 0.9654
7.9956 -4.7358 -2.1840 0.9625
8.3973 -4.0110 -2.1871 0.9625
8.7314 -3.2516 -2.1898 0.9624
9.3008 -0.8311 -2.1946 0.9624
7.9118 2.9464 -2.1859 0.9657
7.6114 3.6357 -2.1840 0.9657
6.8300 4.9159 -2.1788 0.9658
6.3560 5.4963 -2.1757 0.9659
5.8320 6.0303 -2.1721 0.9659
4.6530 6.9427 -2.1640 0.9661
2.6361 7.8737 -2.1499 0.9663
1.1926 8.1773 -2.1396 0.9664
0.4589 8.2308 -2.1344 0.9665
-1.7192 8.0006 -2.1188 0.9668
-3.0959 7.5334 -2.1088 0.9669
-3.7456 7.2116 -2.1041 0.9670
-5.9795 5.4082 -2.0875 0.9672
-6.8227 4.2492 -2.0811 0.9673
-7.1647 3.6205 -2.0785 0.9674
-7.4504 2.9652 -2.0762 0.9674
-7.8458 1.5947 -2.0729 0.9675
-7.9527 0.8896 -2.0719 0.9675
-7.9982 0.1782 -2.0714 0.9675
-7.9819 -0.5343 -2.0713 0.9675
-7.9039 -1.2428 -2.0716 0.9675
-7.7648 -1.9421 -2.0724 0.9675
-6.6221 -4.5458 -2.0797 0.9674
-5.1933 -6.1427 -2.0827 0.9673
-4.3733 -6.2211 -1.9689 0.9691
-3.7600 -6.5126 -1.9471 0.9694
2.7672 -7.1848 -1.9935 0.9687
4.5977 -6.2401 -2.0069 0.9685
5.2076 -5.8884 -2.0353 0.9680
6.0678 -5.7389 -2.1624 0.9661
6.5890 -5.2033 -2.1738 0.9659
7.4290 -3.9643 -2.1802 0.9658
7.7616 -3.2912 -2.1828 0.9658
8.2367 -1.8662 -2.1867 0.9657
8.4447 -0.3766 -2.1887 0.9657
8.3777 1.1267 -2.1887 0.9657
8.0380 2.5919 -2.1867 0.9657
7.4381 3.9691 -2.1829 0.9658
7.0469 4.6099 -2.1803 0.9658
4.9625 6.7352 -2.1661 0.9660
4.3346 7.1358 -2.1617 0.9661
3.6745 7.4773 -2.1571 0.9662
2.9877 7.7573 -2.1523 0.9662
0.8262 8.2123 -2.1370 0.9665
-0.6398 8.1883 -2.1266 0.9666
-2.0714 7.9066 -2.1162 0.9668
-3.4245 7.3796 -2.1064 0.9669
-4.0588 7.0300 -2.1018 0.9670
-4.6585 6.6269 -2.0973 0.9671
-5.7377 5.6741 -2.0893 0.9672
-6.6313 4.5521 -2.0826 0.9673
-7.0006 3.9385 -2.0797 0.9674
-7.3147 3.2958 -2.0773 0.9674
-7.7694 1.9433 -2.0736 0.9675
-7.9069 1.2433 -2.0724 0.9675
-7.9978 -0.1782 -2.0713 0.9675
-6.4172 -4.8395 -2.0810 0.9673
-4.7920 -6.2091 -2.0307 0.9681
-3.4698 -6.6805 -1.9491 0.9694
-2.2402 -7.2216 -1.9577 0.9692
-1.5922 -7.4096 -1.9623 0.9692
0.4250 -7.6223 -1.9766 0.9689
1.1045 -7.5728 -1.9815 0.9689
1.7784 -7.4627 -1.9863 0.9688
2.4415 -7.2923 -1.9911 0.9687
3.7129 -6.7752 -2.0004 0.9686
5.6277 -5.8191 -2.0960 0.9671
7.6030 -3.6317 -2.1816 0.9658
8.1425 -2.2305 -2.1859 0.9657
8.3142 -1.4979 -2.1874 0.9657
7.6826 0.6865 -2.1836 0.9684
7.5895 1.3673 -2.1831 0.9684
7.4346 2.0366 -2.1822 0.9685
6.9460 3.3178 -2.1792 0.9685
5.8023 5.0174 -2.1715 0.9686
4.8056 5.9480 -2.1647 0.9687
4.2496 6.3408 -2.1609 0.9688
3.0461 6.9666 -2.1525 0.9689
1.7552 7.3651 -2.1434 0.9690
0.4197 7.5262 -2.1339 0.9691
-0.2513 7.5167 -2.1291 0.9692
-1.5730 7.3202 -2.1196 0.9694
-2.8337 6.8955 -2.1105 0.9695
-3.4291 6.6023 -2.1061 0.9695
-3.9953 6.2585 -2.1020 0.9696
-4.5280 5.8670 -2.0980 0.9697
-5.8884 4.4407 -2.0879 0.9698
-6.2519 3.8937 -2.0851 0.9698
-6.8285 2.7177 -2.0806 0.9699
-7.3320 0.1634 -2.0761 0.9700
-6.9347 -2.4080 -2.0781 0.9699
-6.6977 -3.0178 -2.0796 0.9699
-5.6807 -4.6952 -2.0864 0.9698
-4.7723 -5.6447 -2.0925 0.9697
-4.2482 -6.0431 -2.0912 0.9698
-3.5858 -6.2109 -2.0303 0.9706
-2.9043 -6.2587 -1.9533 0.9717
-2.3405 -6.5055 -1.9572 0.9717
-1.1549 -6.8465 -1.9656 0.9715
-0.5421 -6.9374 -1.9699 0.9715
0.6997 -6.9548 -1.9788 0.9714
2.5290 -6.5663 -1.9920 0.9712
3.6796 -6.0574 -2.0064 0.9710
4.3981 -5.9692 -2.0990 0.9696
6.0154 -4.7503 -2.1699 0.9686
6.7805 -3.6182 -2.1757 0.9686
7.0833 -3.0036 -2.1781 0.9685
7.5158 -1.7029 -2.1816 0.9685
7.6414 -1.0277 -2.1827 0.9685
7.7049 -0.3436 -2.1834 0.9684
7.3345 2.3651 -2.1816 0.9685
6.7881 3.6222 -2.1781 0.9685
6.0242 4.7572 -2.1730 0.9686
5.5689 5.2671 -2.1700 0.9686
3.9592 6.5177 -2.1589 0.9688
3.3568 6.8309 -2.1547 0.9689
2.7299 7.0881 -2.1503 0.9689
-1.2468 7.3912 -2.1220 0.9693
-1.8955 7.2349 -2.1173 0.9694
-2.5264 7.0223 -2.1127 0.9695
-3.7161 6.4365 -2.1040 0.9696
-4.2660 6.0685 -2.1000 0.9696
-4.7805 5.6544 -2.0962 0.9697
-5.6889 4.7019 -2.0894 0.9698
-6.0762 4.1711 -2.0864 0.9698
-6.4153 3.6092 -2.0838 0.9699
-6.9398 2.4098 -2.0797 0.9699
-7.1216 1.7812 -2.0782 0.9699
-7.2480 1.1397 -2.0771 0.9700
-7.3181 0.4899 -2.0764 0.9700
-7.3316 -0.1634 -2.0760 0.9700
-7.1886 -1.4612 -2.0766 0.9700
-7.0330 -2.0961 -2.0775 0.9700
-6.8228 -2.7154 -2.0788 0.9699
-6.5594 -3.3146 -2.0805 0.9699
-6.2445 -3.8891 -2.0826 0.9699
-5.4696 -4.9470 -2.0878 0.9698
-3.9584 -6.2007 -2.0826 0.9699
-2.6253 -6.3883 -1.9552 0.9717
-1.4571 -6.7809 -1.9634 0.9716
0.3887 -6.9712 -1.9766 0.9714
1.6258 -6.8224 -1.9854 0.9713
2.8220 -6.4540 -1.9941 0.9711
3.3923 -6.1901 -1.9983 0.9711
4.0327 -6.0172 -2.0506 0.9703
6.6086 -3.9143 -2.1744 0.9686
7.2135 -2.6864 -2.1791 0.9685
7.5863 -1.3668 -2.1822 0.9685
7.0846 -0.0000 -2.1791 0.9708
6.9710 1.2559 -2.1787 0.9708
6.8290 1.8707 -2.1778 0.9708
6.6317 2.4697 -2.1766 0.9708
6.3809 3.0479 -2.1750 0.9708
4.8935 5.0598 -2.1651 0.9710
4.4170 5.4670 -2.1618 0.9710
3.9065 5.8289 -2.1583 0.9711
2.2155 6.6175 -2.1464 0.9712
1.0031 6.8779 -2.1379 0.9713
-0.2313 6.9181 -2.1291 0.9714
-2.6099 6.3508 -2.1119 0.9717
-3.1588 6.0818 -2.1079 0.9717
-3.6809 5.7660 -2.1041 0.9718
-4.6294 5.0052 -2.0970 0.9719
-5.0489 4.5665 -2.0939 0.9719
-6.0537 3.0591 -2.0862 0.9720
-6.2962 2.5058 -2.0843 0.9720
-6.4893 1.9340 -2.0827 0.9721
-6.6319 1.3480 -2.0815 0.9721
-6.7228 0.7521 -2.0807 0.9721
-6.7615 0.1507 -2.0802 0.9721
-6.6817 -1.0506 -2.0804 0.9721
-5.5947 -3.8406 -2.0873 0.9720
-5.2367 -4.3283 -2.0896 0.9720
-4.3983 -5.2023 -2.0954 0.9719
-3.9239 -5.5818 -2.0986 0.9718
-1.6304 -6.2230 -1.9787 0.9734
-1.0634 -6.3042 -1.9664 0.9736
-0.4991 -6.3868 -1.9704 0.9735
0.6439 -6.4004 -1.9786 0.9734
1.2135 -6.3308 -1.9827 0.9734
1.7758 -6.2103 -1.9867 0.9733
3.6223 -5.9631 -2.1460 0.9712
4.6523 -5.2604 -2.1600 0.9710
5.5280 -4.3654 -2.1665 0.9710
5.9023 -3.8611 -2.1694 0.9709
6.9037 -1.5642 -2.1773 0.9708
6.5129 2.7617 -2.1759 0.9708
6.2361 3.3277 -2.1741 0.9709
5.9093 3.8657 -2.1719 0.9709
5.5354 4.3712 -2.1694 0.9709
5.1177 4.8402 -2.1666 0.9710
3.6399 5.9921 -2.1564 0.9711
3.0866 6.2810 -2.1526 0.9711
1.9167 6.7030 -2.1443 0.9712
1.3098 6.8333 -2.1400 0.9713
0.0772 6.9288 -2.1313 0.9714
-1.7453 6.6618 -2.1182 0.9716
-2.3267 6.4671 -2.1140 0.9716
-3.4234 5.9296 -2.1059 0.9718
-4.8440 4.7904 -2.0954 0.9719
-5.6013 3.8451 -2.0897 0.9720
-5.9145 3.3274 -2.0873 0.9720
-6.3990 2.2220 -2.0835 0.9721
-6.5670 1.6425 -2.0821 0.9721
-6.7487 0.4518 -2.0804 0.9721
-6.7612 -0.1507 -2.0801 0.9721
-6.6292 -1.3475 -2.0807 0.9721
-6.2914 -2.5039 -2.0827 0.9721
-6.0480 -3.0562 -2.0843 0.9720
-5.7573 -3.5857 -2.0862 0.9720
-5.4211 -4.0882 -2.0884 0.9720
-4.1654 -5.3972 -2.0970 0.9719
-3.1452 -6.0557 -2.0988 0.9718
-1.9289 -6.2182 -2.0025 0.9731
-1.3418 -6.2442 -1.9644 0.9736
-0.2143 -6.4092 -1.9724 0.9735
0.9293 -6.3720 -1.9806 0.9734
3.3235 -6.0646 -2.1271 0.9715
4.4097 -5.4579 -2.1582 0.9711
4.8859 -5.0520 -2.1617 0.9710
5.7208 -4.1176 -2.1680 0.9709
6.0721 -3.5965 -2.1707 0.9709
6.3750 -3.0451 -2.1730 0.9709
6.8251 -1.8696 -2.1766 0.9708
6.9684 -1.2554 -2.1778 0.9708
6.5438 0.0000 -2.1752 0.9728
6.5179 0.5824 -2.1752 0.9728
6.4390 1.1600 -2.1748 0.9728
6.3081 1.7280 -2.1741 0.9728
6.1261 2.2814 -2.1730 0.9728
5.6160 3.3263 -2.1697 0.9729
5.2924 3.8092 -2.1675 0.9729
4.5222 4.6759 -2.1623 0.9730
4.0824 5.0528 -2.1593 0.9730
2.5899 5.9232 -2.1489 0.9731
2.0488 6.1193 -2.1451 0.9732
1.4933 6.2660 -2.1412 0.9732
0.3573 6.4072 -2.1331 0.9733
-1.8869 6.0827 -2.1170 0.9735
-2.4164 5.8799 -2.1131 0.9736
-2.9250 5.6316 -2.1094 0.9736
-3.8644 5.0073 -2.1025 0.9737
-4.2883 4.6365 -2.0993 0.9737
-4.6775 4.2305 -2.0964 0.9738
-5.0291 3.7926 -2.0938 0.9738
-5.3406 3.3262 -2.0914 0.9738
-5.8350 2.3223 -2.0875 0.9739
-6.1467 1.2494 -2.0850 0.9739
-6.2671 0.1396 -2.0837 0.9739
-6.2544 -0.4187 -2.0837 0.9739
-6.0836 -1.5216 -2.0845 0.9739
-5.9267 -2.0580 -2.0855 0.9739
-5.7235 -2.5789 -2.0867 0.9739
-5.4755 -3.0805 -2.0883 0.9739
-5.1844 -3.5589 -2.0903 0.9738
-4.4813 -4.4317 -2.0950 0.9738
-3.1649 -5.4818 -2.1041 0.9737
-2.1463 -5.9659 -2.1075 0.9736
-1.0463 -6.2031 -2.0911 0.9738
-0.4851 -6.2078 -2.0698 0.9741
0.0692 -6.2087 -2.0639 0.9742
1.1859 -6.1866 -2.0939 0.9738
1.7611 -6.1591 -2.1294 0.9734
2.8453 -5.7901 -2.1445 0.9732
3.3590 -5.5297 -2.1507 0.9731
3.8442 -5.2174 -2.1542 0.9731
4.3001 -4.8622 -2.1576 0.9730
6.2195 -2.0056 -2.1722 0.9728
6.3772 -1.4449 -2.1735 0.9728
6.4833 -0.8719 -2.1745 0.9728
6.5375 0.2915 -2.1753 0.9728
6.3800 1.4455 -2.1745 0.9728
4.7291 4.4727 -2.1637 0.9729
3.8504 5.2258 -2.1577 0.9730
2.8536 5.8069 -2.1507 0.9731
2.3214 6.0274 -2.1470 0.9731
0.6429 6.3910 -2.1351 0.9733
0.0714 6.4106 -2.1311 0.9733
-1.0623 6.2976 -2.1229 0.9734
-1.6155 6.1664 -2.1189 0.9735
-2.6735 5.7613 -2.1112 0.9736
-3.1702 5.4910 -2.1076 0.9736
-3.6404 5.1785 -2.1041 0.9737
-4.4874 4.4377 -2.0979 0.9737
-5.7281 2.5809 -2.0884 0.9739
-6.0864 1.5223 -2.0855 0.9739
-6.2552 0.4187 -2.0839 0.9739
-6.2669 -0.1397 -2.0837 0.9739
-6.2298 -0.6969 -2.0837 0.9739
-6.1443 -1.2489 -2.0842 0.9739
-6.0110 -1.7915 -2.0849 0.9739
-5.8308 -2.3206 -2.0861 0.9739
-5.3352 -3.3228 -2.0893 0.9739
-4.6714 -4.2251 -2.0937 0.9738
-4.2823 -4.6299 -2.0964 0.9738
-3.8585 -4.9996 -2.0993 0.9737
-3.4033 -5.3312 -2.1024 0.9737
-2.9199 -5.6219 -2.1058 0.9737
-1.8788 -6.0565 -2.1079 0.9736
-1.3322 -6.1996 -2.1078 0.9736
-0.7643 -6.2058 -2.0784 0.9740
1.4712 -6.1733 -2.1095 0.9736
2.0386 -6.0889 -2.1344 0.9733
2.5803 -5.9014 -2.1410 0.9732
3.1057 -5.6673 -2.1482 0.9731
4.5157 -4.6692 -2.1592 0.9730
5.2862 -3.8048 -2.1650 0.9729
5.6102 -3.3230 -2.1675 0.9729
5.8896 -2.8132 -2.1696 0.9729
6.1218 -2.2798 -2.1714 0.9728
6.3047 -1.7271 -2.1729 0.9728
6.4368 -1.1597 -2.1741 0.9728
6.5167 -0.5824 -2.1748 0.9728
5.4715 2.6135 -2.1684 0.9746
4.9130 3.5362 -2.1647 0.9746
4.5740 3.9552 -2.1624 0.9746
4.1988 4.3415 -2.1599 0.9747
3.7908 4.6919 -2.1571 0.9747
3.3534 5.0037 -2.1540 0.9747
2.8905 5.2744 -2.1508 0.9748
1.3874 5.8219 -2.1403 0.9749
0.3320 5.9548 -2.1328 0.9750
-0.7264 5.8983 -2.1252 0.9751
-3.1710 4.9673 -2.1074 0.9753
-3.5952 4.6584 -2.1043 0.9753
-3.9900 4.3139 -2.1014 0.9753
-4.6801 3.5294 -2.0962 0.9754
-5.2213 2.6384 -2.0920 0.9755
-5.4311 2.1615 -2.0904 0.9755
-5.7217 1.1630 -2.0880 0.9755
-5.8341 0.1300 -2.0868 0.9755
-5.8223 -0.3898 -2.0867 0.9755
-5.7652 -0.9065 -2.0870 0.9755
-5.5169 -1.9157 -2.0884 0.9755
-5.3275 -2.4005 -2.0896 0.9755
-4.8251 -3.3122 -2.0929 0.9754
-4.5156 -3.7323 -2.0950 0.9754
-4.1702 -4.1240 -2.0973 0.9754
-3.7912 -4.4843 -2.0999 0.9754
-2.4825 -5.3496 -2.1090 0.9753
-0.9851 -5.8402 -2.1180 0.9752
-0.4619 -5.9117 -2.1205 0.9751
0.5956 -5.9202 -2.1278 0.9750
2.1528 -5.5896 -2.1420 0.9749
3.1200 -5.1362 -2.1491 0.9748
3.5703 -4.8456 -2.1524 0.9748
3.9932 -4.5152 -2.1555 0.9747
4.3851 -4.1474 -2.1584 0.9747
4.7428 -3.7453 -2.1611 0.9747
5.0630 -3.3120 -2.1635 0.9746
5.5803 -2.3663 -2.1675 0.9746
5.7728 -1.8615 -2.1691 0.9746
6.0669 -0.2705 -2.1717 0.9745
6.0674 0.2705 -2.1719 0.9745
5.9214 1.3416 -2.1712 0.9745
5.7761 1.8626 -2.1703 0.9745
5.5843 2.3679 -2.1691 0.9746
5.3476 2.8536 -2.1676 0.9746
4.3907 4.1527 -2.1612 0.9747
3.9987 4.5214 -2.1585 0.9747
3.1249 5.1443 -2.1525 0.9748
2.1565 5.5992 -2.1457 0.9748
1.6468 5.7593 -2.1421 0.9749
-0.4634 5.9300 -2.1271 0.9750
-0.9876 5.8549 -2.1233 0.9751
-2.9489 5.1076 -2.1091 0.9753
-4.5208 3.7365 -2.0974 0.9754
-5.3315 2.4022 -2.0912 0.9755
-5.6656 1.4171 -2.0885 0.9755
-5.7994 -0.6488 -2.0868 0.9755
-5.7197 -1.1626 -2.0872 0.9755
-5.5955 -1.6676 -2.0880 0.9755
-5.2171 -2.6363 -2.0903 0.9755
-4.3472 -3.9318 -2.0961 0.9754
-3.5901 -4.6518 -2.1013 0.9753
-3.1662 -4.9598 -2.1042 0.9753
-2.7162 -5.2296 -2.1074 0.9753
-2.2435 -5.4592 -2.1107 0.9752
-1.2437 -5.7879 -2.1170 0.9752
0.3309 -5.9350 -2.1257 0.9751
1.3840 -5.8077 -2.1350 0.9750
1.9000 -5.6751 -2.1402 0.9749
2.4017 -5.4928 -2.1438 0.9749
2.8858 -5.2659 -2.1474 0.9748
3.3483 -4.9960 -2.1507 0.9748
4.1932 -4.3358 -2.1570 0.9747
4.9077 -3.5324 -2.1624 0.9746
5.4671 -2.6114 -2.1667 0.9746
5.6823 -2.1161 -2.1684 0.9746
5.8518 -1.6030 -2.1697 0.9746
5.6597 0.0000 -2.1689 0.9760
5.6372 0.5037 -2.1689 0.9760
5.4561 1.4946 -2.1679 0.9761
5.2991 1.9734 -2.1670 0.9761
4.5795 3.2961 -2.1622 0.9761
4.2637 3.6870 -2.1601 0.9761
3.9143 4.0474 -2.1577 0.9762
3.5343 4.3744 -2.1551 0.9762
3.1268 4.6655 -2.1523 0.9762
2.6954 4.9185 -2.1493 0.9763
2.2436 5.1313 -2.1462 0.9763
1.7753 5.3025 -2.1429 0.9763
1.2942 5.4308 -2.1395 0.9764
0.8044 5.5155 -2.1360 0.9764
-0.1856 5.5523 -2.1289 0.9765
-0.6780 5.5046 -2.1254 0.9765
-1.1633 5.4135 -2.1219 0.9766
-1.6378 5.2799 -2.1185 0.9766
-2.9610 4.6384 -2.1088 0.9767
-3.7265 4.0290 -2.1032 0.9768
-4.0654 3.6769 -2.1006 0.9768
-4.3717 3.2969 -2.0983 0.9768
-4.6432 2.8918 -2.0962 0.9768
-4.8779 2.4649 -2.0944 0.9769
-5.0742 2.0195 -2.0929 0.9769
-5.2307 1.5589 -2.0916 0.9769
-5.3461 1.0866 -2.0906 0.9769
-5.4199 0.6063 -2.0899 0.9769
-5.4403 -0.3642 -2.0895 0.9769
-5.3869 -0.8471 -2.0897 0.9769
-5.2914 -1.3235 -2.0902 0.9769
-4.7614 -2.6787 -2.0936 0.9769
-4.5077 -3.0943 -2.0953 0.9769
-4.2183 -3.4865 -2.0972 0.9768
-2.7494 -4.7622 -2.1073 0.9767
-2.3180 -4.9951 -2.1103 0.9767
-0.9202 -5.4553 -2.1201 0.9766
-0.4317 -5.5246 -2.1236 0.9765
0.0618 -5.5503 -2.1271 0.9765
0.5565 -5.5319 -2.1306 0.9765
2.9096 -4.7899 -2.1477 0.9763
3.3292 -4.5184 -2.1508 0.9762
3.7231 -4.2098 -2.1537 0.9762
4.0882 -3.8666 -2.1564 0.9762
4.7194 -3.0873 -2.1612 0.9761
5.3802 -1.7349 -2.1663 0.9761
5.6076 -0.7541 -2.1683 0.9761
5.6537 -0.2521 -2.1688 0.9760
5.2045 2.2069 -2.1664 0.9761
4.0931 3.8712 -2.1590 0.9762
3.7279 4.2152 -2.1565 0.9762
3.3338 4.5246 -2.1537 0.9762
1.0502 5.4787 -2.1377 0.9764
0.5575 5.5413 -2.1343 0.9764
-0.4324 5.5339 -2.1272 0.9765
-0.9217 5.4644 -2.1237 0.9765
-1.8699 5.1976 -2.1168 0.9766
-2.3215 5.0027 -2.1135 0.9767
-2.7535 4.7691 -2.1104 0.9767
-3.1625 4.4987 -2.1073 0.9767
-4.5119 3.0973 -2.0972 0.9768
-4.7653 2.6809 -2.0953 0.9769
-5.1575 1.7909 -2.0922 0.9769
-5.4409 0.3642 -2.0897 0.9769
-5.4511 -0.1215 -2.0895 0.9769
-4.6391 -2.8893 -2.0944 0.9769
-4.3673 -3.2935 -2.0962 0.9768
-3.7219 -4.0241 -2.1006 0.9768
-2.0947 -5.0972 -2.1118 0.9767
-1.6352 -5.2714 -2.1151 0.9766
-1.1614 -5.4046 -2.1184 0.9766
-0.6768 -5.4954 -2.1218 0.9766
-0.1853 -5.5429 -2.1253 0.9765
0.3093 -5.5466 -2.1289 0.9765
0.8031 -5.5062 -2.1324 0.9764
1.2921 -5.4218 -2.1359 0.9764
2.2401 -5.1233 -2.1428 0.9763
3.5295 -4.3686 -2.1522 0.9762
4.8546 -2.8754 -2.1622 0.9761
5.6363 -0.5037 -2.1686 0.9761
5.1027 1.3978 -2.1654 0.9774
4.7695 2.2782 -2.1633 0.9774
3.3066 4.0927 -2.1534 0.9775
2.5222 4.6024 -2.1480 0.9776
2.0997 4.8021 -2.1450 0.9776
1.6615 4.9628 -2.1419 0.9776
0.2900 5.2017 -2.1322 0.9777
-0.6349 5.1546 -2.1256 0.9778
-1.0894 5.0699 -2.1223 0.9778
-1.9652 4.7820 -2.1160 0.9779
-2.7741 4.3456 -2.1101 0.9780
-3.8097 3.4457 -2.1024 0.9780
-4.5720 2.3104 -2.0966 0.9781
-4.9030 1.4613 -2.0939 0.9781
-2.1261 0.2378 -0.8756 0.9908
-2.1285 0.0474 -0.8714 0.9908
-2.1302 -0.1426 -0.8738 0.9908
-4.8319 -1.6778 -2.0934 0.9781
-4.6657 -2.1023 -2.0945 0.9781
-4.2249 -2.9002 -2.0973 0.9781
-3.9534 -3.2676 -2.0992 0.9781
-3.6504 -3.6100 -2.1012 0.9781
-3.3182 -3.9248 -2.1035 0.9780
-2.9592 -4.2095 -2.1060 0.9780
-1.7489 -4.8612 -2.1144 0.9779
-0.8618 -5.1093 -2.1206 0.9779
-0.4043 -5.1736 -2.1239 0.9778
0.5210 -5.1794 -2.1305 0.9778
0.9815 -5.1204 -2.1338 0.9777
1.8795 -4.8801 -2.1403 0.9777
2.3098 -4.7003 -2.1434 0.9776
3.4835 -3.9388 -2.1521 0.9775
3.8247 -3.6174 -2.1546 0.9775
4.1360 -3.2662 -2.1569 0.9775
4.4146 -2.8879 -2.1591 0.9775
4.8645 -2.0628 -2.1625 0.9774
5.1589 -1.1689 -2.1649 0.9774
5.2443 -0.7053 -2.1657 0.9774
5.2874 -0.2358 -2.1662 0.9774
5.1608 1.1693 -2.1657 0.9774
4.8676 2.0640 -2.1639 0.9774
4.6617 2.4876 -2.1626 0.9774
4.4185 2.8905 -2.1610 0.9774
4.1402 3.2694 -2.1591 0.9775
2.7265 4.4885 -2.1494 0.9776
2.3131 4.7070 -2.1465 0.9776
1.8823 4.8873 -2.1435 0.9776
0.0580 5.2054 -2.1306 0.9778
-0.4049 5.1818 -2.1273 0.9778
-3.3222 3.9295 -2.1060 0.9780
-3.6545 3.6140 -2.1035 0.9780
-4.6687 2.1036 -2.0958 0.9781
-2.1308 0.5329 -0.8989 0.9906
-2.1302 0.1426 -0.8738 0.9908
-2.1285 -0.0474 -0.8714 0.9908
-2.1261 -0.2379 -0.8756 0.9908
-2.1365 -0.4343 -0.8923 0.9906
-4.0932 -3.0868 -2.0982 0.9781
-3.8057 -3.4421 -2.1002 0.9781
-3.4878 -3.7710 -2.1023 0.9780
-3.1419 -4.0711 -2.1047 0.9780
-2.3763 -4.5751 -2.1100 0.9780
-1.9623 -4.7750 -2.1129 0.9779
-1.5317 -4.9378 -2.1159 0.9779
-1.0878 -5.0620 -2.1190 0.9779
-0.6339 -5.1465 -2.1223 0.9778
1.2096 -5.0755 -2.1354 0.9777
2.9218 -4.3596 -2.1479 0.9776
3.6577 -3.7820 -2.1534 0.9775
3.9843 -3.4454 -2.1558 0.9775
4.2796 -3.0802 -2.1580 0.9775
4.7661 -2.2766 -2.1618 0.9774
4.9532 -1.8446 -2.1632 0.9774
4.8859 0.8802 -2.1636 0.9786
4.6494 1.7314 -2.1622 0.9786
4.4745 2.1373 -2.1611 0.9786
4.2638 2.5255 -2.1597 0.9786
3.7424 3.2362 -2.1562 0.9786
1.9709 4.5075 -2.1440 0.9788
1.5597 4.6587 -2.1411 0.9788
1.1373 4.7724 -2.1381 0.9788
-2.2357 4.3044 -2.1139 0.9791
-2.9560 3.8302 -2.1086 0.9791
-4.0903 2.5475 -2.1001 0.9792
-4.4708 1.7793 -2.0971 0.9792
-1.8741 0.5585 -0.8523 0.9915
-1.9300 0.3923 -0.8583 0.9914
-1.9433 0.2174 -0.8522 0.9915
-1.9470 0.0434 -0.8487 0.9915
-1.8290 -0.6351 -0.8438 0.9916
-4.3858 -1.9762 -2.0965 0.9792
-4.1950 -2.3601 -2.0977 0.9792
-3.9711 -2.7260 -2.0992 0.9792
-3.7157 -3.0711 -2.1009 0.9792
-2.7808 -3.9557 -2.1073 0.9791
-2.4205 -4.1925 -2.1098 0.9791
-2.0403 -4.3968 -2.1125 0.9791
-1.6431 -4.5669 -2.1152 0.9790
-0.3797 -4.8592 -2.1242 0.9790
0.4893 -4.8637 -2.1304 0.9789
0.9216 -4.8078 -2.1335 0.9789
1.3478 -4.7135 -2.1366 0.9788
1.7645 -4.5813 -2.1396 0.9788
2.1682 -4.4121 -2.1425 0.9788
2.5557 -4.2072 -2.1453 0.9787
3.5891 -3.3946 -2.1530 0.9787
4.1421 -2.7097 -2.1572 0.9786
4.3704 -2.3321 -2.1589 0.9786
4.5638 -1.9352 -2.1604 0.9786
4.9600 -0.2212 -2.1638 0.9786
4.9207 0.6618 -2.1638 0.9786
4.7229 1.5229 -2.1627 0.9786
3.8846 3.0676 -2.1572 0.9786
3.2728 3.7006 -2.1530 0.9787
2.9272 3.9728 -2.1507 0.9787
2.5590 4.2126 -2.1481 0.9787
1.3497 4.7203 -2.1396 0.9788
-0.8107 4.8062 -2.1242 0.9790
-1.2335 4.7082 -2.1212 0.9790
-2.0431 4.4027 -2.1153 0.9790
-2.4236 4.1978 -2.1125 0.9791
-2.7841 3.9605 -2.1099 0.9791
-4.1981 2.3618 -2.0992 0.9792
-1.9080 0.4772 -0.8571 0.9915
-1.9397 0.3050 -0.8557 0.9915
-1.9479 0.1304 -0.8508 0.9915
-1.9470 -0.0434 -0.8487 0.9915
-1.9300 -0.3923 -0.8583 0.9914
-1.8741 -0.5585 -0.8523 0.9915
-4.2947 -2.1702 -2.0971 0.9792
-3.8472 -2.9014 -2.1000 0.9792
-3.2779 -3.5440 -2.1039 0.9792
-2.9526 -3.8257 -2.1061 0.9791
-1.8436 -4.4862 -2.1138 0.9791
-1.0218 -4.7550 -2.1196 0.9790
-0.5954 -4.8340 -2.1226 0.9790
-0.1630 -4.8748 -2.1257 0.9789
0.2719 -4.8771 -2.1288 0.9789
0.7060 -4.8406 -2.1319 0.9789
1.1357 -4.7654 -2.1350 0.9789
2.3642 -4.3141 -2.1439 0.9788
2.7423 -4.0918 -2.1467 0.9787
3.0994 -3.8362 -2.1493 0.9787
4.2605 -2.5235 -2.1581 0.9786
4.6469 -1.7305 -2.1611 0.9786
4.7850 -1.3108 -2.1622 0.9786
4.9449 -0.4419 -2.1636 0.9786
4.5027 1.2334 -2.1610 0.9796
4.3735 1.6287 -2.1602 0.9796
3.5209 3.0446 -2.1546 0.9797
3.2330 3.3429 -2.1526 0.9797
2.5837 3.8551 -2.1482 0.9798
1.8548 4.2421 -2.1431 0.9798
1.4680 4.3848 -2.1404 0.9798
1.0705 4.4921 -2.1376 0.9799
0.6656 4.5635 -2.1347 0.9799
0.2564 4.5983 -2.1318 0.9799
-0.9636 4.4842 -2.1230 0.9800
-2.1058 4.0544 -2.1147 0.9801
-3.0914 3.3424 -2.1075 0.9801
-3.8541 2.4003 -2.1017 0.9802
-4.0495 2.0463 -2.1002 0.9802
-1.5257 0.6072 -0.7601 0.9928
-1.5924 0.4746 -0.7692 0.9927
-1.6675 0.1865 -0.7767 0.9926
-1.6716 0.0372 -0.7739 0.9927
-1.6521 -0.2598 -0.7741 0.9927
-1.5621 -0.5424 -0.7654 0.9927
-3.9530 -2.2240 -2.0995 0.9802
-3.7419 -2.5687 -2.1009 0.9802
-2.2801 -3.9493 -2.1109 0.9801
-1.9219 -4.1415 -2.1134 0.9801
-1.5475 -4.3015 -2.1160 0.9801
-1.1600 -4.4278 -2.1187 0.9800
-0.7623 -4.5195 -2.1215 0.9800
-0.3575 -4.5756 -2.1244 0.9800
0.4607 -4.5790 -2.1303 0.9799
0.8676 -4.5260 -2.1332 0.9799
1.2687 -4.4369 -2.1361 0.9799
1.6608 -4.3121 -2.1389 0.9798
2.0406 -4.1525 -2.1417 0.9798
2.7512 -3.7340 -2.1469 0.9798
3.0761 -3.4782 -2.1493 0.9797
3.8968 -2.5492 -2.1555 0.9797
4.1114 -2.1939 -2.1571 0.9797
4.2932 -1.8205 -2.1585 0.9797
4.6658 0.2080 -2.1619 0.9796
4.6284 0.6225 -2.1617 0.9796
4.5538 1.0318 -2.1613 0.9796
4.2956 1.8215 -2.1597 0.9796
4.1142 2.1954 -2.1586 0.9797
3.8999 2.5512 -2.1571 0.9797
3.0794 3.4819 -2.1516 0.9797
2.7544 3.7383 -2.1494 0.9797
2.4080 3.9641 -2.1470 0.9798
2.0432 4.1578 -2.1444 0.9798
1.6630 4.3178 -2.1417 0.9798
1.2704 4.4429 -2.1390 0.9798
0.8688 4.5323 -2.1361 0.9799
0.4613 4.5855 -2.1333 0.9799
-0.3580 4.5820 -2.1274 0.9799
-0.7634 4.5257 -2.1245 0.9800
-1.1616 4.4338 -2.1216 0.9800
-1.5496 4.3071 -2.1188 0.9800
-1.9243 4.1467 -2.1161 0.9801
-2.6227 3.7308 -2.1109 0.9801
-2.9410 3.4787 -2.1086 0.9801
-3.2356 3.1998 -2.1064 0.9801
-3.5042 2.8963 -2.1044 0.9802
-3.9557 2.2255 -2.1009 0.9802
-4.1354 1.8633 -2.0995 0.9802
-1.5621 0.5424 -0.7654 0.9927
-1.6165 0.4043 -0.7713 0.9927
-1.6738 0.1120 -0.7765 0.9926
-1.6716 -0.0373 -0.7739 0.9927
-4.0470 -2.0450 -2.0989 0.9802
-3.8513 -2.3986 -2.1002 0.9802
-3.0883 -3.3390 -2.1053 0.9802
-2.7816 -3.6043 -2.1074 0.9801
-2.1032 -4.0494 -2.1121 0.9801
-1.3553 -4.3689 -2.1174 0.9800
-0.9623 -4.4781 -2.1201 0.9800
-0.5606 -4.5520 -2.1230 0.9800
0.6646 -4.5571 -2.1317 0.9799
1.0691 -4.4860 -2.1346 0.9799
1.8524 -4.2366 -2.1403 0.9798
2.9165 -3.6098 -2.1481 0.9798
3.2297 -3.3395 -2.1504 0.9797
4.0081 -2.3740 -2.1563 0.9797
4.3713 -1.6279 -2.1592 0.9796
4.5946 -0.8278 -2.1610 0.9796
4.4033 0.0000 -2.1599 0.9806
4.3858 0.3919 -2.1599 0.9806
4.3330 0.7806 -2.1597 0.9806
3.5653 2.5661 -2.1548 0.9806
3.3202 2.8711 -2.1531 0.9806
2.7536 3.4081 -2.1492 0.9807
2.4368 3.6360 -2.1471 0.9807
1.7496 4.0015 -2.1423 0.9807
-0.1450 4.3375 -2.1288 0.9808
-0.5298 4.3018 -2.1261 0.9809
-1.6413 3.9938 -2.1180 0.9809
-1.9879 3.8273 -2.1155 0.9810
-2.6291 3.4066 -2.1108 0.9810
-2.9189 3.1558 -2.1086 0.9810
-3.1852 2.8808 -2.1067 0.9810
-3.8242 1.9325 -2.1018 0.9811
-1.3059 0.5197 -0.6895 0.9938
-1.3513 -0.0905 -0.6643 0.9940
-1.3257 -0.2085 -0.6583 0.9940
-1.3149 -0.3289 -0.6649 0.9940
-1.3171 -0.4573 -0.6839 0.9938
-3.7332 -2.1003 -2.1011 0.9811
-3.3061 -2.7326 -2.1040 0.9811
-3.0523 -3.0185 -2.1057 0.9811
-2.1527 -3.7286 -2.1119 0.9810
-0.7195 -4.2656 -2.1219 0.9809
-0.3374 -4.3182 -2.1246 0.9809
0.0483 -4.3367 -2.1274 0.9809
0.4347 -4.3208 -2.1302 0.9808
0.8186 -4.2705 -2.1329 0.9808
1.1970 -4.1860 -2.1356 0.9808
1.5668 -4.0680 -2.1383 0.9808
2.2686 -3.7347 -2.1434 0.9807
2.5949 -3.5219 -2.1458 0.9807
3.1847 -3.0121 -2.1502 0.9807
3.4433 -2.7192 -2.1522 0.9806
3.8768 -2.0687 -2.1555 0.9806
4.0481 -1.7165 -2.1568 0.9806
4.1869 -1.3501 -2.1579 0.9806
4.2922 -0.9725 -2.1588 0.9806
4.3630 -0.5868 -2.1594 0.9806
4.3990 0.1961 -2.1599 0.9806
4.3638 0.5869 -2.1598 0.9806
4.1887 1.3507 -2.1588 0.9806
4.0502 1.7174 -2.1580 0.9806
3.8793 2.0700 -2.1568 0.9806
3.4462 2.7214 -2.1540 0.9806
2.5977 3.5257 -2.1482 0.9807
2.2712 3.7390 -2.1459 0.9807
1.9273 3.9219 -2.1435 0.9807
1.5687 4.0731 -2.1410 0.9807
1.1985 4.1914 -2.1384 0.9808
0.8197 4.2761 -2.1357 0.9808
0.4353 4.3265 -2.1330 0.9808
0.0484 4.3425 -2.1302 0.9808
-1.4626 4.0655 -2.1193 0.9809
-1.8165 3.9144 -2.1168 0.9810
-2.4761 3.5222 -2.1119 0.9810
-2.7768 3.2844 -2.1097 0.9810
-3.3089 2.7348 -2.1057 0.9811
-3.5363 2.4275 -2.1040 0.9811
-3.7356 2.1016 -2.1025 0.9811
-1.3257 0.2084 -0.6583 0.9940
-1.3419 -0.1501 -0.6624 0.9940
-3.8220 -1.9313 -2.1005 0.9811
-3.6370 -2.2651 -2.1017 0.9811
-3.4233 -2.5816 -2.1032 0.9811
-3.1824 -2.8783 -2.1048 0.9811
-2.6264 -3.4031 -2.1086 0.9810
-2.3154 -3.6270 -2.1107 0.9810
-1.9855 -3.8228 -2.1130 0.9810
-1.6393 -3.9890 -2.1155 0.9810
-0.9083 -4.2267 -2.1206 0.9809
-0.5291 -4.2962 -2.1233 0.9809
-0.1448 -4.3318 -2.1260 0.9809
0.2416 -4.3331 -2.1288 0.9809
0.6271 -4.3000 -2.1315 0.9808
1.3831 -4.1312 -2.1370 0.9808
1.7475 -3.9966 -2.1396 0.9808
2.0988 -3.8298 -2.1422 0.9807
2.4341 -3.6320 -2.1447 0.9807
2.7507 -3.4046 -2.1470 0.9807
3.0459 -3.1495 -2.1492 0.9807
3.5625 -2.5641 -2.1531 0.9806
3.9664 -1.8946 -2.1562 0.9806
4.3320 -0.7804 -2.1591 0.9806
4.1601 -0.0000 -2.1582 0.9814
4.1436 0.3703 -2.1582 0.9814
4.0938 0.7375 -2.1579 0.9814
3.8960 1.4509 -2.1568 0.9814
3.5736 2.1166 -2.1547 0.9815
3.3689 2.4247 -2.1533 0.9815
3.1374 2.7130 -2.1518 0.9815
2.8811 2.9791 -2.1500 0.9815
2.3030 3.4363 -2.1460 0.9815
1.9860 3.6239 -2.1438 0.9816
0.9548 4.0063 -2.1366 0.9816
-0.1371 4.1012 -2.1288 0.9817
-0.5010 4.0677 -2.1262 0.9817
-0.8600 4.0021 -2.1236 0.9817
-1.8802 3.6201 -2.1162 0.9818
-2.1926 3.4346 -2.1139 0.9818
-2.4870 3.2225 -2.1117 0.9818
-2.7613 2.9855 -2.1097 0.9818
-3.0134 2.7254 -2.1078 0.9819
-3.4435 2.1446 -2.1046 0.9819
-1.1266 0.3358 -0.6099 0.9947
-1.1332 0.2303 -0.5999 0.9948
-1.1649 0.1303 -0.6081 0.9947
-1.1275 -0.2820 -0.6029 0.9948
-3.3434 -2.2951 -2.1038 0.9819
-3.1280 -2.5854 -2.1053 0.9819
-2.8877 -2.8557 -2.1069 0.9819
-2.3398 -3.3284 -2.1107 0.9818
-2.0363 -3.5270 -2.1128 0.9818
-1.7161 -3.6981 -2.1150 0.9818
-1.3817 -3.8404 -2.1173 0.9818
-0.6804 -4.0340 -2.1223 0.9817
0.0457 -4.1006 -2.1275 0.9817
0.4110 -4.0853 -2.1301 0.9817
1.1316 -3.9573 -2.1353 0.9816
1.8195 -3.7026 -2.1403 0.9816
2.4525 -3.3286 -2.1449 0.9815
2.7418 -3.1002 -2.1470 0.9815
3.0096 -2.8465 -2.1490 0.9815
3.2538 -2.5695 -2.1509 0.9815
3.4722 -2.2714 -2.1525 0.9815
3.8248 -1.6219 -2.1553 0.9815
3.9559 -1.2756 -2.1563 0.9814
4.0553 -0.9188 -2.1571 0.9814
4.1560 0.1853 -2.1582 0.9814
4.1228 0.5545 -2.1581 0.9814
3.2564 2.5715 -2.1526 0.9815
2.7444 3.1031 -2.1491 0.9815
1.8216 3.7068 -2.1427 0.9816
1.4828 3.8500 -2.1403 0.9816
1.1329 3.9621 -2.1378 0.9816
0.7749 4.0424 -2.1353 0.9816
0.0457 4.1058 -2.1301 0.9817
-0.3195 4.0885 -2.1275 0.9817
-0.6813 4.0389 -2.1249 0.9817
-1.7180 3.7023 -2.1174 0.9818
-2.0385 3.5308 -2.1151 0.9818
-2.3422 3.3318 -2.1128 0.9818
-2.6268 3.1070 -2.1107 0.9818
-2.8902 2.8582 -2.1088 0.9818
-3.1305 2.5874 -2.1069 0.9819
-1.0898 0.4910 -0.6201 0.9946
-1.1198 0.3888 -0.6150 0.9947
-1.1275 0.2820 -0.6029 0.9948
-3.4413 -2.1432 -2.1032 0.9819
-3.2389 -2.4426 -2.1045 0.9819
-2.4846 -3.2193 -2.1097 0.9818
-1.5505 -3.7729 -2.1162 0.9818
-1.2099 -3.9004 -2.1185 0.9818
0.5929 -4.0654 -2.1314 0.9817
0.9536 -4.0014 -2.1340 0.9816
2.3006 -3.4327 -2.1438 0.9816
2.5997 -3.2176 -2.1460 0.9815
2.8785 -2.9764 -2.1481 0.9815
4.0928 -0.7374 -2.1575 0.9814
4.1431 -0.3702 -2.1579 0.9814
2.0429 0.0000 -1.1189 0.9907
2.0356 0.1819 -1.1193 0.9907
2.0036 0.3609 -1.1150 0.9908
2.0004 0.5480 -1.1360 0.9906
1.9715 0.7342 -1.1522 0.9905
3.3826 2.0035 -2.1533 0.9822
3.1890 2.2953 -2.1520 0.9822
2.9700 2.5682 -2.1505 0.9823
2.4636 3.0492 -2.1471 0.9823
1.2396 3.7025 -2.1385 0.9824
0.9041 3.7940 -2.1362 0.9824
0.5622 3.8550 -2.1337 0.9824
0.2166 3.8852 -2.1313 0.9824
-0.1299 3.8846 -2.1288 0.9824
-0.4746 3.8531 -2.1263 0.9825
-1.1476 3.6995 -2.1215 0.9825
-2.0775 3.2544 -2.1147 0.9825
-2.3567 3.0536 -2.1126 0.9826
-3.0719 2.3166 -2.1073 0.9826
-0.9364 0.4732 -0.5746 0.9952
-0.9638 0.3836 -0.5681 0.9953
-0.9825 0.2928 -0.5615 0.9953
-1.0000 0.2032 -0.5589 0.9954
-0.9847 -0.2463 -0.5559 0.9954
-0.9756 -0.3388 -0.5656 0.9953
-0.9472 -0.4268 -0.5690 0.9953
-2.7367 -2.7064 -2.1080 0.9826
-2.2172 -3.1540 -2.1116 0.9826
-1.9295 -3.3420 -2.1136 0.9826
-1.6260 -3.5040 -2.1157 0.9825
0.3893 -3.8694 -2.1300 0.9824
0.7330 -3.8238 -2.1325 0.9824
1.7229 -3.5061 -2.1396 0.9823
2.3220 -3.1515 -2.1440 0.9823
2.8492 -2.6948 -2.1479 0.9823
3.2869 -2.1502 -2.1512 0.9822
1.9407 -0.8229 -1.1546 0.9904
2.0041 -0.4541 -1.1255 0.9907
2.0434 0.0911 -1.1203 0.9907
2.0226 0.2720 -1.1178 0.9907
1.9895 0.6415 -1.1449 0.9905
1.9407 0.8229 -1.1546 0.9904
3.2891 2.1516 -2.1527 0.9822
3.0825 2.4342 -2.1513 0.9822
2.5981 2.9377 -2.1480 0.9823
2.3243 3.1545 -2.1461 0.9823
2.0324 3.3457 -2.1441 0.9823
1.0729 3.7520 -2.1373 0.9824
-0.9822 3.7491 -2.1227 0.9825
-1.9315 3.3454 -2.1158 0.9825
-2.4892 2.9442 -2.1116 0.9826
-3.1709 2.1767 -2.1065 0.9826
-1.0166 0.1598 -0.5637 0.9953
-1.0293 -0.1151 -0.5673 0.9953
-0.9825 -0.2928 -0.5615 0.9953
-0.9638 -0.3836 -0.5681 0.9953
-0.9364 -0.4732 -0.5746 0.9952
-3.0697 -2.3150 -2.1058 0.9826
-2.8534 -2.5808 -2.1072 0.9826
-2.0755 -3.2512 -2.1126 0.9826
-1.4691 -3.5748 -2.1168 0.9825
-0.4740 -3.8486 -2.1238 0.9825
1.2382 -3.6983 -2.1361 0.9824
1.5642 -3.5774 -2.1385 0.9824
1.8784 -3.4277 -2.1408 0.9823
2.7252 -2.8178 -2.1470 0.9823
3.3806 -2.0023 -2.1520 0.9822
3.5475 -1.6945 -2.1532 0.9822
2.0356 -0.1819 -1.1193 0.9907
1.8426 0.3319 -1.0810 0.9914
3.2070 1.8995 -2.1520 0.9829
3.0235 2.1762 -2.1508 0.9829
2.8160 2.4351 -2.1494 0.9830
1.7832 3.2539 -2.1423 0.9830
0.8576 3.5985 -2.1358 0.9831
0.5333 3.6566 -2.1335 0.9831
0.2055 3.6855 -2.1311 0.9831
-0.1232 3.6851 -2.1288 0.9831
-0.4502 3.6555 -2.1264 0.9831
-1.0888 3.5101 -2.1218 0.9832
-1.9715 3.0883 -2.1154 0.9832
-2.2365 2.8979 -2.1134 0.9832
-2.7103 2.4513 -2.1099 0.9833
-2.9156 2.1988 -2.1084 0.9833
-0.8932 0.3555 -0.5550 0.9956
-0.9120 0.1854 -0.5373 0.9957
-0.9274 -0.0621 -0.5366 0.9957
-0.9189 -0.1445 -0.5370 0.9957
-0.9030 -0.2259 -0.5374 0.9957
-0.8984 -0.3119 -0.5490 0.9956
-3.0078 -2.0647 -2.1063 0.9833
-2.8138 -2.3256 -2.1076 0.9833
-2.3603 -2.7918 -2.1107 0.9833
-1.8311 -3.1715 -2.1144 0.9832
-1.5430 -3.3251 -2.1164 0.9832
-0.6116 -3.6258 -2.1229 0.9832
0.3693 -3.6706 -2.1299 0.9831
0.6953 -3.6271 -2.1322 0.9831
1.3302 -3.4538 -2.1368 0.9831
1.6340 -3.3251 -2.1391 0.9830
2.4614 -2.7832 -2.1451 0.9830
2.7016 -2.5552 -2.1469 0.9830
2.9206 -2.3064 -2.1486 0.9830
3.1164 -2.0387 -2.1501 0.9829
1.7564 -0.7448 -1.1014 0.9912
1.8592 -0.2500 -1.0831 0.9914
1.8755 -0.0836 -1.0839 0.9914
1.8755 0.0836 -1.0839 0.9914
1.8592 0.2500 -1.0831 0.9914
1.6860 0.8997 -1.1034 0.9912
3.1184 2.0399 -2.1514 0.9829
2.7038 2.5572 -2.1486 0.9830
2.2040 2.9913 -2.1452 0.9830
1.9273 3.1727 -2.1433 0.9830
1.3316 3.4575 -2.1391 0.9830
1.0175 3.5586 -2.1369 0.9831
0.3697 3.6747 -2.1323 0.9831
-0.2871 3.6739 -2.1276 0.9831
-0.9319 3.5570 -2.1230 0.9832
-1.2435 3.4563 -2.1207 0.9832
-1.5446 3.3284 -2.1185 0.9832
-2.1061 2.9960 -2.1144 0.9832
-2.3623 2.7942 -2.1125 0.9832
-2.8158 2.3273 -2.1091 0.9833
-0.8983 0.3119 -0.5490 0.9956
-0.9189 0.1445 -0.5370 0.9957
-0.9274 0.0621 -0.5366 0.9957
-0.9306 -0.0207 -0.5374 0.9957
-0.9237 -0.1033 -0.5366 0.9957
-0.8932 -0.3555 -0.5550 0.9956
-2.9137 -2.1973 -2.1069 0.9833
-2.2345 -2.8954 -2.1116 0.9832
-1.3940 -3.3922 -2.1174 0.9832
-1.0877 -3.5063 -2.1196 0.9832
-0.7721 -3.5930 -2.1218 0.9832
-0.4497 -3.6514 -2.1241 0.9832
0.2053 -3.6814 -2.1287 0.9831
0.8566 -3.5945 -2.1334 0.9831
1.1744 -3.5078 -2.1357 0.9831
1.4835 -3.3929 -2.1380 0.9830
1.7814 -3.2507 -2.1401 0.9830
2.0657 -3.0822 -2.1422 0.9830
2.3340 -2.8888 -2.1442 0.9830
2.5841 -2.6719 -2.1460 0.9830
2.8139 -2.4333 -2.1478 0.9830
3.0215 -2.1748 -2.1493 0.9830
3.2052 -1.8984 -2.1507 0.9829
1.7194 -0.8213 -1.1001 0.9912
1.8267 -0.5004 -1.0935 0.9913
1.8700 -0.1671 -1.0839 0.9914
