ply
format ascii 1.0
element vertex 742
property float32 x
property float32 y
property float32 z
property float32 I
end_header
19.0441 0.0000 -4.4758 0.9247
18.9685 1.6950 -4.4758 0.9247
15.4567 11.1251 -4.4758 0.9247
14.4052 12.4566 -4.4758 0.9247
-17.6942 7.0421 -4.4758 0.9247
-18.2508 5.4393 -4.4758 0.9247
-18.9260 2.1172 -4.4758 0.9247
-19.0394 0.4243 -4.4758 0.9247
-19.0016 -1.2720 -4.4758 0.9247
-18.8129 -2.9582 -4.4758 0.9247
-17.8655 -6.2036 -4.4447 0.9252
17.9409 -4.0649 -4.3234 0.9272
18.2315 -2.4519 -4.3234 0.9272
19.0252 -0.8484 -4.4758 0.9247
19.0252 0.8484 -4.4758 0.9247
18.8742 2.5383 -4.4758 0.9247
16.8016 8.9656 -4.4758 0.9247
14.9458 11.8026 -4.4758 0.9247
13.8360 13.0860 -4.4758 0.9247
-14.1793 11.7195 -4.3234 0.9272
-16.5924 9.3347 -4.4744 0.9248
-19.0016 1.2720 -4.4758 0.9247
-19.0394 -0.4243 -4.4758 0.9247
-18.9260 -2.1172 -4.4758 0.9247
-18.6625 -3.7933 -4.4758 0.9247
-18.2508 -5.4393 -4.4758 0.9247
-17.0917 -6.8023 -4.3234 0.9272
-16.4185 -8.2966 -4.3234 0.9272
17.2180 1.5386 -4.4758 0.9311
16.6723 4.5670 -4.4758 0.9311
16.1997 6.0328 -4.4758 0.9311
14.8734 8.8095 -4.4758 0.9311
14.0303 10.0984 -4.4758 0.9311
13.0758 11.3071 -4.4758 0.9311
12.0110 12.4193 -4.4734 0.9311
10.4939 12.9884 -4.3234 0.9333
-12.3841 11.2007 -4.3234 0.9333
-15.4286 7.7964 -4.4758 0.9311
-16.0613 6.3922 -4.4758 0.9311
-16.5665 4.9373 -4.4758 0.9311
-16.9402 3.4433 -4.4758 0.9311
-17.1794 1.9218 -4.4758 0.9311
-17.2480 -1.1546 -4.4758 0.9311
-17.0767 -2.6852 -4.4758 0.9311
-16.7700 -4.1945 -4.4758 0.9311
-15.2239 -6.8596 -4.3234 0.9333
-14.5530 -8.1874 -4.3234 0.9333
17.1323 2.3041 -4.4758 0.9311
16.8592 3.8198 -4.4758 0.9311
15.9149 6.7485 -4.4758 0.9311
15.2511 8.1382 -4.4758 0.9311
12.5591 11.8783 -4.4758 0.9311
9.9049 13.4430 -4.3234 0.9333
-12.8707 10.6379 -4.3234 0.9333
-16.3301 5.6704 -4.4758 0.9311
-16.9402 -3.4432 -4.4758 0.9311
-16.5665 -4.9373 -4.4758 0.9311
-14.9033 -7.5309 -4.3234 0.9333
15.8103 0.0000 -4.4758 0.9364
15.5598 2.8032 -4.4758 0.9364
15.2486 4.1770 -4.4758 0.9364
11.9591 10.3415 -4.4758 0.9364
10.9912 11.3649 -4.4758 0.9364
-11.3265 10.2442 -4.3234 0.9385
-14.1110 7.1306 -4.4758 0.9364
-15.6184 -2.4559 -4.4758 0.9364
-15.3379 -3.8363 -4.4758 0.9364
-13.9239 -6.2738 -4.3234 0.9385
14.5350 -4.6869 -4.3234 0.9385
15.7946 -0.7043 -4.4758 0.9364
15.4195 3.4936 -4.4758 0.9364
15.0474 4.8522 -4.4758 0.9364
13.9487 7.4432 -4.4758 0.9364
13.2308 8.6552 -4.4758 0.9364
11.4866 10.8640 -4.4758 0.9364
7.9288 13.0525 -4.3234 0.9385
-9.8600 11.6625 -4.3234 0.9385
-10.8589 10.7386 -4.3234 0.9385
-11.7744 9.7318 -4.3244 0.9385
-13.0347 8.9478 -4.4758 0.9364
-14.9356 5.1862 -4.4758 0.9364
-15.6184 2.4559 -4.4758 0.9364
-15.7750 1.0560 -4.4758 0.9364
-15.8064 -0.3522 -4.4758 0.9364
-15.7123 -1.7577 -4.4758 0.9364
-15.1518 -4.5157 -4.4758 0.9364
-13.6306 -6.8878 -4.3234 0.9385
-12.9634 -8.0737 -4.3234 0.9385
14.3118 -5.3298 -4.3234 0.9385
15.5512 -2.8017 -4.4733 0.9364
15.7476 -1.4072 -4.4758 0.9364
14.0347 3.8445 -4.4758 0.9409
13.6368 5.0784 -4.4758 0.9409
13.1307 6.2720 -4.4758 0.9409
12.5203 7.4158 -4.4758 0.9409
11.8106 8.5007 -4.4758 0.9409
10.1162 10.4601 -4.4758 0.9409
-11.6183 8.7618 -4.4758 0.9409
-12.3520 7.6929 -4.4758 0.9409
-13.9456 4.1562 -4.4758 0.9409
-14.4615 1.6178 -4.4758 0.9409
-14.5481 0.3242 -4.4758 0.9409
-14.5192 -0.9719 -4.4758 0.9409
-14.3751 -2.2604 -4.4758 0.9409
-13.2560 -5.9728 -4.4720 0.9410
-11.5886 -7.9551 -4.3234 0.9429
12.9409 -5.4874 -4.3234 0.9429
13.3779 -4.3138 -4.3234 0.9429
14.1903 -3.2151 -4.4752 0.9409
14.5373 -0.6482 -4.4758 0.9409
14.5373 0.6482 -4.4758 0.9409
14.1920 3.2155 -4.4758 0.9409
13.8495 4.4659 -4.4758 0.9409
12.8383 6.8507 -4.4758 0.9409
10.5722 9.9991 -4.4758 0.9409
-9.0751 10.7341 -4.3234 0.9429
-11.9970 8.2355 -4.4758 0.9409
-14.3751 2.2604 -4.4758 0.9409
-14.5192 0.9719 -4.4758 0.9409
-14.5481 -0.3242 -4.4758 0.9409
-14.4615 -1.6178 -4.4758 0.9409
-14.2601 -2.8985 -4.4758 0.9409
-13.9456 -4.1562 -4.4758 0.9409
-13.5203 -5.3809 -4.4758 0.9409
-12.5455 -6.3395 -4.3234 0.9429
-11.9314 -7.4309 -4.3234 0.9429
12.6836 -6.0584 -4.3234 0.9429
13.1725 -4.9055 -4.3234 0.9429
14.3212 -2.5801 -4.4758 0.9409
14.4940 -1.2952 -4.4758 0.9409
13.4649 0.0000 -4.4758 0.9448
13.2515 2.3874 -4.4758 0.9448
11.5852 6.8619 -4.4758 0.9448
10.1850 8.8073 -4.4758 0.9448
9.3607 9.6789 -4.4758 0.9448
7.2415 10.8051 -4.3237 0.9466
5.2106 11.9170 -4.3234 0.9467
-5.9950 11.5424 -4.3234 0.9467
-6.9985 10.9630 -4.3234 0.9467
-7.9465 10.2966 -4.3234 0.9467
-12.0177 6.0728 -4.4758 0.9448
-12.5105 4.9791 -4.4758 0.9448
-12.9040 3.8458 -4.4758 0.9448
-13.4615 0.3000 -4.4758 0.9448
-13.3014 -2.0916 -4.4758 0.9448
-12.7198 -4.4168 -4.4758 0.9448
11.9743 -5.0776 -4.3234 0.9467
12.7942 -4.1256 -4.4685 0.9449
13.1320 -2.9753 -4.4758 0.9448
13.3447 -1.7947 -4.4758 0.9448
13.4515 0.5998 -4.4758 0.9448
13.3447 1.7947 -4.4758 0.9448
13.1320 2.9753 -4.4758 0.9448
12.3964 5.2565 -4.4758 0.9448
10.5672 8.3448 -4.4758 0.9448
9.7825 9.2523 -4.4758 0.9448
8.9202 10.0862 -4.4758 0.9448
5.7363 11.6731 -4.3234 0.9467
4.6746 12.1373 -4.3234 0.9467
-5.4748 11.7980 -4.3234 0.9467
-6.5032 11.2639 -4.3234 0.9467
-8.3973 9.9324 -4.3234 0.9467
-11.7352 6.6021 -4.4758 0.9448
-12.2762 5.5314 -4.4758 0.9448
-13.0625 3.2671 -4.4758 0.9448
-13.3814 -1.4969 -4.4758 0.9448
-13.1951 -2.6820 -4.4758 0.9448
-11.0403 -6.8759 -4.3234 0.9467
-10.3845 -7.8313 -4.3234 0.9467
11.1907 -6.6283 -4.3234 0.9467
11.7363 -5.6059 -4.3234 0.9467
12.1886 -4.5391 -4.3234 0.9467
12.9865 -3.5574 -4.4758 0.9448
13.4114 -1.1985 -4.4758 0.9448
12.5160 0.0000 -4.4758 0.9482
12.3177 2.2191 -4.4758 0.9482
11.7290 4.3679 -4.4758 0.9482
10.1583 7.3115 -4.4758 0.9482
9.4672 8.1866 -4.4758 0.9482
8.7010 8.9968 -4.4758 0.9482
7.8657 9.7355 -4.4758 0.9482
5.8101 10.6021 -4.3234 0.9499
4.8434 11.0772 -4.3234 0.9499
3.8383 11.4643 -4.3234 0.9499
-2.5400 11.8200 -4.3234 0.9499
-3.5819 11.5470 -4.3234 0.9499
-5.5725 10.7290 -4.3234 0.9499
-7.4973 9.7145 -4.3883 0.9492
-8.4984 9.1884 -4.4758 0.9482
-9.2825 8.3955 -4.4758 0.9482
-11.1707 5.6448 -4.4758 0.9482
-11.6288 4.6282 -4.4758 0.9482
-12.2652 2.4930 -4.4758 0.9482
-12.5129 0.2788 -4.4758 0.9482
-9.9673 -6.8422 -4.3234 0.9499
-9.3188 -7.7022 -4.3234 0.9499
10.1173 -6.6184 -4.3234 0.9499
11.1305 -4.7197 -4.3234 0.9499
12.2066 -2.7656 -4.4758 0.9482
12.5035 0.5575 -4.4758 0.9482
12.2066 2.7657 -4.4758 0.9482
11.5228 4.8861 -4.4758 0.9482
10.4739 6.8517 -4.4758 0.9482
9.0931 8.6002 -4.4758 0.9482
8.2916 9.3754 -4.4758 0.9482
6.4054 10.5448 -4.4121 0.9489
4.3452 11.2820 -4.3234 0.9499
2.2760 11.8736 -4.3234 0.9499
-3.0640 11.6951 -4.3234 0.9499
-4.0927 11.3760 -4.3234 0.9499
-8.0716 9.5471 -4.4708 0.9483
-11.8234 4.1055 -4.4758 0.9482
-12.1419 3.0369 -4.4758 0.9482
-12.3640 1.9442 -4.4758 0.9482
-12.5129 -0.2788 -4.4758 0.9482
-12.4384 -1.3914 -4.4758 0.9482
-11.9946 -3.5748 -4.4758 0.9482
-11.6288 -4.6282 -4.4758 0.9482
-11.1707 -5.6448 -4.4758 0.9482
-10.2622 -6.3914 -4.3234 0.9499
-9.6526 -7.2794 -4.3234 0.9499
9.8124 -7.0626 -4.3234 0.9499
10.4021 -6.1612 -4.3234 0.9499
10.9092 -5.2109 -4.3234 0.9499
12.0713 -3.3067 -4.4758 0.9482
12.3177 -2.2191 -4.4758 0.9482
11.6795 0.0000 -4.4758 0.9512
11.2645 3.0857 -4.4758 0.9512
10.0491 5.9521 -4.4758 0.9512
7.3400 9.0849 -4.4758 0.9512
6.5023 9.7021 -4.4758 0.9512
5.6056 10.2289 -4.4699 0.9513
4.5197 10.3369 -4.3234 0.9528
-0.3770 11.2755 -4.3234 0.9528
-1.3791 11.1972 -4.3234 0.9528
-3.3425 10.7753 -4.3234 0.9528
-4.2883 10.4350 -4.3234 0.9528
-6.1984 9.7097 -4.4145 0.9519
-7.1358 9.2461 -4.4758 0.9512
-7.9305 8.5743 -4.4758 0.9512
-8.6621 7.8344 -4.4758 0.9512
-9.9140 6.1745 -4.4758 0.9512
-10.4242 5.2676 -4.4758 0.9512
-11.6071 1.2985 -4.4758 0.9512
-11.6534 -0.7801 -4.4758 0.9512
-11.0333 -3.8312 -4.4758 0.9512
-10.1792 -5.7267 -4.4758 0.9512
-9.3012 -6.3849 -4.3234 0.9528
-8.6960 -7.1874 -4.3234 0.9528
-8.0218 -7.9329 -4.3234 0.9528
9.4411 -6.1761 -4.3234 0.9528
9.9534 -5.3113 -4.3234 0.9528
10.7426 -4.5552 -4.4716 0.9512
11.1159 -3.5844 -4.4758 0.9512
11.3908 -2.5808 -4.4758 0.9512
11.6679 0.5203 -4.4758 0.9512
11.5753 1.5567 -4.4758 0.9512
11.1159 3.5844 -4.4758 0.9512
10.7527 4.5595 -4.4758 0.9512
7.7375 8.7489 -4.4758 0.9512
6.9280 9.4028 -4.4758 0.9512
6.0637 9.9821 -4.4758 0.9512
4.0548 10.5280 -4.3234 0.9528
3.1016 10.8471 -4.3234 0.9528
2.1239 11.0801 -4.3234 0.9528
0.1257 11.2811 -4.3234 0.9528
-8.3045 8.2125 -4.4758 0.9512
-10.1792 5.7267 -4.4758 0.9512
-11.3305 2.8340 -4.4758 0.9512
-11.4455 -2.3264 -4.4758 0.9512
-10.8517 -4.3188 -4.4758 0.9512
-9.8984 -6.1648 -4.4688 0.9513
-9.0075 -6.7929 -4.3234 0.9528
9.1566 -6.5906 -4.3234 0.9528
9.7069 -5.7494 -4.3234 0.9528
10.2758 -4.9083 -4.3640 0.9524
10.9452 -4.0760 -4.4758 0.9512
11.2645 -3.0857 -4.4758 0.9512
11.6332 -1.0395 -4.4758 0.9512
10.5474 2.8892 -4.4758 0.9538
9.8680 4.7135 -4.4758 0.9538
9.4093 5.5731 -4.4758 0.9538
6.0883 9.0844 -4.4758 0.9538
4.3750 10.0059 -4.4695 0.9539
3.3537 10.0170 -4.3234 0.9554
0.5881 10.5472 -4.3234 0.9554
-0.3530 10.5577 -4.3234 0.9554
-6.6815 8.6575 -4.4758 0.9538
-7.4256 8.0284 -4.4758 0.9538
-9.2828 5.7814 -4.4758 0.9538
-10.1608 4.0439 -4.4758 0.9538
-10.4804 3.1235 -4.4758 0.9538
-2.1285 0.0474 -0.8714 0.9908
-2.1308 -0.5329 -0.8989 0.9906
-9.9705 -4.4925 -4.4758 0.9538
-9.5311 -5.3621 -4.4758 0.9538
-9.0014 -6.1791 -4.4685 0.9539
-8.1424 -6.7298 -4.3234 0.9554
-6.8201 -8.0669 -4.3234 0.9554
8.2903 -6.5468 -4.3234 0.9554
10.4082 3.3562 -4.4758 0.9538
9.1517 5.9868 -4.4758 0.9538
5.6776 9.3466 -4.4758 0.9538
3.8566 10.0136 -4.3918 0.9547
1.9887 10.3747 -4.3234 0.9554
-0.8229 10.5314 -4.3234 0.9554
-3.5761 9.9398 -4.3234 0.9554
-4.5084 9.7154 -4.3835 0.9548
-6.2892 8.9465 -4.4758 0.9538
-7.7758 7.6897 -4.4758 0.9538
-2.1308 0.5329 -0.8989 0.9906
-2.1302 0.1426 -0.8738 0.9908
-2.1285 -0.0474 -0.8714 0.9908
-2.1261 -0.2378 -0.8756 0.9908
-9.2817 -5.7807 -4.4753 0.9538
-8.4341 -6.3604 -4.3234 0.9554
-7.8345 -7.0859 -4.3234 0.9554
-7.1727 -7.7550 -4.3234 0.9554
-6.4540 -8.3627 -4.3234 0.9554
7.3437 -7.5933 -4.3234 0.9554
7.9904 -6.9096 -4.3234 0.9554
8.5737 -6.1710 -4.3234 0.9554
9.0889 -5.3834 -4.3234 0.9554
10.5474 -2.8892 -4.4758 0.9538
10.2699 0.0000 -4.4758 0.9562
10.2291 0.9141 -4.4758 0.9562
9.9050 2.7133 -4.4758 0.9562
9.6242 3.5841 -4.4758 0.9562
9.2670 4.4265 -4.4758 0.9562
8.8362 5.2337 -4.4758 0.9562
8.3353 5.9994 -4.4758 0.9562
7.7683 6.7175 -4.4758 0.9562
7.1396 7.3823 -4.4758 0.9562
5.7175 8.5312 -4.4758 0.9562
4.1143 9.4097 -4.4758 0.9562
2.3410 9.8233 -4.4010 0.9569
0.5523 9.9048 -4.3234 0.9576
-0.3315 9.9147 -4.3234 0.9576
-1.2126 9.8458 -4.3234 0.9576
-3.0111 9.7068 -4.4293 0.9566
-1.8741 0.5585 -0.8523 0.9915
-1.9300 0.3923 -0.8583 0.9914
-1.9470 0.0434 -0.8487 0.9915
-1.9397 -0.3050 -0.8557 0.9915
-1.9080 -0.4772 -0.8571 0.9915
-1.8290 -0.6351 -0.8438 0.9916
-8.4650 -5.8109 -4.4748 0.9562
-7.6465 -6.3200 -4.3234 0.9576
-7.0536 -6.9755 -4.3234 0.9576
-6.4048 -7.5756 -4.3234 0.9576
6.5720 -7.4310 -4.3234 0.9576
7.7854 -6.1481 -4.3234 0.9576
9.7743 -3.1518 -4.4758 0.9562
10.0160 -2.2693 -4.4758 0.9562
10.1783 -1.3688 -4.4758 0.9562
10.2597 0.4575 -4.4758 0.9562
9.4550 4.0093 -4.4758 0.9562
8.0598 6.3648 -4.4758 0.9562
6.8036 7.6930 -4.4758 0.9562
5.3318 8.7774 -4.4758 0.9562
3.6902 9.5815 -4.4748 0.9562
2.8187 9.8575 -4.4682 0.9563
1.8771 9.7929 -4.3456 0.9574
0.9930 9.8704 -4.3234 0.9576
-0.7728 9.8901 -4.3234 0.9576
-1.6500 9.7820 -4.3234 0.9576
-2.5456 9.7164 -4.3775 0.9571
-3.4714 9.6489 -4.4690 0.9562
-5.9062 8.4017 -4.4758 0.9562
-6.6305 7.8426 -4.4758 0.9562
-7.3023 7.2214 -4.4758 0.9562
-8.4669 5.8122 -4.4758 0.9562
-8.9506 5.0356 -4.4758 0.9562
-9.3633 4.2189 -4.4758 0.9562
-1.9479 0.1304 -0.8508 0.9915
-1.9433 -0.2174 -0.8522 0.9915
-1.9300 -0.3923 -0.8583 0.9914
-1.8741 -0.5585 -0.8523 0.9915
-7.3574 -6.6543 -4.3234 0.9576
-6.7359 -7.2828 -4.3234 0.9576
7.5038 -6.4888 -4.3234 0.9576
9.2670 -4.4265 -4.4758 0.9562
9.9050 -2.7133 -4.4758 0.9562
10.1072 -1.8209 -4.4758 0.9562
9.6694 -0.0000 -4.4758 0.9583
9.6310 0.8606 -4.4758 0.9583
9.5162 1.7144 -4.4758 0.9583
9.3258 2.5546 -4.4758 0.9583
3.0698 9.1691 -4.4758 0.9583
2.2411 9.4041 -4.4749 0.9583
1.3941 9.5584 -4.4712 0.9583
-1.1805 9.5847 -4.4701 0.9583
-4.4568 8.5810 -4.4758 0.9583
-6.5655 7.0986 -4.4758 0.9583
-7.1713 6.4861 -4.4758 0.9583
-1.6738 -0.1120 -0.7765 0.9926
-1.6165 -0.4043 -0.7713 0.9927
-8.8158 -3.9722 -4.4758 0.9583
-6.6411 -6.5676 -4.3234 0.9597
-6.0302 -7.1326 -4.3234 0.9597
5.5404 -7.5194 -4.3234 0.9597
6.1876 -6.9965 -4.3234 0.9597
6.7858 -6.4180 -4.3234 0.9597
8.5308 -4.5522 -4.4758 0.9583
8.9021 -3.7748 -4.4758 0.9583
9.2027 -2.9675 -4.4758 0.9583
9.4303 -2.1366 -4.4758 0.9583
9.6598 -0.4307 -4.4758 0.9583
9.6598 0.4307 -4.4758 0.9583
9.5831 1.2888 -4.4758 0.9583
9.2027 2.9675 -4.4758 0.9583
7.0250 6.6442 -4.4758 0.9583
6.4058 7.2431 -4.4758 0.9583
5.7357 7.7845 -4.4758 0.9583
5.0200 8.2641 -4.4758 0.9583
4.2646 8.6781 -4.4758 0.9583
1.8191 9.4902 -4.4729 0.9583
0.9666 9.6085 -4.4701 0.9583
-0.7522 9.6262 -4.4694 0.9583
-4.8347 8.3739 -4.4758 0.9583
-5.5608 7.9104 -4.4758 0.9583
-6.8752 6.7991 -4.4758 0.9583
-7.4531 6.1602 -4.4758 0.9583
-8.8158 3.9722 -4.4758 0.9583
-1.6165 0.4043 -0.7713 0.9927
-1.6521 0.2598 -0.7741 0.9927
-1.6738 0.1120 -0.7765 0.9926
-1.6716 -0.0373 -0.7739 0.9927
-1.6675 -0.1865 -0.7767 0.9926
-1.5257 -0.6072 -0.7601 0.9928
-6.3420 -6.8569 -4.3234 0.9597
-5.7065 -7.3941 -4.3234 0.9597
-4.3051 -8.2888 -4.3234 0.9597
5.8698 -7.2652 -4.3234 0.9597
6.4932 -6.7139 -4.3234 0.9597
7.0650 -6.1093 -4.3234 0.9597
8.3182 -4.9269 -4.4751 0.9583
9.0614 -3.3745 -4.4758 0.9583
9.5162 -1.7144 -4.4758 0.9583
7.4057 5.3303 -4.4758 0.9602
6.9019 5.9683 -4.4758 0.9602
6.3433 6.5589 -4.4758 0.9602
5.7344 7.0975 -4.4758 0.9602
3.6555 8.3603 -4.4758 0.9602
2.8969 8.6525 -4.4758 0.9602
2.1153 8.8760 -4.4758 0.9602
1.3169 9.0290 -4.4758 0.9602
0.5080 9.1104 -4.4758 0.9602
-1.9170 8.9209 -4.4758 0.9602
-5.5748 7.2235 -4.4758 0.9602
-6.1956 6.6986 -4.4758 0.9602
-6.7672 6.1206 -4.4758 0.9602
-7.2851 5.4940 -4.4758 0.9602
-7.7452 4.8238 -4.4758 0.9602
-8.1438 4.1153 -4.4758 0.9602
-1.3059 0.5197 -0.6895 0.9938
-1.3536 0.0302 -0.6641 0.9940
-1.3257 -0.2085 -0.6583 0.9940
-1.3149 -0.3289 -0.6649 0.9940
-1.2865 -0.5797 -0.6922 0.9937
-7.9524 -4.4739 -4.4758 0.9602
-7.5226 -5.1640 -4.4758 0.9602
-5.6905 -6.7307 -4.3234 0.9615
-5.0688 -7.2105 -4.3234 0.9615
-3.7101 -7.9950 -4.3234 0.9615
-2.9837 -8.2934 -4.3234 0.9615
6.4035 -6.0564 -4.3234 0.9615
7.0789 -5.5901 -4.4245 0.9606
7.6358 -4.9951 -4.4758 0.9602
8.6842 -2.8003 -4.4758 0.9602
8.8990 -2.0163 -4.4758 0.9602
9.0431 -1.2162 -4.4758 0.9602
9.1155 -0.4065 -4.4758 0.9602
9.1155 0.4065 -4.4758 0.9602
9.0431 1.2162 -4.4758 0.9602
8.0501 4.2957 -4.4758 0.9602
7.6358 4.9951 -4.4758 0.9602
7.1609 5.6549 -4.4758 0.9602
6.6292 6.2698 -4.4758 0.9602
6.0448 6.8350 -4.4758 0.9602
4.7372 7.7985 -4.4758 0.9602
3.2794 8.5148 -4.4758 0.9602
2.5085 8.7729 -4.4758 0.9602
1.7178 8.9614 -4.4758 0.9602
0.9133 9.0787 -4.4758 0.9602
-3.0889 8.5858 -4.4758 0.9602
-5.2475 7.4647 -4.4758 0.9602
-5.8911 6.9680 -4.4758 0.9602
-7.5226 5.1640 -4.4758 0.9602
-1.2865 0.5797 -0.6922 0.9937
-1.3149 0.3289 -0.6649 0.9940
-1.3257 0.2085 -0.6583 0.9940
-1.3513 0.0905 -0.6643 0.9940
-1.3536 -0.0302 -0.6641 0.9940
-1.3047 -0.2652 -0.6531 0.9941
-1.3200 -0.3934 -0.6756 0.9939
-1.3059 -0.5198 -0.6895 0.9938
-8.1438 -4.1153 -4.4758 0.9602
-7.2852 -5.4940 -4.4758 0.9602
-6.7579 -6.1122 -4.4697 0.9602
-5.9847 -6.4705 -4.3234 0.9615
-4.7426 -7.4291 -4.3234 0.9615
3.5310 -8.0756 -4.3234 0.9615
4.2358 -7.7293 -4.3234 0.9615
5.5391 -6.8558 -4.3234 0.9615
6.6669 -5.7651 -4.3234 0.9615
7.8508 -4.6500 -4.4758 0.9602
9.0883 -0.8121 -4.4758 0.9602
8.3210 2.2794 -4.4758 0.9619
8.0851 3.0109 -4.4758 0.9619
7.7850 3.7186 -4.4758 0.9619
7.4232 4.3967 -4.4758 0.9619
7.0024 5.0400 -4.4758 0.9619
5.9978 6.2017 -4.4758 0.9619
5.4220 6.7109 -4.4758 0.9619
3.4564 7.9050 -4.4758 0.9619
2.0000 8.3925 -4.4758 0.9619
1.2451 8.5372 -4.4758 0.9619
-0.2883 8.6227 -4.4758 0.9619
-1.0546 8.5629 -4.4758 0.9619
-2.5561 8.2402 -4.4758 0.9619
-3.2794 7.9800 -4.4758 0.9619
-3.9767 7.6564 -4.4758 0.9619
-4.6423 7.2721 -4.4758 0.9619
-5.8582 6.3338 -4.4758 0.9619
-6.8884 5.1947 -4.4758 0.9619
-7.3234 4.5610 -4.4758 0.9619
-1.0665 0.5389 -0.6199 0.9946
-1.1070 0.4406 -0.6181 0.9946
-1.1266 0.3358 -0.6099 0.9947
-1.1332 0.2303 -0.5999 0.9948
-1.1739 -0.0786 -0.6103 0.9947
-7.5193 -4.2303 -4.4758 0.9619
-6.6501 -5.4964 -4.4758 0.9619
-3.5080 -7.5595 -4.3234 0.9631
-2.8212 -7.8417 -4.3234 0.9631
-2.1121 -8.0617 -4.3234 0.9631
-0.6492 -8.3085 -4.3234 0.9631
0.0928 -8.3333 -4.3234 0.9631
0.8342 -8.2919 -4.3234 0.9631
1.5689 -8.1848 -4.3234 0.9631
2.9952 -7.7769 -4.3234 0.9631
3.6755 -7.4795 -4.3234 0.9631
4.3267 -7.1226 -4.3234 0.9631
4.9434 -6.7093 -4.3234 0.9631
7.9430 -3.3681 -4.4758 0.9619
8.2112 -2.6478 -4.4758 0.9619
8.4143 -1.9064 -4.4758 0.9619
8.5506 -1.1500 -4.4758 0.9619
8.6190 -0.3843 -4.4758 0.9619
8.6190 0.3843 -4.4758 0.9619
8.4143 1.9064 -4.4758 0.9619
7.9430 3.3681 -4.4758 0.9619
7.2199 4.7231 -4.4758 0.9619
6.2681 5.9284 -4.4758 0.9619
4.4792 7.3737 -4.4758 0.9619
3.8051 7.7431 -4.4758 0.9619
0.8636 8.5842 -4.4758 0.9619
-0.6721 8.6013 -4.4758 0.9619
-1.4350 8.5074 -4.4758 0.9619
-2.1865 8.3459 -4.4758 0.9619
-2.9207 8.1182 -4.4758 0.9619
-3.6316 7.8260 -4.4758 0.9619
-4.3138 7.4717 -4.4758 0.9619
-4.9617 7.0581 -4.4758 0.9619
-6.6501 5.4964 -4.4758 0.9619
-7.5193 4.2303 -4.4758 0.9619
-1.0898 0.4910 -0.6201 0.9946
-1.1739 0.0786 -0.6103 0.9947
-1.1785 -0.0263 -0.6115 0.9947
-1.1649 -0.1303 -0.6081 0.9947
-1.1266 -0.3358 -0.6099 0.9947
-1.0665 -0.5389 -0.6199 0.9946
-7.3234 -4.5610 -4.4758 0.9619
-6.8884 -5.1947 -4.4758 0.9619
-5.0917 -6.5975 -4.3234 0.9631
-3.1678 -7.7083 -4.3234 0.9631
-1.7509 -8.1478 -4.3234 0.9631
-1.0187 -8.2713 -4.3234 0.9631
-0.2785 -8.3291 -4.3234 0.9631
0.4640 -8.3209 -4.3234 0.9631
1.2027 -8.2465 -4.3234 0.9631
1.9319 -8.1068 -4.3234 0.9631
3.3387 -7.6358 -4.3234 0.9631
4.0051 -7.3083 -4.3234 0.9631
7.0024 -5.0400 -4.4758 0.9619
7.4232 -4.3968 -4.4758 0.9619
2.0429 0.0000 -1.1189 0.9907
2.0036 0.3610 -1.1150 0.9908
1.9714 0.7342 -1.1522 0.9905
6.6326 4.7738 -4.4758 0.9634
5.1357 6.3565 -4.4758 0.9634
2.5944 7.7492 -4.4758 0.9634
1.1794 8.0864 -4.4758 0.9634
0.4550 8.1593 -4.4758 0.9634
-0.2731 8.1674 -4.4758 0.9634
-0.9989 8.1107 -4.4758 0.9634
-1.7168 7.9896 -4.4758 0.9634
-2.4211 7.8050 -4.4758 0.9634
-3.7666 7.2521 -4.4758 0.9634
-4.9928 6.4694 -4.4758 0.9634
-6.0607 5.4816 -4.4758 0.9634
-6.5246 4.9204 -4.4758 0.9634
-6.9366 4.3202 -4.4758 0.9634
-1.0000 0.2033 -0.5589 0.9954
-1.0293 0.1151 -0.5673 0.9953
-1.0376 -0.0695 -0.5696 0.9953
-1.0166 -0.1599 -0.5637 0.9953
-0.9847 -0.2463 -0.5559 0.9954
-0.9756 -0.3388 -0.5656 0.9953
-0.9472 -0.4268 -0.5690 0.9953
-0.9240 -0.5198 -0.5806 0.9952
-6.7373 -4.6249 -4.4758 0.9634
-6.2989 -5.2062 -4.4758 0.9634
-5.8105 -5.7461 -4.4758 0.9634
-3.3227 -7.1603 -4.3234 0.9646
-2.0005 -7.6360 -4.3234 0.9646
-0.6150 -7.8697 -4.3234 0.9646
0.0879 -7.8932 -4.3234 0.9646
2.1702 -7.5895 -4.3234 0.9646
4.0982 -6.7465 -4.3234 0.9646
5.9305 -5.6090 -4.4708 0.9635
6.4133 -5.0646 -4.4758 0.9634
2.0041 -0.4541 -1.1255 0.9907
2.0434 0.0911 -1.1203 0.9907
2.0041 0.4541 -1.1255 0.9907
1.9895 0.6415 -1.1449 0.9905
1.9407 0.8229 -1.1546 0.9904
7.2097 3.8472 -4.4758 0.9634
6.8386 4.4736 -4.4758 0.9634
5.9371 5.6153 -4.4758 0.9634
5.4138 6.1214 -4.4758 0.9634
4.8474 6.5790 -4.4758 0.9634
3.6041 7.3342 -4.4758 0.9634
2.9371 7.6259 -4.4758 0.9634
2.2467 7.8570 -4.4758 0.9634
0.0910 8.1714 -4.4758 0.9634
-0.6366 8.1471 -4.4758 0.9634
-1.3592 8.0581 -4.4758 0.9634
-2.0711 7.9051 -4.4758 0.9634
-2.7664 7.6894 -4.4758 0.9634
-4.0860 7.0771 -4.4758 0.9634
-4.6997 6.6853 -4.4758 0.9634
-5.8105 5.7462 -4.4758 0.9634
-6.2990 5.2062 -4.4758 0.9634
-6.7373 4.6249 -4.4758 0.9634
-0.9240 0.5198 -0.5806 0.9952
-0.9472 0.4268 -0.5690 0.9953
-0.9756 0.3388 -0.5656 0.9953
-0.9847 0.2463 -0.5559 0.9954
-1.0376 0.0695 -0.5696 0.9953
-1.0415 -0.0232 -0.5706 0.9953
-0.9825 -0.2928 -0.5615 0.9953
-0.9638 -0.3836 -0.5681 0.9953
-6.9366 -4.3202 -4.4758 0.9634
-6.5246 -4.9204 -4.4758 0.9634
-6.0607 -5.4816 -4.4758 0.9634
-5.5437 -5.9937 -4.4717 0.9634
-1.6584 -7.7175 -4.3234 0.9646
-0.9649 -7.8345 -4.3234 0.9646
2.5061 -7.4853 -4.3234 0.9646
3.1624 -7.2325 -4.3234 0.9646
3.7936 -6.9224 -4.3234 0.9646
4.3946 -6.5572 -4.3234 0.9646
6.1798 -5.3438 -4.4746 0.9634
6.6326 -4.7738 -4.4758 0.9634
7.0311 -4.1646 -4.4758 0.9634
7.3739 -3.5222 -4.4758 0.9634
2.0356 -0.1819 -1.1193 0.9907
1.8754 0.0000 -1.0828 0.9914
1.8700 0.1671 -1.0839 0.9914
1.8426 0.3320 -1.0810 0.9914
1.8267 0.5004 -1.0935 0.9913
1.7869 0.6655 -1.1009 0.9912
6.6701 3.9507 -4.4758 0.9648
6.2920 4.5287 -4.4758 0.9648
5.8639 5.0707 -4.4758 0.9648
5.3893 5.5725 -4.4758 0.9648
4.3159 6.4398 -4.4758 0.9648
3.7256 6.7984 -4.4758 0.9648
3.1057 7.1030 -4.4758 0.9648
1.1188 7.6711 -4.4758 0.9648
-0.2590 7.7480 -4.4758 0.9648
-0.9476 7.6942 -4.4758 0.9648
-2.9467 7.1704 -4.4758 0.9648
-3.5732 6.8797 -4.4758 0.9648
-4.7364 6.1372 -4.4758 0.9648
-0.8491 0.5288 -0.5776 0.9954
-0.8760 0.4427 -0.5667 0.9955
-0.9120 0.1854 -0.5373 0.9957
-0.9237 0.1033 -0.5366 0.9957
-0.9273 -0.0621 -0.5366 0.9957
-0.9030 -0.2259 -0.5374 0.9957
-0.8984 -0.3119 -0.5490 0.9956
-0.8858 -0.3991 -0.5609 0.9955
-5.9755 -4.9388 -4.4758 0.9648
-5.0020 -5.9163 -4.4730 0.9648
-4.3688 -6.2147 -4.3859 0.9655
-3.7442 -6.4851 -4.3234 0.9660
-2.5350 -7.0462 -4.3234 0.9660
-1.2455 -7.3840 -4.3234 0.9660
0.0834 -7.4879 -4.3234 0.9660
0.7495 -7.4507 -4.3234 0.9660
2.0587 -7.1998 -4.3234 0.9660
3.3026 -6.7207 -4.3234 0.9660
5.6322 -5.3269 -4.4758 0.9648
6.0840 -4.8045 -4.4758 0.9648
6.4875 -4.2439 -4.4758 0.9648
1.7564 -0.7448 -1.1014 0.9912
1.8108 -0.5839 -1.0985 0.9913
1.8316 -0.4150 -1.0843 0.9914
1.8592 0.2500 -1.0831 0.9914
1.8316 0.4150 -1.0843 0.9914
1.8108 0.5839 -1.0985 0.9913
1.7564 0.7448 -1.1014 0.9912
6.4875 4.2439 -4.4758 0.9648
5.6322 5.3269 -4.4758 0.9648
4.5985 6.2412 -4.4758 0.9648
0.0864 7.7518 -4.4758 0.9648
-1.2894 7.6443 -4.4758 0.9648
-2.6244 7.2946 -4.4758 0.9648
-4.4583 6.3421 -4.4758 0.9648
-5.5122 5.4511 -4.4758 0.9648
-0.9030 0.2259 -0.5374 0.9957
-0.9237 -0.1033 -0.5366 0.9957
-0.9120 -0.1854 -0.5373 0.9957
-0.8932 -0.3555 -0.5550 0.9956
-0.8491 -0.5288 -0.5776 0.9954
-6.1895 -4.6677 -4.4758 0.9648
-2.8464 -6.9263 -4.3234 0.9660
-1.5732 -7.3212 -4.3234 0.9660
-0.2502 -7.4842 -4.3234 0.9660
0.4169 -7.4767 -4.3234 0.9660
1.0807 -7.4100 -4.3234 0.9660
1.7359 -7.2844 -4.3234 0.9660
3.0000 -6.8612 -4.3234 0.9660
4.1690 -6.2205 -4.3234 0.9660
5.8639 -5.0708 -4.4758 0.9648
6.2920 -4.5287 -4.4758 0.9648
1.7194 -0.8213 -1.1001 0.9912
1.8267 -0.5004 -1.0935 0.9913
1.8426 -0.3320 -1.0810 0.9914
