ply
format ascii 1.0
element vertex 1356
property float32 x
property float32 y
property float32 z
property float32 I
end_header
-16.4519 10.2463 -1.8607 0.9251
-18.1172 -6.2910 -1.8412 0.9258
-17.2744 9.7185 -1.9029 0.9234
19.0720 0.0000 -2.2655 0.9261
14.2391 12.3130 -2.2361 0.9270
12.7831 13.2176 -2.1842 0.9286
10.8990 13.4899 -2.0601 0.9325
-14.4835 9.0204 -2.0268 0.9336
-15.7709 6.2767 -2.0163 0.9339
-16.2346 4.8384 -2.0123 0.9340
-16.5751 3.3690 -2.0091 0.9341
-16.7905 1.8783 -2.0069 0.9342
-16.8429 -1.1275 -2.0052 0.9343
-16.3918 -4.0999 -2.0071 0.9342
-15.9803 -5.5489 -2.0094 0.9341
17.2250 -3.9027 -2.0980 0.9313
17.5282 -2.3573 -2.1008 0.9312
18.9011 2.5420 -2.2654 0.9261
18.5874 4.2113 -2.2639 0.9261
14.7983 11.6861 -2.2399 0.9269
13.6522 12.9121 -2.2321 0.9271
11.5127 13.0176 -2.0643 0.9324
10.2654 13.9323 -2.0557 0.9327
-11.3612 11.2353 -1.8980 0.9377
-12.2702 10.1416 -1.8909 0.9379
-14.0453 9.6416 -2.0237 0.9337
-14.8494 8.3541 -2.0239 0.9337
-16.4204 4.1070 -2.0106 0.9341
-16.6985 2.6257 -2.0079 0.9342
-16.7771 -1.8768 -2.0053 0.9343
-15.5808 -6.2010 -1.9920 0.9347
17.3949 -3.1338 -2.0995 0.9313
18.7179 -1.6726 -2.2323 0.9271
15.7618 1.4085 -2.2422 0.9381
13.5359 8.0173 -2.2291 0.9384
12.7385 9.1686 -2.2238 0.9386
10.8485 11.2173 -2.2111 0.9389
9.3002 11.5110 -2.0968 0.9420
8.0095 11.9511 -2.0385 0.9435
-7.3194 11.4656 -1.9274 0.9465
-10.7144 9.6906 -2.0469 0.9433
-13.3344 5.3069 -2.0335 0.9437
-13.7306 4.0922 -2.0300 0.9438
-14.0219 2.8501 -2.0274 0.9438
-14.2836 0.3183 -2.0243 0.9439
-13.5185 -4.6941 -2.0276 0.9438
-13.0510 -5.8805 -2.0282 0.9438
-11.6141 -6.5340 -1.8881 0.9476
-11.0093 -7.5574 -1.8921 0.9475
13.4490 -5.7029 -2.0698 0.9427
13.9303 -4.4920 -2.0739 0.9426
15.6675 -2.1071 -2.2399 0.9381
15.8043 -0.7047 -2.2415 0.9381
15.8090 0.7049 -2.2422 0.9381
15.6816 2.1090 -2.2419 0.9381
15.4230 3.4944 -2.2407 0.9381
13.1504 8.6026 -2.2265 0.9385
12.3013 9.7142 -2.2209 0.9386
10.3044 11.6514 -2.2039 0.9391
8.5497 11.6037 -2.0422 0.9434
7.4550 12.2727 -2.0346 0.9436
-6.8148 11.8035 -1.9312 0.9464
-8.7333 10.3298 -1.9166 0.9468
-9.8267 9.7179 -1.9582 0.9457
-12.5478 7.0593 -2.0399 0.9435
-13.8895 3.4740 -2.0286 0.9438
-14.1276 2.2215 -2.0263 0.9439
-14.1970 -1.5882 -2.0241 0.9439
-14.0049 -2.8466 -2.0249 0.9439
-12.2950 -6.2129 -1.9519 0.9459
-10.6741 -8.0497 -1.8943 0.9474
13.1670 -6.2893 -2.0675 0.9428
13.7037 -5.1033 -2.0719 0.9426
14.1282 -3.8701 -2.0756 0.9425
13.4550 1.2023 -2.2254 0.9467
13.0163 3.5655 -2.2233 0.9468
10.8872 7.8361 -2.2098 0.9471
10.1231 8.7538 -2.2047 0.9472
7.2203 10.7734 -2.1365 0.9488
4.9017 11.2106 -2.0156 0.9516
3.8704 11.5603 -2.0083 0.9518
2.8156 11.8146 -2.0008 0.9520
-1.4617 11.8681 -1.9699 0.9527
-5.4295 10.4537 -1.9406 0.9534
-6.3166 9.8948 -1.9339 0.9535
-8.5318 9.2245 -2.0700 0.9503
-9.2925 8.4046 -2.0641 0.9505
-10.5831 6.5913 -2.0539 0.9507
-11.1050 5.6116 -2.0497 0.9508
-11.8857 3.5423 -2.0431 0.9510
-12.1399 2.4676 -2.0408 0.9510
-12.3014 1.3761 -2.0392 0.9511
-12.0090 -3.0037 -2.0393 0.9511
-11.7039 -4.0640 -2.0410 0.9510
-11.3089 -5.0956 -2.0434 0.9510
-9.5249 -6.5385 -1.9033 0.9542
-8.2513 -8.1598 -1.9117 0.9540
10.3998 -6.8032 -2.0473 0.9509
12.7734 -4.1189 -2.2110 0.9470
13.1504 -2.9795 -2.2213 0.9468
13.4953 0.6018 -2.2254 0.9467
12.8386 4.1399 -2.2223 0.9468
8.8306 9.9850 -2.1959 0.9474
7.8723 10.6843 -2.1863 0.9476
4.3896 11.3973 -2.0120 0.9517
-4.9673 10.7042 -1.9440 0.9533
-5.8796 10.1837 -1.9372 0.9534
-6.8342 9.7218 -1.9577 0.9530
-8.1030 9.5843 -2.0676 0.9504
-10.2907 7.0642 -2.0563 0.9507
-10.8547 6.1068 -2.0518 0.9508
-12.0243 3.0075 -2.0419 0.9510
-12.3676 -0.2756 -2.0379 0.9511
-12.1272 -2.4650 -2.0387 0.9511
-11.8678 -3.5370 -2.0401 0.9510
-11.5175 -4.5839 -2.0421 0.9510
-9.9850 -6.2187 -1.9379 0.9534
-9.2335 -6.9633 -1.9052 0.9542
-8.5962 -7.7748 -1.9094 0.9541
11.2510 -5.3741 -2.0541 0.9507
11.9268 -4.4416 -2.0966 0.9497
13.4481 -1.2017 -2.2243 0.9467
11.7720 0.0000 -2.2127 0.9532
11.5833 2.0868 -2.2123 0.9532
11.0138 4.1016 -2.2090 0.9533
10.5924 5.0596 -2.2064 0.9533
8.8328 7.6380 -2.1949 0.9536
8.0996 8.3749 -2.1899 0.9537
7.3038 9.0400 -2.1844 0.9538
6.4527 9.6281 -2.1786 0.9539
5.5432 10.1150 -2.1680 0.9541
1.5287 10.4813 -1.9909 0.9578
-0.3515 10.5140 -1.9773 0.9581
-2.1951 10.2150 -1.9639 0.9584
-5.0412 9.7060 -2.0557 0.9565
-5.9737 9.3577 -2.0867 0.9558
-7.5028 8.1120 -2.0769 0.9560
-9.3154 5.8017 -2.0628 0.9563
-9.7772 4.9406 -2.0590 0.9564
-10.4685 3.1200 -2.0532 0.9565
-10.8974 0.2429 -2.0488 0.9566
-10.7682 -1.6932 -2.0489 0.9566
-10.3097 -3.5799 -2.0513 0.9566
-9.0020 -6.1795 -2.0523 0.9565
-7.8546 -6.4920 -1.9154 0.9594
-6.6080 -7.8160 -1.9238 0.9592
7.8407 -7.4156 -2.0285 0.9570
8.4906 -6.7049 -2.0335 0.9569
9.0740 -5.9359 -2.0381 0.9568
9.5854 -5.1149 -2.0421 0.9567
10.7699 -4.5668 -2.1988 0.9535
11.4633 -2.5972 -2.2093 0.9533
11.6589 -1.5680 -2.2111 0.9532
11.7612 0.5244 -2.2128 0.9532
11.6667 1.5690 -2.2126 0.9532
10.8141 4.5856 -2.2078 0.9533
10.3493 5.5225 -2.2049 0.9534
9.1739 7.2445 -2.1972 0.9535
8.4745 8.0151 -2.1924 0.9536
6.0089 9.8920 -2.1755 0.9540
5.0186 10.2125 -2.1388 0.9547
1.0584 10.5211 -1.9875 0.9579
0.1174 10.5373 -1.9807 0.9580
-1.7408 10.3202 -1.9672 0.9583
-2.6435 10.0901 -1.9606 0.9584
-3.5194 9.7824 -1.9541 0.9586
-5.5481 9.6096 -2.0856 0.9558
-7.1435 8.4493 -2.0797 0.9560
-7.8467 7.7598 -2.0743 0.9561
-8.4859 7.0138 -2.0693 0.9562
-9.5557 5.3759 -2.0608 0.9564
-10.3254 3.5854 -2.0544 0.9565
-10.7759 1.6944 -2.0503 0.9566
-10.8777 0.7282 -2.0492 0.9566
-10.8963 -0.2428 -2.0486 0.9566
-10.6841 -2.1716 -2.0493 0.9566
-10.4547 -3.1158 -2.0505 0.9566
-10.1449 -4.0376 -2.0523 0.9565
-9.2898 -5.7858 -2.0571 0.9564
-8.2484 -6.2204 -1.9418 0.9588
-7.5652 -6.8423 -1.9173 0.9593
-6.9414 -7.5050 -1.9215 0.9592
8.1736 -7.0680 -2.0310 0.9570
8.7909 -6.3273 -2.0358 0.9569
11.3301 -3.1036 -2.2081 0.9533
11.5730 -2.0850 -2.2103 0.9533
11.7208 -1.0474 -2.2118 0.9532
10.2547 1.8475 -2.2025 0.9583
9.7521 3.6317 -2.1997 0.9583
9.3803 4.4806 -2.1974 0.9584
7.1789 7.4229 -2.1828 0.9587
6.4754 8.0147 -2.1780 0.9587
2.3385 9.8127 -2.1323 0.9596
-2.0848 9.7020 -2.0976 0.9602
-4.5757 8.8098 -2.0984 0.9602
-5.3273 8.3450 -2.0928 0.9603
-6.6892 7.2323 -2.0824 0.9605
-7.2901 6.5935 -2.0778 0.9606
-7.8320 5.9064 -2.0735 0.9607
-8.3114 5.1764 -2.0697 0.9608
-8.7251 4.4090 -2.0664 0.9608
-9.0703 3.6099 -2.0635 0.9609
-9.5471 1.9405 -2.0593 0.9610
-9.6758 1.0824 -2.0580 0.9610
-9.7095 -0.6500 -2.0570 0.9610
-8.5093 -4.7872 -2.0638 0.9609
-6.4765 -6.4048 -1.9254 0.9634
-5.8929 -6.9701 -1.9293 0.9634
-5.2609 -7.4837 -1.9337 0.9633
6.3234 -7.1500 -2.0176 0.9617
7.5252 -5.9426 -2.0269 0.9616
8.2274 -5.3821 -2.0782 0.9606
9.1347 -4.8744 -2.1886 0.9586
9.5594 -4.0536 -2.1948 0.9584
9.8950 -3.1907 -2.1977 0.9584
10.1501 -2.2997 -2.1999 0.9583
10.4098 -0.4642 -2.2026 0.9583
10.1600 2.3020 -2.2021 0.9583
8.6816 5.6792 -2.1929 0.9585
5.3298 8.7741 -2.1700 0.9589
4.5158 9.1895 -2.1643 0.9590
3.6696 9.5278 -2.1582 0.9591
2.7913 9.7617 -2.1461 0.9593
0.1082 9.7145 -2.0536 0.9611
-0.7588 9.7109 -2.0590 0.9610
-1.6372 9.7058 -2.0806 0.9606
-2.5262 9.6422 -2.1070 0.9601
-3.3717 9.3718 -2.1053 0.9601
-4.1845 9.0174 -2.1013 0.9602
-6.9968 6.9192 -2.0800 0.9606
-7.5687 6.2557 -2.0756 0.9607
-8.9064 4.0130 -2.0649 0.9608
-9.2165 3.2003 -2.0623 0.9609
-9.4551 2.3649 -2.0602 0.9609
-9.6207 1.5128 -2.0586 0.9610
-9.7122 0.6502 -2.0576 0.9610
-9.7291 -0.2168 -2.0570 0.9610
-9.3338 -2.7818 -2.0587 0.9610
-9.0564 -3.6044 -2.0604 0.9609
-8.7087 -4.4007 -2.0625 0.9609
-8.2932 -5.1650 -2.0652 0.9608
-7.8040 -5.8853 -2.0661 0.9608
-6.8760 -6.2190 -1.9597 0.9628
-6.1910 -6.6936 -1.9273 0.9634
-4.9282 -7.7198 -1.9360 0.9632
-4.2321 -8.1481 -1.9408 0.9632
5.9911 -7.4153 -2.0151 0.9618
7.2453 -6.2652 -2.0247 0.9616
8.8355 -5.2333 -2.1707 0.9589
10.0328 -2.7483 -2.1989 0.9584
9.3033 0.8313 -2.1952 0.9623
9.0026 2.4661 -2.1938 0.9624
8.7412 3.2553 -2.1922 0.9624
8.0086 4.7435 -2.1876 0.9625
7.0196 6.0701 -2.1810 0.9626
6.4398 6.6588 -2.1771 0.9627
2.9077 8.6848 -2.1525 0.9631
2.1176 8.8858 -2.1469 0.9632
0.5058 9.0713 -2.1353 0.9634
-0.3028 9.0554 -2.1294 0.9635
-5.4368 7.0446 -2.0914 0.9641
-6.0291 6.5186 -2.0869 0.9642
-6.5722 5.9442 -2.0827 0.9642
-7.0622 5.3258 -2.0788 0.9643
-7.4958 4.6684 -2.0754 0.9644
-8.4312 2.5128 -2.0677 0.9645
-8.6145 1.7510 -2.0660 0.9645
-8.7620 -0.5865 -2.0639 0.9646
-8.5234 -2.1319 -2.0649 0.9645
-8.0218 -3.6145 -2.0679 0.9645
-6.8077 -5.6267 -2.0757 0.9644
-6.2679 -6.1984 -2.0718 0.9644
-4.7417 -6.7451 -1.9378 0.9667
-4.1315 -7.1560 -1.9420 0.9666
-2.8106 -7.8122 -1.9513 0.9665
-0.6519 -8.3423 -1.9666 0.9662
1.5883 -8.2860 -1.9829 0.9659
2.3258 -8.1339 -1.9883 0.9658
5.6750 -6.4168 -2.0133 0.9654
7.0792 -5.5904 -2.1200 0.9636
8.2018 -4.3766 -2.1849 0.9625
8.8701 -2.8603 -2.1904 0.9624
9.2515 -1.2442 -2.1939 0.9624
9.3295 -0.4160 -2.1948 0.9624
9.3311 0.4161 -2.1952 0.9623
7.2891 5.7561 -2.1828 0.9626
5.4782 7.4351 -2.1705 0.9628
4.7840 7.8756 -2.1657 0.9628
4.0545 8.2507 -2.1606 0.9629
3.2959 8.5575 -2.1552 0.9630
2.5146 8.7943 -2.1497 0.9631
1.7174 8.9594 -2.1440 0.9632
0.1011 9.0724 -2.1324 0.9634
-0.7049 9.0205 -2.1265 0.9635
-2.2806 8.7052 -2.1150 0.9637
-3.7682 8.1203 -2.1039 0.9639
-5.1234 7.2881 -2.0938 0.9641
-5.7389 6.7880 -2.0891 0.9641
-8.0342 3.6200 -2.0710 0.9644
-8.6812 1.3651 -2.0653 0.9645
-8.7796 -0.1956 -2.0639 0.9646
-8.7274 -0.9763 -2.0639 0.9646
-8.6081 -1.7497 -2.0645 0.9645
-8.1713 -3.2521 -2.0669 0.9645
-7.8568 -3.9702 -2.0689 0.9645
-7.4809 -4.6592 -2.0713 0.9644
-5.7483 -6.2150 -1.9896 0.9658
-5.0322 -6.5205 -1.9358 0.9667
-4.4413 -6.9571 -1.9398 0.9667
-2.4629 -7.9396 -1.9537 0.9664
-0.2800 -8.3745 -1.9693 0.9662
1.2159 -8.3371 -1.9801 0.9660
2.6894 -8.0330 -1.9909 0.9658
3.4027 -7.7823 -1.9962 0.9657
5.9617 -6.1643 -2.0155 0.9654
6.5767 -5.6871 -2.0434 0.9649
7.5057 -5.4022 -2.1734 0.9627
7.9925 -4.7340 -2.1832 0.9625
8.3946 -4.0097 -2.1864 0.9625
8.7291 -3.2508 -2.1892 0.9624
9.1840 -1.6546 -2.1932 0.9624
8.4200 0.7524 -2.1888 0.9657
8.3181 1.4986 -2.1884 0.9657
7.6122 3.6360 -2.1842 0.9657
7.2506 4.2946 -2.1819 0.9658
5.2636 6.5148 -2.1685 0.9660
2.6365 7.8748 -2.1502 0.9663
1.9206 8.0590 -2.1451 0.9663
1.1927 8.1780 -2.1398 0.9664
0.4590 8.2314 -2.1346 0.9665
-0.2748 8.2191 -2.1292 0.9666
-1.7192 8.0003 -2.1187 0.9668
-2.4185 7.7965 -2.1136 0.9668
-3.7450 7.2104 -2.1037 0.9670
-4.3623 6.8333 -2.0991 0.9671
-5.4824 5.9275 -2.0905 0.9672
-7.1609 3.6186 -2.0774 0.9674
-7.4461 2.9635 -2.0750 0.9674
-7.6731 2.2868 -2.0730 0.9675
-7.8404 1.5936 -2.0715 0.9675
-7.9920 0.1781 -2.0698 0.9675
-7.8971 -1.2418 -2.0698 0.9675
-7.7579 -1.9404 -2.0705 0.9675
-6.6155 -4.5413 -2.0776 0.9674
-6.1934 -5.1190 -2.0804 0.9673
-5.1882 -6.1367 -2.0807 0.9673
-4.3730 -6.2207 -1.9688 0.9691
-3.7560 -6.5056 -1.9450 0.9694
-2.5541 -7.0991 -1.9534 0.9693
4.0126 -6.6057 -2.0012 0.9686
6.0647 -5.7360 -2.1614 0.9661
7.0341 -4.6015 -2.1763 0.9659
7.4264 -3.9628 -2.1794 0.9658
8.0296 -2.5892 -2.1844 0.9657
8.2351 -1.8658 -2.1862 0.9657
8.3736 -1.1261 -2.1876 0.9657
8.4438 -0.3765 -2.1884 0.9657
8.2416 1.8673 -2.1880 0.9657
7.7701 3.2948 -2.1852 0.9657
7.4389 3.9695 -2.1831 0.9658
6.6005 5.2124 -2.1776 0.9658
6.1010 5.7703 -2.1743 0.9659
4.9634 6.7363 -2.1665 0.9660
4.3354 7.1370 -2.1621 0.9661
3.6751 7.4785 -2.1575 0.9662
2.2804 7.9750 -2.1476 0.9663
0.0917 8.2334 -2.1319 0.9666
-0.6399 8.1884 -2.1266 0.9666
-1.3627 8.0789 -2.1213 0.9667
-2.0713 7.9061 -2.1161 0.9668
-2.7601 7.6719 -2.1110 0.9669
-3.4240 7.3784 -2.1061 0.9669
-4.6574 6.6252 -2.0968 0.9671
-6.2069 5.1301 -2.0849 0.9673
-7.3106 3.2940 -2.0761 0.9674
-7.5669 2.6275 -2.0740 0.9674
-7.7643 1.9420 -2.0722 0.9675
-7.9013 1.2424 -2.0709 0.9675
-7.9772 0.5340 -2.0701 0.9675
-7.9914 -0.1781 -2.0696 0.9675
-7.1499 -3.6130 -2.0742 0.9674
-6.8071 -4.2395 -2.0764 0.9674
-5.9636 -5.3937 -2.0819 0.9673
-5.4618 -5.9053 -2.0827 0.9673
-3.4661 -6.6734 -1.9470 0.9694
-2.2378 -7.2141 -1.9557 0.9693
-0.9277 -7.5324 -1.9650 0.9691
0.4246 -7.6151 -1.9747 0.9690
1.1035 -7.5659 -1.9797 0.9689
1.7769 -7.4562 -1.9846 0.9688
2.4394 -7.2863 -1.9895 0.9688
3.7102 -6.7702 -1.9989 0.9686
4.3077 -6.4275 -2.0034 0.9685
5.6276 -5.8189 -2.0959 0.9671
6.3310 -5.4746 -2.1671 0.9660
6.8167 -4.9064 -2.1746 0.9659
7.6004 -3.6304 -2.1809 0.9658
8.4173 -0.7522 -2.1881 0.9657
7.7123 -0.0000 -2.1833 0.9684
7.5892 1.3673 -2.1830 0.9685
7.4346 2.0366 -2.1822 0.9685
7.2197 2.6886 -2.1810 0.9685
6.9463 3.3180 -2.1793 0.9685
6.6170 3.9193 -2.1772 0.9685
6.2347 4.4875 -2.1746 0.9686
5.3253 5.5063 -2.1685 0.9687
4.8061 5.9486 -2.1650 0.9687
4.2501 6.3415 -2.1611 0.9688
3.6618 6.6819 -2.1570 0.9688
3.0464 6.9673 -2.1527 0.9689
2.4091 7.1957 -2.1482 0.9689
-0.2513 7.5166 -2.1291 0.9692
-0.9172 7.4474 -2.1243 0.9693
-1.5729 7.3197 -2.1195 0.9694
-2.2132 7.1347 -2.1147 0.9694
-3.4285 6.6010 -2.1057 0.9696
-5.0217 5.4294 -2.0936 0.9697
-5.8859 4.4387 -2.0870 0.9698
-6.5626 3.3162 -2.0815 0.9699
-7.0332 2.0961 -2.0776 0.9700
-7.3265 0.1633 -2.0746 0.9700
-7.3113 -0.4894 -2.0744 0.9700
-7.2395 -1.1384 -2.0746 0.9700
-7.1117 -1.7787 -2.0753 0.9700
-6.4023 -3.6019 -2.0796 0.9699
-6.0627 -4.1618 -2.0818 0.9699
-4.7676 -5.6391 -2.0905 0.9698
-3.5856 -6.2105 -2.0301 0.9706
-1.1537 -6.8399 -1.9637 0.9716
0.0776 -6.9673 -1.9725 0.9714
0.6990 -6.9486 -1.9770 0.9714
1.3177 -6.8744 -1.9815 0.9713
1.9287 -6.7451 -1.9860 0.9713
2.5270 -6.5612 -1.9904 0.9712
3.6790 -6.0564 -2.0061 0.9710
4.3980 -5.9690 -2.0989 0.9696
5.5571 -5.2559 -2.1653 0.9687
6.4208 -4.2003 -2.1721 0.9686
7.3272 -2.3627 -2.1795 0.9685
7.6401 -1.0275 -2.1823 0.9685
7.6434 1.0279 -2.1833 0.9684
7.5195 1.7037 -2.1827 0.9685
6.7885 3.6225 -2.1783 0.9685
6.4323 4.2078 -2.1760 0.9686
5.5695 5.2676 -2.1702 0.9686
5.0706 5.7334 -2.1668 0.9687
3.9596 6.5185 -2.1591 0.9688
3.3572 6.8316 -2.1549 0.9689
2.7302 7.0888 -2.1505 0.9689
1.4239 7.4283 -2.1412 0.9690
0.7554 7.5087 -2.1364 0.9691
-0.5852 7.4894 -2.1267 0.9693
-5.2541 5.1958 -2.0919 0.9697
-6.0734 4.1692 -2.0855 0.9698
-6.9357 2.4083 -2.0784 0.9699
-7.1170 1.7801 -2.0768 0.9700
-7.2430 1.1389 -2.0756 0.9700
-7.3128 0.4895 -2.0748 0.9700
-7.3260 -0.1632 -2.0745 0.9700
-7.2825 -0.8147 -2.0745 0.9700
-7.0269 -2.0943 -2.0757 0.9700
-6.8167 -2.7130 -2.0770 0.9700
-6.5533 -3.3115 -2.0786 0.9699
-6.2386 -3.8854 -2.0806 0.9699
-5.8748 -4.4304 -2.0830 0.9699
-5.4643 -4.9422 -2.0858 0.9698
-5.0101 -5.4169 -2.0888 0.9698
-4.5119 -5.8463 -2.0906 0.9698
-3.9581 -6.2003 -2.0824 0.9699
-2.6226 -6.3818 -1.9533 0.9717
-1.4557 -6.7743 -1.9615 0.9716
-0.8489 -6.8921 -1.9659 0.9715
2.8198 -6.4491 -1.9926 0.9712
4.7770 -5.9126 -2.1518 0.9689
5.3090 -5.4895 -2.1619 0.9688
6.6060 -3.9127 -2.1735 0.9686
6.9365 -3.3133 -2.1762 0.9685
7.0558 0.6305 -2.1788 0.9708
6.9706 1.2558 -2.1785 0.9708
6.8288 1.8706 -2.1778 0.9708
6.3810 3.0479 -2.1751 0.9708
5.7283 4.1230 -2.1708 0.9709
5.3321 4.6108 -2.1682 0.9709
3.9068 5.8294 -2.1584 0.9711
3.3666 6.1432 -2.1547 0.9711
2.8013 6.4067 -2.1507 0.9712
1.6146 6.7752 -2.1423 0.9713
1.0031 6.8779 -2.1379 0.9713
0.3862 6.9255 -2.1334 0.9714
-0.8443 6.8554 -2.1245 0.9715
-1.4481 6.7390 -2.1201 0.9716
-2.0380 6.5699 -2.1157 0.9716
-5.4255 4.0916 -2.0901 0.9720
-6.6276 1.3471 -2.0802 0.9721
-6.7566 0.1506 -2.0787 0.9721
-6.6764 -1.0498 -2.0787 0.9721
-6.3892 -2.2186 -2.0803 0.9721
-5.9032 -3.3211 -2.0833 0.9721
-5.5896 -3.8371 -2.0854 0.9720
-4.3942 -5.1974 -2.0934 0.9719
-3.9202 -5.5766 -2.0966 0.9719
-2.2350 -6.2123 -2.0307 0.9727
-1.6303 -6.2227 -1.9786 0.9734
-1.0624 -6.2983 -1.9646 0.9736
1.7744 -6.2054 -1.9851 0.9734
4.1528 -5.6362 -2.1533 0.9711
5.5254 -4.3634 -2.1655 0.9710
5.8998 -3.8595 -2.1685 0.9709
6.5053 -2.7585 -2.1733 0.9709
6.9021 -1.5638 -2.1767 0.9708
7.0769 0.3156 -2.1789 0.9708
6.9067 1.5648 -2.1782 0.9708
6.2362 3.3278 -2.1741 0.9709
5.5357 4.3715 -2.1695 0.9709
5.1180 4.8406 -2.1667 0.9709
3.0868 6.2814 -2.1527 0.9711
2.5107 6.5189 -2.1486 0.9712
1.3099 6.8334 -2.1401 0.9713
0.0772 6.9286 -2.1312 0.9714
-0.5387 6.8935 -2.1267 0.9715
-1.7451 6.6609 -2.1179 0.9716
-2.3263 6.4661 -2.1136 0.9717
-3.4226 5.9281 -2.1054 0.9718
-4.4039 5.2089 -2.0980 0.9719
-4.8423 4.7886 -2.0947 0.9719
-5.5988 3.8433 -2.0888 0.9720
-5.9115 3.3258 -2.0863 0.9720
-6.1777 2.7835 -2.0841 0.9720
-6.5629 1.6415 -2.0808 0.9721
-6.6794 1.0503 -2.0797 0.9721
-6.7562 -0.1506 -2.0786 0.9721
-6.7161 -0.7513 -2.0786 0.9721
-6.0427 -3.0535 -2.0824 0.9721
-5.7521 -3.5824 -2.0843 0.9720
-5.4161 -4.0845 -2.0865 0.9720
-5.0372 -4.5559 -2.0890 0.9720
-4.6180 -4.9929 -2.0919 0.9719
-4.1614 -5.3921 -2.0950 0.9719
-3.1424 -6.0502 -2.0970 0.9719
-2.5503 -6.2057 -2.0636 0.9723
-1.9288 -6.2179 -2.0024 0.9731
-1.3406 -6.2384 -1.9626 0.9737
-0.7816 -6.3458 -1.9666 0.9736
-0.2141 -6.4035 -1.9707 0.9735
0.9285 -6.3666 -1.9790 0.9734
1.4946 -6.2718 -1.9831 0.9734
2.0661 -6.1712 -2.0017 0.9731
3.3234 -6.0644 -2.1270 0.9715
4.4071 -5.4548 -2.1569 0.9711
5.3217 -4.6018 -2.1639 0.9710
5.7183 -4.1158 -2.1670 0.9709
6.0697 -3.5951 -2.1698 0.9709
6.3727 -3.0440 -2.1722 0.9709
6.8234 -1.8691 -2.1760 0.9708
6.9668 -1.2551 -2.1773 0.9708
7.0539 -0.6303 -2.1783 0.9708
6.5428 0.0000 -2.1748 0.9728
6.5170 0.5824 -2.1749 0.9728
6.1258 2.2813 -2.1729 0.9728
5.8946 2.8156 -2.1714 0.9728
5.6159 3.3263 -2.1696 0.9729
5.2924 3.8092 -2.1675 0.9729
4.5223 4.6761 -2.1623 0.9730
3.6111 5.3881 -2.1561 0.9730
2.5899 5.9233 -2.1489 0.9731
2.0488 6.1194 -2.1451 0.9732
0.9279 6.3619 -2.1371 0.9733
-0.2140 6.4009 -2.1289 0.9734
-1.3403 6.2373 -2.1206 0.9735
-2.4159 5.8787 -2.1127 0.9736
-2.9243 5.6303 -2.1089 0.9736
-5.0269 3.7910 -2.0929 0.9738
-5.3381 3.3246 -2.0904 0.9738
-5.6070 2.8333 -2.0882 0.9739
-5.8317 2.3210 -2.0864 0.9739
-6.0107 1.7914 -2.0848 0.9739
-6.1428 1.2486 -2.0836 0.9739
-6.2498 -0.4184 -2.0821 0.9739
-6.0788 -1.5204 -2.0829 0.9739
-5.9219 -2.0563 -2.0838 0.9739
-5.7187 -2.5767 -2.0850 0.9739
-4.8479 -4.0069 -2.0906 0.9738
-4.4773 -4.4277 -2.0931 0.9738
-4.0708 -4.8150 -2.0959 0.9738
-3.6313 -5.1657 -2.0989 0.9737
-2.1445 -5.9608 -2.1057 0.9737
-0.4851 -6.2075 -2.0697 0.9741
1.7611 -6.1588 -2.1293 0.9734
2.3097 -5.9970 -2.1362 0.9733
2.8435 -5.7864 -2.1431 0.9732
3.8420 -5.2144 -2.1530 0.9731
5.1059 -4.0321 -2.1626 0.9729
5.7535 -3.0702 -2.1678 0.9729
6.0097 -2.5483 -2.1698 0.9729
6.2177 -2.0050 -2.1716 0.9728
6.3756 -1.4445 -2.1730 0.9728
6.5365 0.2915 -2.1749 0.9728
6.4843 0.8720 -2.1748 0.9728
6.2230 2.0067 -2.1734 0.9728
5.7610 3.0742 -2.1706 0.9729
4.7292 4.4729 -2.1638 0.9729
4.3066 4.8696 -2.1609 0.9730
3.3648 5.5392 -2.1544 0.9731
2.8537 5.8071 -2.1508 0.9731
2.3214 6.0275 -2.1470 0.9731
1.2115 6.3203 -2.1391 0.9732
0.6429 6.3908 -2.1351 0.9733
0.0714 6.4103 -2.1309 0.9733
-0.4984 6.3788 -2.1268 0.9734
-2.1536 5.9860 -2.1146 0.9735
-3.1694 5.4896 -2.1071 0.9736
-4.0792 4.8249 -2.1002 0.9737
-4.4858 4.4361 -2.0971 0.9738
-4.8561 4.0137 -2.0942 0.9738
-5.9270 2.0581 -2.0856 0.9739
-6.0827 1.5214 -2.0842 0.9739
-6.1909 0.9735 -2.0832 0.9739
-6.1395 -1.2479 -2.0825 0.9739
-5.8260 -2.3187 -2.0843 0.9739
-5.6002 -2.8299 -2.0857 0.9739
-5.3306 -3.3199 -2.0875 0.9739
-4.2784 -4.6257 -2.0945 0.9738
-3.4002 -5.3263 -2.1005 0.9737
-2.9173 -5.6168 -2.1039 0.9737
-0.7643 -6.2055 -2.0783 0.9740
0.3460 -6.2049 -2.0658 0.9741
0.9036 -6.1958 -2.0813 0.9740
1.4711 -6.1731 -2.1094 0.9736
2.0372 -6.0848 -2.1330 0.9733
2.5786 -5.8975 -2.1396 0.9732
3.1038 -5.6638 -2.1468 0.9731
4.0737 -5.0421 -2.1547 0.9730
5.2838 -3.8031 -2.1640 0.9729
5.6080 -3.3216 -2.1666 0.9729
5.8875 -2.8122 -2.1688 0.9729
6.3030 -1.7266 -2.1723 0.9728
6.4352 -1.1594 -2.1735 0.9728
5.9754 1.0765 -2.1712 0.9745
5.8541 1.6036 -2.1706 0.9745
5.4712 2.6134 -2.1683 0.9746
5.2129 3.0876 -2.1666 0.9746
4.5739 3.9552 -2.1624 0.9746
4.1988 4.3415 -2.1599 0.9747
3.7908 4.6919 -2.1571 0.9747
2.8904 5.2744 -2.1508 0.9748
1.9033 5.6849 -2.1439 0.9749
1.3874 5.8217 -2.1402 0.9749
0.8622 5.9117 -2.1364 0.9749
-0.7264 5.8975 -2.1249 0.9751
-2.7199 5.2367 -2.1102 0.9752
-3.5940 4.6569 -2.1036 0.9753
-3.9885 4.3124 -2.1006 0.9754
-4.3507 3.9350 -2.0978 0.9754
-5.2186 2.6371 -2.0910 0.9755
-5.7182 1.1623 -2.0867 0.9755
-5.8301 0.1299 -2.0854 0.9755
-5.6587 -1.4154 -2.0859 0.9755
-5.0922 -2.8648 -2.0894 0.9755
-4.8210 -3.3094 -2.0911 0.9755
-3.3786 -4.8062 -2.1009 0.9754
-1.4983 -5.7188 -2.1141 0.9752
-0.4616 -5.9071 -2.1188 0.9751
0.0661 -5.9340 -2.1222 0.9751
0.5951 -5.9158 -2.1262 0.9751
1.1218 -5.8524 -2.1310 0.9750
1.6423 -5.7437 -2.1363 0.9749
2.1513 -5.5858 -2.1406 0.9749
3.5682 -4.8428 -2.1511 0.9748
3.9910 -4.5127 -2.1543 0.9747
4.3829 -4.1453 -2.1574 0.9747
5.3409 -2.8500 -2.1649 0.9746
5.9173 -1.3407 -2.1697 0.9746
6.0158 -0.8091 -2.1707 0.9745
6.0663 0.2705 -2.1715 0.9745
5.9207 1.3415 -2.1710 0.9745
5.7757 1.8624 -2.1701 0.9746
5.3474 2.8535 -2.1675 0.9746
5.0680 3.3153 -2.1657 0.9746
4.3907 4.1527 -2.1612 0.9747
3.5756 4.8528 -2.1556 0.9747
1.1257 5.8726 -2.1383 0.9749
0.5975 5.9389 -2.1345 0.9750
-0.9875 5.8541 -2.1230 0.9751
-2.4860 5.3571 -2.1120 0.9752
-3.3856 4.8160 -2.1052 0.9753
-4.1738 4.1276 -2.0992 0.9754
-5.0983 2.8683 -2.0919 0.9755
-5.3286 2.4010 -2.0901 0.9755
-5.6622 1.4162 -2.0872 0.9755
-5.8191 0.3895 -2.0856 0.9755
-5.7951 -0.6483 -2.0853 0.9755
-5.7154 -1.1617 -2.0857 0.9755
-5.5911 -1.6663 -2.0863 0.9755
-5.4232 -2.1584 -2.0873 0.9755
-5.2128 -2.6341 -2.0886 0.9755
-4.9615 -3.0900 -2.0902 0.9755
-3.9812 -4.3045 -2.0968 0.9754
-3.5869 -4.6477 -2.0995 0.9754
-3.1634 -4.9554 -2.1024 0.9753
-2.7138 -5.2251 -2.1055 0.9753
-1.7500 -5.6416 -2.1123 0.9752
-1.2428 -5.7833 -2.1153 0.9752
-0.7238 -5.8768 -2.1175 0.9752
-0.1981 -5.9262 -2.1204 0.9751
0.3307 -5.9305 -2.1241 0.9751
1.8987 -5.6712 -2.1387 0.9749
2.4001 -5.4892 -2.1424 0.9749
2.8840 -5.2626 -2.1460 0.9748
3.7832 -4.6826 -2.1528 0.9748
4.9056 -3.5308 -2.1614 0.9747
5.2061 -3.0835 -2.1638 0.9746
5.4651 -2.6105 -2.1659 0.9746
5.8501 -1.6025 -2.1691 0.9746
6.0469 -0.5404 -2.1710 0.9745
5.5684 1.0032 -2.1683 0.9761
5.4555 1.4944 -2.1677 0.9761
5.2986 1.9732 -2.1667 0.9761
4.5792 3.2959 -2.1621 0.9761
4.2636 3.6868 -2.1600 0.9761
3.5342 4.3743 -2.1551 0.9762
3.1267 4.6654 -2.1522 0.9762
2.6953 4.9183 -2.1492 0.9763
2.2435 5.1311 -2.1461 0.9763
1.7752 5.3022 -2.1428 0.9763
-0.1856 5.5517 -2.1287 0.9765
-1.1631 5.4126 -2.1216 0.9766
-1.6375 5.2789 -2.1181 0.9766
-2.5395 4.8894 -2.1114 0.9767
-2.9602 4.6370 -2.1082 0.9767
-3.3564 4.3490 -2.1052 0.9767
-3.7251 4.0276 -2.1024 0.9768
-4.8755 2.4637 -2.0934 0.9769
-5.2276 1.5580 -2.0904 0.9769
-5.4477 0.1214 -2.0882 0.9769
-5.3830 -0.8464 -2.0882 0.9769
-5.2875 -1.3225 -2.0887 0.9769
-3.5380 -4.1848 -2.1000 0.9768
-0.4314 -5.5202 -2.1219 0.9766
0.5561 -5.5278 -2.1290 0.9765
1.5325 -5.3595 -2.1362 0.9764
2.0067 -5.2104 -2.1397 0.9764
2.4664 -5.0191 -2.1431 0.9763
3.3273 -4.5158 -2.1495 0.9763
3.7212 -4.2076 -2.1525 0.9762
4.4192 -3.4898 -2.1579 0.9762
4.7174 -3.0860 -2.1602 0.9761
4.9781 -2.6564 -2.1623 0.9761
5.5146 -1.2494 -2.1668 0.9761
5.6062 -0.7540 -2.1677 0.9761
5.6531 0.2521 -2.1685 0.9761
5.6080 0.7542 -2.1684 0.9761
4.9838 2.6594 -2.1648 0.9761
4.7236 3.0900 -2.1631 0.9761
4.0929 3.8710 -2.1589 0.9762
3.7278 4.2151 -2.1564 0.9762
3.3337 4.5245 -2.1537 0.9762
2.9138 4.7967 -2.1508 0.9762
2.4717 5.0298 -2.1477 0.9763
1.5360 5.3718 -2.1411 0.9764
0.5574 5.5408 -2.1341 0.9764
0.0619 5.5591 -2.1305 0.9765
-0.4324 5.5332 -2.1269 0.9765
-1.4019 5.3510 -2.1198 0.9766
-2.3210 5.0015 -2.1130 0.9767
-2.7527 4.7678 -2.1098 0.9767
-3.1615 4.4973 -2.1067 0.9767
-3.5443 4.1923 -2.1038 0.9768
-4.2210 3.4888 -2.0986 0.9768
-4.5099 3.0959 -2.0963 0.9768
-4.7630 2.6796 -2.0943 0.9769
-5.4474 -0.1214 -2.0881 0.9769
-5.3404 -1.0855 -2.0884 0.9769
-5.0671 -2.0167 -2.0900 0.9769
-4.8704 -2.4611 -2.0912 0.9769
-4.6353 -2.8869 -2.0927 0.9769
-4.3637 -3.2908 -2.0945 0.9769
-4.0574 -3.6697 -2.0965 0.9768
-3.7188 -4.0207 -2.0988 0.9768
-3.3502 -4.3409 -2.1013 0.9768
-2.9543 -4.6279 -2.1041 0.9768
-2.0930 -5.0929 -2.1101 0.9767
-0.1852 -5.5386 -2.1237 0.9765
0.3090 -5.5424 -2.1272 0.9765
0.8025 -5.5022 -2.1308 0.9765
1.2912 -5.4180 -2.1344 0.9764
1.7712 -5.2903 -2.1379 0.9764
2.2386 -5.1199 -2.1414 0.9763
2.6897 -4.9080 -2.1448 0.9763
3.1205 -4.6561 -2.1480 0.9763
3.5276 -4.3662 -2.1511 0.9762
3.9075 -4.0403 -2.1540 0.9762
5.4520 -1.4935 -2.1663 0.9761
5.5660 -1.0028 -2.1673 0.9761
5.6350 -0.5036 -2.1681 0.9761
4.9554 1.8454 -2.1642 0.9774
4.2833 3.0829 -2.1599 0.9774
3.9882 3.4488 -2.1579 0.9775
3.6617 3.7862 -2.1557 0.9775
2.5221 4.6022 -2.1478 0.9776
2.0995 4.8017 -2.1449 0.9776
1.6614 4.9624 -2.1418 0.9776
1.2113 5.0830 -2.1386 0.9777
0.2900 5.2011 -2.1320 0.9777
-0.1738 5.1980 -2.1286 0.9778
-0.6348 5.1538 -2.1253 0.9778
-1.5337 4.9442 -2.1187 0.9779
-1.9647 4.7809 -2.1155 0.9779
-2.7733 4.3443 -2.1094 0.9780
-4.3497 2.7091 -2.0973 0.9781
-4.5697 2.3092 -2.0955 0.9781
-4.7537 1.8919 -2.0940 0.9781
-4.9003 1.4604 -2.0927 0.9781
-4.8283 -1.6765 -2.0918 0.9782
-4.6621 -2.1007 -2.0928 0.9781
-4.4594 -2.5088 -2.0941 0.9781
-3.9502 -3.2649 -2.0975 0.9781
-3.6475 -3.6071 -2.0995 0.9781
-3.3155 -3.9216 -2.1018 0.9780
-2.5739 -4.4582 -2.1069 0.9780
-1.7475 -4.8572 -2.1127 0.9779
-1.3102 -5.0008 -2.1158 0.9779
0.0579 -5.1932 -2.1256 0.9778
0.9808 -5.1168 -2.1323 0.9777
1.4346 -5.0170 -2.1356 0.9777
1.8783 -4.8769 -2.1389 0.9777
2.7212 -4.4797 -2.1452 0.9776
3.4816 -3.9367 -2.1509 0.9775
3.8228 -3.6156 -2.1535 0.9775
4.6564 -2.4847 -2.1601 0.9774
5.0303 -1.6220 -2.1632 0.9774
5.2430 -0.7051 -2.1651 0.9774
5.2862 -0.2357 -2.1657 0.9774
5.2867 0.2357 -2.1659 0.9774
5.2445 0.7053 -2.1658 0.9774
5.0338 1.6232 -2.1647 0.9774
4.4182 2.8902 -2.1608 0.9774
4.1399 3.2692 -2.1589 0.9775
3.4875 3.9434 -2.1545 0.9775
3.1190 4.2331 -2.1520 0.9775
0.9829 5.1279 -2.1369 0.9777
0.5218 5.1870 -2.1336 0.9777
0.0580 5.2047 -2.1303 0.9778
-0.4049 5.1810 -2.1269 0.9778
-0.8630 5.1164 -2.1236 0.9778
-1.3129 5.0115 -2.1203 0.9779
-2.1741 4.6851 -2.1139 0.9779
-2.9621 4.2136 -2.1080 0.9780
-3.6531 3.6126 -2.1027 0.9780
-3.9557 3.2695 -2.1004 0.9781
-4.2267 2.9015 -2.0983 0.9781
-2.1308 0.5330 -0.8989 0.9906
-2.1302 0.1426 -0.8738 0.9908
-2.1285 -0.0474 -0.8714 0.9908
-4.3447 -2.7059 -2.0949 0.9781
-4.0899 -3.0843 -2.0965 0.9781
-3.8026 -3.4393 -2.0985 0.9781
-2.7682 -4.3363 -2.1055 0.9780
-2.3743 -4.5714 -2.1083 0.9780
-1.9607 -4.7712 -2.1112 0.9780
-1.0869 -5.0580 -2.1174 0.9779
0.2894 -5.1896 -2.1273 0.9778
0.7513 -5.1514 -2.1306 0.9778
1.2087 -5.0720 -2.1340 0.9777
1.6579 -4.9519 -2.1373 0.9777
2.9201 -4.3570 -2.1467 0.9776
3.3007 -4.0853 -2.1495 0.9776
3.6558 -3.7801 -2.1523 0.9775
3.9824 -3.4437 -2.1548 0.9775
4.2777 -3.0789 -2.1571 0.9775
4.5391 -2.6885 -2.1591 0.9775
5.0990 -1.3968 -2.1638 0.9774
5.2699 -0.4709 -2.1654 0.9774
4.9641 -0.0000 -2.1634 0.9786
4.8850 0.8801 -2.1633 0.9786
4.7862 1.3111 -2.1627 0.9786
4.6487 1.7312 -2.1619 0.9786
4.4740 2.1370 -2.1608 0.9786
4.2633 2.5252 -2.1595 0.9786
3.7421 3.2359 -2.1561 0.9786
3.1028 3.8404 -2.1517 0.9787
2.3671 4.3194 -2.1466 0.9787
1.9707 4.5071 -2.1438 0.9788
0.7069 4.8472 -2.1348 0.9789
-0.1632 4.8813 -2.1285 0.9789
-1.0231 4.7610 -2.1223 0.9790
-1.4407 4.6443 -2.1192 0.9790
-2.2350 4.3032 -2.1133 0.9791
-2.9550 3.8289 -2.1079 0.9791
-3.2802 3.5465 -2.1054 0.9791
-4.0884 2.5463 -2.0991 0.9792
-4.2954 2.1705 -2.0974 0.9792
-4.4685 1.7784 -2.0960 0.9792
-1.9300 0.3923 -0.8583 0.9914
-1.9470 0.0434 -0.8487 0.9915
-1.9397 -0.3050 -0.8557 0.9915
-1.9080 -0.4772 -0.8571 0.9915
-1.8290 -0.6351 -0.8438 0.9916
-4.1918 -2.3583 -2.0961 0.9792
-3.9680 -2.7239 -2.0976 0.9792
-3.7128 -3.0687 -2.0993 0.9792
-3.4281 -3.3901 -2.1012 0.9792
-3.1159 -3.6855 -2.1033 0.9792
-2.7786 -3.9525 -2.1056 0.9791
-2.0387 -4.3933 -2.1108 0.9791
-0.8089 -4.7955 -2.1195 0.9790
-0.3794 -4.8555 -2.1226 0.9790
0.4889 -4.8602 -2.1289 0.9789
0.9209 -4.8045 -2.1320 0.9789
1.7633 -4.5784 -2.1382 0.9788
2.1669 -4.4094 -2.1412 0.9788
2.9220 -3.9658 -2.1469 0.9787
3.2674 -3.6945 -2.1495 0.9787
3.5874 -3.3929 -2.1519 0.9787
3.8792 -3.0634 -2.1542 0.9787
4.1404 -2.7085 -2.1562 0.9786
4.7192 -1.5217 -2.1610 0.9786
4.8382 -1.0962 -2.1620 0.9786
4.9588 -0.2211 -2.1633 0.9786
3.2726 3.7003 -2.1529 0.9787
2.5587 4.2123 -2.1479 0.9787
2.1709 4.4177 -2.1452 0.9788
0.9228 4.8143 -2.1364 0.9788
0.0544 4.8874 -2.1301 0.9789
-1.2332 4.7072 -2.1207 0.9790
-2.0425 4.4015 -2.1147 0.9790
-2.4229 4.1966 -2.1119 0.9791
-3.1208 3.6913 -2.1066 0.9791
-4.1960 2.3606 -2.0982 0.9792
-4.3862 1.9764 -2.0967 0.9792
-1.8290 0.6351 -0.8438 0.9916
-1.9470 -0.0434 -0.8487 0.9915
-1.8741 -0.5585 -0.8523 0.9915
-4.4651 -1.7771 -2.0944 0.9792
-4.0840 -2.5435 -2.0968 0.9792
-3.5740 -3.2325 -2.1002 0.9792
-2.9502 -3.8227 -2.1044 0.9792
-2.2310 -4.2954 -2.1094 0.9791
-1.4378 -4.6351 -2.1150 0.9790
0.2717 -4.8736 -2.1273 0.9789
1.5565 -4.6490 -2.1367 0.9788
2.3627 -4.3115 -2.1427 0.9788
2.7407 -4.0895 -2.1455 0.9787
3.4307 -3.5474 -2.1507 0.9787
3.7369 -3.2315 -2.1531 0.9787
4.2588 -2.5225 -2.1572 0.9786
4.4699 -2.1351 -2.1589 0.9786
4.7835 -1.3103 -2.1615 0.9786
4.9436 -0.4418 -2.1631 0.9786
4.6508 0.4156 -2.1614 0.9796
4.5019 1.2332 -2.1606 0.9796
4.3728 1.6284 -2.1599 0.9796
4.0105 2.3754 -2.1576 0.9797
3.7805 2.7211 -2.1561 0.9797
3.5205 3.0443 -2.1544 0.9797
3.2326 3.3425 -2.1524 0.9797
2.5834 3.8547 -2.1480 0.9798
1.4679 4.3842 -2.1401 0.9798
0.6655 4.5628 -2.1344 0.9799
0.2564 4.5976 -2.1315 0.9799
-0.1537 4.5957 -2.1285 0.9799
-0.5613 4.5575 -2.1255 0.9800
-1.3567 4.3737 -2.1197 0.9800
-1.7383 4.2299 -2.1169 0.9800
-2.1052 4.0532 -2.1141 0.9801
-2.7837 3.6070 -2.1090 0.9801
-3.0903 3.3412 -2.1067 0.9801
-3.3719 3.0497 -2.1045 0.9802
-3.6266 2.7349 -2.1025 0.9802
-4.0475 2.0453 -2.0992 0.9802
-1.6716 0.0372 -0.7739 0.9927
-1.6738 -0.1120 -0.7765 0.9926
-1.6521 -0.2598 -0.7741 0.9927
-4.1300 -1.8609 -2.0968 0.9802
-3.9501 -2.2223 -2.0979 0.9802
-2.9356 -3.4723 -2.1047 0.9802
-2.6177 -3.7237 -2.1069 0.9801
-2.2784 -3.9463 -2.1093 0.9801
-1.9204 -4.1383 -2.1118 0.9801
-1.1592 -4.4245 -2.1171 0.9800
-0.7618 -4.5161 -2.1200 0.9800
-0.3573 -4.5722 -2.1229 0.9800
0.0512 -4.5922 -2.1258 0.9800
0.4603 -4.5758 -2.1288 0.9799
0.8670 -4.5230 -2.1317 0.9799
2.4037 -3.9570 -2.1431 0.9798
2.7497 -3.7320 -2.1457 0.9798
3.0745 -3.4764 -2.1482 0.9798
3.6497 -2.8821 -2.1526 0.9797
4.6263 -0.6222 -2.1607 0.9796
4.6647 0.2080 -2.1614 0.9796
4.4418 1.4323 -2.1603 0.9796
4.1136 2.1951 -2.1583 0.9797
3.8994 2.5509 -2.1569 0.9797
3.6541 2.8856 -2.1553 0.9797
2.4078 3.9637 -2.1467 0.9798
1.2703 4.4424 -2.1387 0.9798
0.8687 4.5317 -2.1359 0.9799
0.4612 4.5848 -2.1329 0.9799
-1.9238 4.1456 -2.1155 0.9801
-2.9400 3.4774 -2.1078 0.9801
-3.5027 2.8951 -2.1035 0.9802
-3.7432 2.5695 -2.1016 0.9802
-3.9538 2.2244 -2.0999 0.9802
-4.1333 1.8624 -2.0985 0.9802
-1.5621 0.5424 -0.7654 0.9927
-1.6716 -0.0373 -0.7739 0.9927
-1.6675 -0.1865 -0.7767 0.9926
-1.6373 -0.3328 -0.7734 0.9927
-1.5924 -0.4746 -0.7692 0.9927
-3.8484 -2.3968 -2.0986 0.9802
-3.6223 -2.7317 -2.1001 0.9802
-2.4505 -3.8387 -2.1081 0.9801
-2.1016 -4.0462 -2.1105 0.9801
-1.7352 -4.2223 -2.1131 0.9801
-1.3542 -4.3656 -2.1157 0.9801
-0.9616 -4.4747 -2.1185 0.9800
-0.5602 -4.5487 -2.1214 0.9800
0.2559 -4.5886 -2.1273 0.9799
0.6642 -4.5540 -2.1303 0.9799
1.0684 -4.4830 -2.1332 0.9799
1.8513 -4.2340 -2.1390 0.9798
2.2236 -4.0576 -2.1418 0.9798
2.5792 -3.8484 -2.1444 0.9798
2.9149 -3.6078 -2.1470 0.9798
3.2281 -3.3378 -2.1494 0.9797
3.7762 -2.7179 -2.1536 0.9797
4.3697 -1.6273 -2.1584 0.9797
4.4996 -1.2326 -2.1595 0.9796
4.5932 -0.8275 -2.1604 0.9796
4.6500 -0.4155 -2.1610 0.9796
4.3321 0.7805 -2.1592 0.9806
4.1228 1.5354 -2.1580 0.9806
3.7815 2.2398 -2.1559 0.9806
3.5648 2.5658 -2.1545 0.9806
3.3198 2.8707 -2.1528 0.9806
2.7532 3.4077 -2.1490 0.9807
2.4365 3.6356 -2.1468 0.9807
1.7494 4.0010 -2.1420 0.9807
1.0098 4.2374 -2.1367 0.9808
0.6279 4.3049 -2.1340 0.9808
-0.5297 4.3009 -2.1256 0.9809
-0.9092 4.2312 -2.1229 0.9809
-1.2806 4.1281 -2.1201 0.9809
-1.6408 3.9927 -2.1175 0.9810
-2.9178 3.1547 -2.1078 0.9810
-3.6378 2.2657 -2.1022 0.9811
-1.3059 0.5198 -0.6895 0.9938
-1.3536 0.0302 -0.6641 0.9940
-1.3257 -0.2085 -0.6583 0.9940
-1.3171 -0.4573 -0.6839 0.9938
-3.7305 -2.0987 -2.0996 0.9811
-3.0500 -3.0162 -2.1041 0.9811
-2.7719 -3.2786 -2.1060 0.9811
-2.4715 -3.5158 -2.1081 0.9810
-1.8129 -3.9067 -2.1126 0.9810
-1.0941 -4.1763 -2.1177 0.9809
-0.7190 -4.2625 -2.1204 0.9809
0.0483 -4.3337 -2.1259 0.9809
0.4344 -4.3179 -2.1287 0.9809
0.8180 -4.2677 -2.1315 0.9808
1.1962 -4.1834 -2.1343 0.9808
1.9238 -3.9148 -2.1397 0.9808
2.2673 -3.7326 -2.1422 0.9807
2.5935 -3.5200 -2.1447 0.9807
2.8997 -3.2787 -2.1470 0.9807
3.8753 -2.0679 -2.1546 0.9806
4.0466 -1.7159 -2.1560 0.9806
4.1855 -1.3497 -2.1572 0.9806
4.2909 -0.9722 -2.1581 0.9806
4.3618 -0.5866 -2.1588 0.9806
4.3975 -0.1961 -2.1592 0.9806
4.3979 0.1961 -2.1594 0.9806
4.3628 0.5868 -2.1593 0.9806
4.0495 1.7171 -2.1576 0.9806
3.8787 2.0697 -2.1565 0.9806
3.1873 3.0145 -2.1519 0.9806
2.5974 3.5252 -2.1479 0.9807
1.1983 4.1908 -2.1381 0.9808
0.8195 4.2754 -2.1354 0.9808
0.4352 4.3258 -2.1326 0.9808
0.0484 4.3417 -2.1298 0.9808
-0.7203 4.2702 -2.1242 0.9809
-1.8159 3.9133 -2.1162 0.9810
-2.7758 3.2832 -2.1089 0.9810
-3.0539 3.0200 -2.1068 0.9810
-3.5347 2.4264 -2.1030 0.9811
-1.3257 0.2085 -0.6583 0.9940
-1.3536 -0.0302 -0.6641 0.9940
-1.3200 -0.3934 -0.6756 0.9939
-1.3059 -0.5197 -0.6895 0.9938
-3.4207 -2.5797 -2.1016 0.9811
-3.1800 -2.8761 -2.1032 0.9811
-2.9139 -3.1504 -2.1050 0.9811
-1.2783 -4.1209 -2.1164 0.9810
-0.9076 -4.2235 -2.1190 0.9809
-0.5287 -4.2931 -2.1218 0.9809
-0.1447 -4.3287 -2.1245 0.9809
0.2414 -4.3301 -2.1273 0.9809
0.6267 -4.2971 -2.1301 0.9808
1.3823 -4.1286 -2.1357 0.9808
2.0976 -3.8276 -2.1410 0.9807
2.4328 -3.6299 -2.1435 0.9807
2.7493 -3.4028 -2.1459 0.9807
3.0444 -3.1479 -2.1481 0.9807
3.3157 -2.8672 -2.1502 0.9807
3.5609 -2.5630 -2.1521 0.9806
4.2424 -1.1621 -2.1577 0.9806
4.3307 -0.7802 -2.1585 0.9806
4.3841 -0.3918 -2.1591 0.9806
4.1590 -0.0000 -2.1576 0.9814
4.1426 0.3702 -2.1577 0.9814
4.0102 1.0985 -2.1570 0.9814
3.7491 1.7908 -2.1554 0.9815
2.6019 3.2204 -2.1478 0.9815
2.3027 3.4359 -2.1457 0.9815
1.9857 3.6234 -2.1435 0.9816
0.2287 4.1014 -2.1310 0.9817
-0.1371 4.1004 -2.1284 0.9817
-0.5009 4.0669 -2.1257 0.9817
-0.8598 4.0012 -2.1231 0.9817
-1.8796 3.6190 -2.1156 0.9818
-2.4861 3.2214 -2.1110 0.9818
-3.0121 2.7243 -2.1070 0.9819
-3.2399 2.4433 -2.1052 0.9819
-1.1785 0.0263 -0.6115 0.9947
-1.1739 -0.0786 -0.6103 0.9947
-1.1517 -0.1811 -0.6048 0.9948
-1.1198 -0.3888 -0.6150 0.9947
-3.5298 -1.9858 -2.1011 0.9819
-3.3410 -2.2935 -2.1023 0.9819
-3.1257 -2.5835 -2.1037 0.9819
-2.8856 -2.8536 -2.1054 0.9819
-2.6224 -3.1017 -2.1071 0.9819
-2.3381 -3.3259 -2.1091 0.9818
-2.0348 -3.5244 -2.1112 0.9818
-1.7148 -3.6954 -2.1134 0.9818
-0.6800 -4.0311 -2.1208 0.9817
2.7404 -3.0986 -2.1459 0.9815
3.2523 -2.5683 -2.1499 0.9815
3.4708 -2.2705 -2.1516 0.9815
3.6617 -1.9539 -2.1531 0.9815
4.1209 -0.5542 -2.1571 0.9814
4.1547 -0.1853 -2.1575 0.9814
4.1550 0.1853 -2.1577 0.9814
4.1219 0.5543 -2.1576 0.9814
4.0556 0.9189 -2.1573 0.9814
3.9567 1.2759 -2.1567 0.9814
3.4741 2.2727 -2.1537 0.9815
3.2559 2.5711 -2.1522 0.9815
2.4547 3.3315 -2.1468 0.9815
2.1463 3.5332 -2.1446 0.9815
1.8213 3.7063 -2.1424 0.9816
1.4826 3.8494 -2.1400 0.9816
1.1328 3.9615 -2.1375 0.9816
0.7747 4.0417 -2.1350 0.9816
0.4114 4.0897 -2.1323 0.9816
0.0457 4.1050 -2.1297 0.9817
-0.3194 4.0877 -2.1271 0.9817
-1.3829 3.8439 -2.1193 0.9818
-2.3414 3.3306 -2.1121 0.9818
-2.6258 3.1059 -2.1099 0.9818
-2.8891 2.8571 -2.1079 0.9819
-3.1292 2.5863 -2.1061 0.9819
-3.3442 2.2957 -2.1044 0.9819
-3.5328 1.9875 -2.1029 0.9819
-1.0898 0.4910 -0.6201 0.9946
-1.1275 0.2820 -0.6029 0.9948
-1.1739 0.0786 -0.6103 0.9947
-1.1649 -0.1303 -0.6081 0.9947
-1.1332 -0.2303 -0.5999 0.9948
-1.1070 -0.4406 -0.6181 0.9946
-1.0665 -0.5390 -0.6199 0.9946
-3.0087 -2.7212 -2.1045 0.9819
-2.1887 -3.4285 -2.1101 0.9818
-1.8767 -3.6134 -2.1123 0.9818
-1.5494 -3.7702 -2.1146 0.9818
-0.8583 -3.9944 -2.1195 0.9818
0.2283 -4.0943 -2.1273 0.9817
0.9530 -3.9988 -2.1326 0.9816
1.3067 -3.9029 -2.1352 0.9816
1.6509 -3.7756 -2.1378 0.9816
1.9826 -3.6179 -2.1402 0.9816
2.2993 -3.4308 -2.1426 0.9816
2.5983 -3.2159 -2.1449 0.9815
2.8771 -2.9749 -2.1470 0.9815
3.5698 -2.1144 -2.1524 0.9815
3.8928 -1.4497 -2.1550 0.9815
4.0083 -1.0980 -2.1560 0.9814
4.0915 -0.7371 -2.1568 0.9814
4.1419 -0.3701 -2.1573 0.9814
2.0429 -0.0000 -1.1189 0.9907
2.0036 0.3610 -1.1150 0.9908
3.1884 2.2949 -2.1516 0.9822
2.4632 3.0487 -2.1467 0.9823
2.1801 3.2529 -2.1448 0.9823
1.8801 3.4307 -2.1427 0.9823
1.2394 3.7019 -2.1382 0.9824
0.5621 3.8543 -2.1333 0.9824
-0.8145 3.7903 -2.1233 0.9825
-1.1473 3.6985 -2.1209 0.9825
-1.4703 3.5777 -2.1185 0.9825
-1.7809 3.4288 -2.1162 0.9825
-2.0768 3.2533 -2.1140 0.9826
-2.6157 2.8281 -2.1099 0.9826
-3.2621 2.0317 -2.1048 0.9826
-0.9364 0.4732 -0.5746 0.9952
-0.9638 0.3836 -0.5681 0.9953
-1.0293 0.1151 -0.5673 0.9953
-1.0415 0.0232 -0.5706 0.9953
-1.0376 -0.0695 -0.5696 0.9953
-0.9756 -0.3387 -0.5656 0.9953
-0.9472 -0.4268 -0.5690 0.9953
-0.9240 -0.5198 -0.5806 0.9952
-2.7347 -2.7044 -2.1065 0.9826
-2.4851 -2.9394 -2.1082 0.9826
-2.2156 -3.1517 -2.1101 0.9826
-1.3081 -3.6360 -2.1164 0.9825
-0.9804 -3.7421 -2.1187 0.9825
-0.6442 -3.8188 -2.1211 0.9825
-0.3021 -3.8655 -2.1236 0.9825
0.3890 -3.8669 -2.1286 0.9824
0.7325 -3.8214 -2.1311 0.9824
1.0710 -3.7454 -2.1336 0.9824
1.4017 -3.6394 -2.1360 0.9824
2.3208 -3.1498 -2.1429 0.9823
2.8478 -2.6935 -2.1469 0.9823
3.0788 -2.4313 -2.1487 0.9823
3.2855 -2.1493 -2.1503 0.9823
3.4661 -1.8496 -2.1518 0.9822
1.9407 -0.8229 -1.1546 0.9904
2.0041 -0.4541 -1.1255 0.9907
2.0434 -0.0911 -1.1203 0.9907
2.0434 0.0911 -1.1203 0.9907
2.0226 0.2720 -1.1178 0.9907
1.9895 0.6415 -1.1449 0.9905
1.9407 0.8229 -1.1546 0.9904
3.4688 1.8510 -2.1534 0.9822
3.2885 2.1512 -2.1523 0.9822
2.5977 2.9373 -2.1476 0.9823
2.0321 3.3452 -2.1437 0.9823
1.7245 3.5093 -2.1416 0.9823
1.4038 3.6450 -2.1393 0.9823
0.3897 3.8732 -2.1321 0.9824
-0.6452 3.8250 -2.1246 0.9825
-1.6273 3.5067 -2.1173 0.9825
-1.9308 3.3443 -2.1151 0.9825
-3.1695 2.1757 -2.1056 0.9826
-0.9240 0.5198 -0.5806 0.9952
-0.9847 0.2463 -0.5559 0.9954
-1.0166 0.1599 -0.5637 0.9953
-1.0376 0.0695 -0.5696 0.9953
-1.0293 -0.1151 -0.5673 0.9953
-1.0000 -0.2033 -0.5589 0.9954
-3.2593 -2.0299 -2.1030 0.9826
-2.8514 -2.5789 -2.1057 0.9826
-2.6125 -2.8246 -2.1073 0.9826
-2.0740 -3.2488 -2.1110 0.9826
-1.7783 -3.4238 -2.1131 0.9826
-0.8132 -3.7842 -2.1199 0.9825
-0.4737 -3.8459 -2.1224 0.9825
-0.1296 -3.8774 -2.1248 0.9825
0.2162 -3.8781 -2.1273 0.9824
0.5612 -3.8480 -2.1298 0.9824
1.2375 -3.6961 -2.1348 0.9824
1.5633 -3.5753 -2.1372 0.9824
1.8773 -3.4257 -2.1396 0.9823
2.1771 -3.2484 -2.1418 0.9823
2.7238 -2.8164 -2.1459 0.9823
3.3792 -2.0015 -2.1511 0.9822
3.5461 -1.6938 -2.1524 0.9822
2.0004 -0.5480 -1.1360 0.9906
2.0036 -0.3610 -1.1150 0.9908
1.8754 -0.0000 -1.0828 0.9914
1.8426 0.3320 -1.0810 0.9914
1.8267 0.5004 -1.0935 0.9913
1.7869 0.6654 -1.1009 0.9912
3.2064 1.8992 -2.1516 0.9829
3.0230 2.1758 -2.1504 0.9829
2.8155 2.4346 -2.1490 0.9830
2.3356 2.8909 -2.1457 0.9830
1.7829 3.2534 -2.1419 0.9830
1.4848 3.3958 -2.1398 0.9830
1.1755 3.5109 -2.1376 0.9830
0.8574 3.5978 -2.1353 0.9831
0.5332 3.6558 -2.1330 0.9831
-0.1232 3.6842 -2.1283 0.9831
-0.4501 3.6546 -2.1259 0.9831
-1.0885 3.5091 -2.1212 0.9832
-1.6899 3.2537 -2.1168 0.9832
-1.9708 3.0873 -2.1147 0.9832
-2.7092 2.4503 -2.1090 0.9833
-2.9143 2.1978 -2.1074 0.9833
-0.8932 0.3555 -0.5550 0.9956
-0.9012 0.2686 -0.5429 0.9957
-0.9237 0.1033 -0.5366 0.9957
-0.9189 -0.1445 -0.5370 0.9957
-0.8983 -0.3119 -0.5490 0.9956
-0.8858 -0.3991 -0.5609 0.9955
-0.8638 -0.4859 -0.5722 0.9954
-3.0057 -2.0633 -2.1048 0.9833
-2.5956 -2.5668 -2.1076 0.9833
-2.1027 -2.9912 -2.1110 0.9833
-1.8298 -3.1693 -2.1129 0.9832
-0.9302 -3.5507 -2.1192 0.9832
-0.2866 -3.6673 -2.1238 0.9832
0.0410 -3.6824 -2.1262 0.9831
0.3690 -3.6682 -2.1285 0.9831
0.6948 -3.6248 -2.1309 0.9831
1.0158 -3.5525 -2.1333 0.9831
1.3294 -3.4518 -2.1356 0.9831
1.6331 -3.3232 -2.1378 0.9830
1.9244 -3.1679 -2.1400 0.9830
2.4602 -2.7818 -2.1441 0.9830
2.7003 -2.5540 -2.1459 0.9830
3.1151 -2.0378 -2.1491 0.9830
1.6860 -0.8997 -1.1034 0.9912
1.7564 -0.7448 -1.1014 0.9912
1.8316 -0.4150 -1.0843 0.9914
1.8755 -0.0836 -1.0839 0.9914
1.8755 0.0836 -1.0839 0.9914
1.8108 0.5839 -1.0985 0.9913
1.7564 0.7448 -1.1014 0.9912
1.6861 0.8997 -1.1034 0.9912
2.7033 2.5568 -2.1482 0.9830
1.6354 3.3279 -2.1409 0.9830
0.6959 3.6304 -2.1342 0.9831
0.3696 3.6739 -2.1319 0.9831
0.0411 3.6881 -2.1295 0.9831
-0.2870 3.6730 -2.1271 0.9831
-0.6121 3.6289 -2.1247 0.9831
-0.9316 3.5561 -2.1224 0.9832
-1.5441 3.3274 -2.1179 0.9832
-1.8323 3.1735 -2.1157 0.9832
-2.1054 2.9950 -2.1136 0.9832
-0.8638 0.4860 -0.5722 0.9954
-0.8858 0.3991 -0.5609 0.9955
-0.9189 0.1445 -0.5370 0.9957
-0.9273 0.0621 -0.5366 0.9957
-0.9306 -0.0207 -0.5374 0.9957
-0.9237 -0.1033 -0.5366 0.9957
-0.8932 -0.3555 -0.5550 0.9956
-2.7064 -2.4478 -2.1068 0.9833
-2.2329 -2.8933 -2.1101 0.9833
-1.9683 -3.0832 -2.1119 0.9832
-1.6876 -3.2492 -2.1138 0.9832
-1.3930 -3.3898 -2.1159 0.9832
-0.4494 -3.6489 -2.1226 0.9832
0.5324 -3.6502 -2.1297 0.9831
1.1737 -3.5057 -2.1344 0.9831
1.4827 -3.3909 -2.1367 0.9831
2.0646 -3.0806 -2.1411 0.9830
2.8126 -2.4321 -2.1468 0.9830
3.0202 -2.1738 -2.1484 0.9830
1.7194 -0.8213 -1.1001 0.9912
1.8426 -0.3320 -1.0810 0.9914
1.8700 -0.1671 -1.0839 0.9914
