ply
format ascii 1.0
element vertex 1365
property float32 x
property float32 y
property float32 z
property float32 I
end_header
-17.9400 -6.2294 -1.8232 0.9265
-17.3239 -7.8057 -1.8242 0.9265
-15.9415 10.9432 -1.8564 0.9252
-17.2714 9.7167 -1.9025 0.9235
-17.6394 -7.0203 -1.8227 0.9265
17.8769 6.6574 -2.2660 0.9260
16.3527 9.6858 -2.2576 0.9263
14.2942 12.3607 -2.2447 0.9267
10.9394 13.5398 -2.0677 0.9323
-10.8424 11.7227 -1.8968 0.9377
-15.6856 6.2427 -2.0054 0.9343
-16.1375 4.8095 -2.0002 0.9344
-16.7520 0.3733 -1.9904 0.9347
-16.5383 -2.6005 -1.9887 0.9348
-15.8323 -5.4976 -1.9908 0.9347
-13.5976 -7.6499 -1.8533 0.9391
17.2120 -3.8997 -2.0964 0.9314
19.0624 -0.8500 -2.2666 0.9260
19.0799 0.8508 -2.2687 0.9260
18.9353 2.5466 -2.2695 0.9259
18.1663 5.8579 -2.2673 0.9260
15.8852 10.3916 -2.2548 0.9264
14.8546 11.7306 -2.2484 0.9266
13.7057 12.9628 -2.2409 0.9268
-13.9943 9.6066 -2.0163 0.9339
-14.7824 8.3164 -2.0147 0.9340
-15.4143 6.9453 -2.0083 0.9342
-16.3176 4.0813 -1.9980 0.9345
-16.5848 2.6079 -1.9943 0.9346
-16.7275 1.1198 -1.9914 0.9347
-16.4075 -3.3350 -1.9888 0.9348
-16.0542 -4.7847 -1.9899 0.9347
-15.5271 -6.1796 -1.9851 0.9349
18.7179 -1.6726 -2.2323 0.9271
15.5853 2.8078 -2.2438 0.9380
15.2675 4.1822 -2.2429 0.9380
14.8220 5.5198 -2.2410 0.9381
13.5668 8.0357 -2.2342 0.9383
12.7700 9.1912 -2.2293 0.9384
11.8705 10.2649 -2.2236 0.9386
9.3016 11.5127 -2.0971 0.9420
8.0287 11.9797 -2.0433 0.9434
6.9034 12.5971 -2.0353 0.9436
-7.3061 11.4449 -1.9239 0.9466
-8.2602 10.7031 -1.9156 0.9468
-13.2658 5.2797 -2.0230 0.9440
-13.9365 2.8327 -2.0150 0.9442
-14.1137 1.5788 -2.0122 0.9442
-14.1841 0.3161 -2.0102 0.9443
-14.1478 -0.9471 -2.0091 0.9443
-14.0050 -2.2022 -2.0087 0.9443
-13.4050 -4.6547 -2.0106 0.9443
-12.9429 -5.8318 -2.0114 0.9443
13.9048 -4.4837 -2.0701 0.9427
14.9392 -3.3848 -2.1704 0.9400
15.6597 -2.1060 -2.2388 0.9382
15.8042 -0.7047 -2.2415 0.9381
15.8162 0.7053 -2.2432 0.9380
15.6953 2.1108 -2.2439 0.9380
15.4426 3.4988 -2.2435 0.9380
14.5526 6.1708 -2.2397 0.9381
13.9243 7.4302 -2.2362 0.9382
12.3325 9.7389 -2.2265 0.9385
11.3852 10.7680 -2.2204 0.9387
10.3308 11.6811 -2.2095 0.9389
-6.8042 11.7851 -1.9282 0.9465
-7.7918 11.0839 -1.9197 0.9467
-8.7108 10.3032 -1.9117 0.9470
-9.8257 9.7168 -1.9580 0.9457
-11.1202 9.1911 -2.0441 0.9434
-11.8540 8.1373 -2.0372 0.9436
-12.4930 7.0284 -2.0310 0.9437
-13.4727 4.6782 -2.0207 0.9440
-13.8082 3.4537 -2.0167 0.9441
-14.0384 2.2074 -2.0135 0.9442
-14.1623 0.9480 -2.0111 0.9443
-14.1793 -0.3160 -2.0096 0.9443
-14.0897 -1.5762 -2.0088 0.9443
-13.8941 -2.8241 -2.0089 0.9443
-13.5938 -4.0514 -2.0098 0.9443
-12.2886 -6.2097 -1.9508 0.9459
-11.2177 -6.9864 -1.8725 0.9480
-10.5731 -7.9736 -1.8763 0.9479
14.1062 -3.8641 -2.0723 0.9426
15.5218 -2.7964 -2.2347 0.9383
13.5030 0.0000 -2.2245 0.9467
13.0255 3.5680 -2.2249 0.9467
10.1402 8.7686 -2.2084 0.9471
8.3798 10.3718 -2.1966 0.9474
7.2209 10.7743 -2.1367 0.9488
4.9082 11.2253 -2.0183 0.9515
3.8749 11.5738 -2.0107 0.9517
2.8183 11.8261 -2.0028 0.9519
-5.4205 10.4363 -1.9373 0.9534
-6.3034 9.8741 -1.9298 0.9536
-7.4927 9.7085 -2.0203 0.9515
-9.9418 7.4975 -2.0513 0.9508
-10.5403 6.5645 -2.0456 0.9509
-11.8221 3.5233 -2.0322 0.9512
-12.0700 2.4533 -2.0291 0.9513
-12.1344 -1.9081 -2.0236 0.9514
-11.6131 -4.0325 -2.0252 0.9514
11.4603 -4.8596 -2.0507 0.9508
13.1744 2.9849 -2.2253 0.9467
12.4182 5.2658 -2.2221 0.9468
11.2542 7.3621 -2.2155 0.9469
10.5328 8.3177 -2.2110 0.9470
8.8464 10.0027 -2.1998 0.9473
7.8854 10.7022 -2.1900 0.9475
4.3950 11.4115 -2.0145 0.9516
3.3490 11.7120 -2.0068 0.9518
2.2841 11.9158 -1.9987 0.9520
-1.9845 11.7647 -1.9655 0.9528
-3.0110 11.4928 -1.9572 0.9530
-4.0053 11.1328 -1.9491 0.9532
-4.9600 10.6886 -1.9412 0.9534
-8.0843 9.5622 -2.0628 0.9505
-8.8952 8.7967 -2.0609 0.9505
-9.6123 7.9448 -2.0544 0.9507
-10.8083 6.0807 -2.0430 0.9510
-11.2801 5.0826 -2.0382 0.9511
-11.9575 2.9908 -2.0306 0.9513
-10.9888 -5.5529 -2.0283 0.9513
-9.9800 -6.2156 -1.9369 0.9535
-9.1530 -6.9026 -1.8886 0.9546
11.9253 -4.4410 -2.0964 0.9497
12.9755 -3.5544 -2.2163 0.9469
13.4381 -1.2008 -2.2226 0.9468
11.7210 1.0474 -2.2119 0.9532
11.5818 2.0865 -2.2120 0.9532
11.3468 3.1082 -2.2113 0.9532
11.0181 4.1032 -2.2099 0.9533
10.0930 5.9781 -2.2049 0.9534
9.5054 6.8416 -2.2013 0.9535
8.8418 7.6458 -2.1971 0.9535
8.1083 8.3839 -2.1923 0.9536
5.5485 10.1247 -2.1701 0.9541
1.5289 10.4830 -1.9912 0.9578
0.5877 10.5391 -1.9840 0.9579
-0.3514 10.5107 -1.9767 0.9581
-2.1931 10.2058 -1.9621 0.9584
-3.0814 9.9335 -1.9549 0.9586
-3.9952 9.7217 -1.9756 0.9581
-5.9624 9.3400 -2.0828 0.9559
-6.7529 8.7500 -2.0775 0.9560
-7.4817 8.0892 -2.0711 0.9561
-8.1484 7.3698 -2.0651 0.9563
-8.7485 6.5975 -2.0596 0.9564
-9.2782 5.7785 -2.0545 0.9565
-9.7342 4.9189 -2.0500 0.9566
-10.6351 2.1617 -2.0399 0.9568
-10.7738 1.2052 -2.0377 0.9568
-10.8301 0.2413 -2.0361 0.9569
-10.8039 -0.7232 -2.0352 0.9569
-10.6953 -1.6818 -2.0350 0.9569
-10.5052 -2.6275 -2.0354 0.9569
-10.2348 -3.5539 -2.0364 0.9569
-9.4610 -5.3227 -2.0404 0.9568
-7.7902 -6.4388 -1.8997 0.9597
-6.5530 -7.7509 -1.9078 0.9595
11.4440 -2.5929 -2.2056 0.9534
11.7475 -0.5238 -2.2103 0.9533
11.7542 0.5241 -2.2115 0.9532
11.6635 1.5686 -2.2120 0.9532
11.4762 2.6002 -2.2117 0.9532
11.1939 3.6096 -2.2107 0.9533
10.8195 4.5879 -2.2089 0.9533
10.3564 5.5263 -2.2064 0.9533
9.1828 7.2515 -2.1993 0.9535
8.4833 8.0235 -2.1947 0.9536
7.7174 8.7262 -2.1896 0.9537
6.0152 9.9024 -2.1778 0.9539
3.8614 10.0259 -2.0194 0.9572
1.0585 10.5217 -1.9876 0.9579
0.1174 10.5354 -1.9804 0.9580
-0.8178 10.4652 -1.9730 0.9582
-1.7395 10.3125 -1.9657 0.9583
-5.5385 9.5930 -2.0821 0.9559
-7.1248 8.4272 -2.0742 0.9561
-7.8231 7.7364 -2.0680 0.9562
-8.4570 6.9899 -2.0623 0.9563
-9.5156 5.3534 -2.0522 0.9565
-10.7147 1.6848 -2.0387 0.9568
-10.8273 -0.2413 -2.0356 0.9569
-10.7598 -1.2037 -2.0350 0.9569
-10.0701 -4.0078 -2.0372 0.9568
-9.6829 -4.8930 -2.0392 0.9568
-8.2445 -6.2174 -1.9409 0.9588
-7.5029 -6.7860 -1.9015 0.9597
-6.8838 -7.4426 -1.9055 0.9596
-6.2088 -8.0449 -1.9101 0.9595
8.7574 -6.3032 -2.0281 0.9570
9.3073 -5.5127 -2.0332 0.9569
11.5558 -2.0819 -2.2070 0.9533
11.7077 -1.0462 -2.2094 0.9533
10.4102 0.0000 -2.2005 0.9583
10.3725 0.9269 -2.2013 0.9583
10.0416 2.7507 -2.2008 0.9583
9.3814 4.4811 -2.1977 0.9584
8.9350 5.2922 -2.1951 0.9584
8.4165 6.0578 -2.1920 0.9585
7.8306 6.7713 -2.1883 0.9586
7.1827 7.4269 -2.1840 0.9586
6.4790 8.0191 -2.1792 0.9587
5.7257 8.5434 -2.1740 0.9588
1.4222 9.7515 -2.0831 0.9605
-0.3247 9.7123 -2.0541 0.9610
-2.9484 9.5046 -2.1035 0.9601
-3.7782 9.1936 -2.1010 0.9602
-6.0180 7.7978 -2.0821 0.9605
-6.6698 7.2113 -2.0764 0.9606
-7.8038 5.8851 -2.0661 0.9608
-8.2785 5.1559 -2.0615 0.9609
-8.6875 4.3900 -2.0575 0.9610
-9.0281 3.5931 -2.0539 0.9611
-9.6215 1.0763 -2.0465 0.9612
-9.6726 0.2155 -2.0451 0.9612
-9.6495 -0.6460 -2.0443 0.9612
-9.3827 -2.3468 -2.0444 0.9612
-9.1407 -3.1740 -2.0453 0.9612
-8.8284 -3.9779 -2.0468 0.9612
-8.0015 -5.4927 -2.0515 0.9611
-6.4259 -6.3548 -1.9103 0.9637
-5.2195 -7.4248 -1.9185 0.9636
4.9028 -8.0712 -1.9962 0.9621
5.6187 -7.6258 -2.0022 0.9620
6.2934 -7.1160 -2.0081 0.9619
8.2258 -5.3811 -2.0778 0.9606
9.1088 -4.8606 -2.1824 0.9587
9.5344 -4.0430 -2.1891 0.9585
9.8727 -3.1835 -2.1927 0.9585
10.3061 -1.3860 -2.1981 0.9584
10.3969 -0.4636 -2.1999 0.9583
10.4021 0.4638 -2.2010 0.9583
10.3215 1.3881 -2.2014 0.9583
10.1559 2.3010 -2.2012 0.9583
9.5762 4.0606 -2.1987 0.9584
8.6845 5.6811 -2.1936 0.9585
8.1316 6.4215 -2.1902 0.9585
7.5140 7.1067 -2.1862 0.9586
6.1081 8.2900 -2.1766 0.9588
5.3327 8.7788 -2.1712 0.9589
3.6708 9.5311 -2.1589 0.9591
2.7919 9.7638 -2.1466 0.9593
1.8740 9.7766 -2.1042 0.9601
0.9791 9.7328 -2.0677 0.9608
0.1082 9.7144 -2.0536 0.9611
-0.7588 9.7107 -2.0589 0.9610
-2.5236 9.6323 -2.1048 0.9601
-3.3673 9.3596 -2.1026 0.9601
-4.1774 9.0020 -2.0977 0.9602
-4.9467 8.5680 -2.0913 0.9604
-5.6728 8.0697 -2.0851 0.9605
-6.9753 6.8980 -2.0736 0.9607
-7.5427 6.2342 -2.0685 0.9608
-8.8665 3.9950 -2.0557 0.9610
-9.1721 3.1849 -2.0524 0.9611
-9.5682 1.5045 -2.0474 0.9612
-9.6563 0.6464 -2.0457 0.9612
-9.6703 -0.2155 -2.0446 0.9612
-9.6103 -1.0751 -2.0441 0.9612
-9.4768 -1.9262 -2.0442 0.9612
-8.6465 -4.3693 -2.0478 0.9612
-8.2327 -5.1274 -2.0501 0.9611
-7.7487 -5.8436 -2.0515 0.9611
-5.5388 -7.1768 -1.9163 0.9636
-4.8894 -7.6591 -1.9208 0.9635
-4.1989 -8.0844 -1.9256 0.9634
5.2655 -7.8568 -1.9992 0.9621
5.9616 -7.3788 -2.0052 0.9620
6.6133 -6.8382 -2.0109 0.9619
7.2149 -6.2389 -2.0162 0.9618
7.7606 -5.5858 -2.0212 0.9617
9.7134 -3.6173 -2.1910 0.9585
10.0119 -2.7426 -2.1943 0.9584
10.3621 -0.9260 -2.1991 0.9584
9.2931 0.8304 -2.1928 0.9624
9.1827 1.6543 -2.1929 0.9624
8.9969 2.4645 -2.1924 0.9624
8.0076 4.7429 -2.1873 0.9625
7.5439 5.4298 -2.1845 0.9625
7.0200 6.0704 -2.1812 0.9626
4.4236 8.0721 -2.1633 0.9629
3.6784 8.4128 -2.1579 0.9630
2.1171 8.8839 -2.1464 0.9632
0.5055 9.0663 -2.1341 0.9634
-1.1034 8.9591 -2.1215 0.9636
-1.8908 8.7992 -2.1152 0.9637
-4.1126 7.9182 -2.0970 0.9640
-5.4223 7.0259 -2.0858 0.9642
-6.0112 6.4993 -2.0807 0.9643
-7.0367 5.3066 -2.0713 0.9644
-7.4663 4.6501 -2.0673 0.9645
-8.3904 2.5006 -2.0576 0.9647
-8.6838 0.9714 -2.0536 0.9647
-8.6227 -1.3559 -2.0514 0.9648
-8.4691 -2.1183 -2.0518 0.9648
-7.2200 -4.9562 -2.0582 0.9647
-6.7595 -5.5869 -2.0610 0.9646
-6.2251 -6.1562 -2.0576 0.9647
-5.2728 -6.2367 -1.9194 0.9670
-4.7062 -6.6947 -1.9233 0.9669
-4.1007 -7.1026 -1.9275 0.9669
-3.4604 -7.4570 -1.9321 0.9668
-2.0942 -7.9934 -1.9420 0.9666
-1.3782 -8.1705 -1.9474 0.9665
-0.6473 -8.2842 -1.9529 0.9664
0.0928 -8.3331 -1.9586 0.9663
0.8366 -8.3163 -1.9644 0.9662
2.3116 -8.0841 -1.9761 0.9660
3.0308 -7.8694 -1.9819 0.9659
5.6485 -6.3869 -2.0039 0.9656
6.2099 -5.8733 -2.0088 0.9655
7.0777 -5.5892 -2.1195 0.9636
8.1767 -4.3632 -2.1782 0.9626
8.8762 2.8622 -2.1919 0.9624
8.2154 4.3839 -2.1885 0.9625
6.1316 6.9331 -2.1753 0.9627
5.4789 7.4360 -2.1708 0.9628
4.7845 7.8764 -2.1659 0.9628
2.5143 8.7929 -2.1494 0.9631
1.7169 8.9568 -2.1434 0.9632
0.1010 9.0665 -2.1310 0.9634
-0.7043 9.0128 -2.1247 0.9635
-1.4992 8.8879 -2.1184 0.9636
-3.0334 8.4315 -2.1059 0.9639
-3.7611 8.1049 -2.0999 0.9640
-4.4551 7.7165 -2.0941 0.9641
-5.1106 7.2699 -2.0885 0.9641
-5.7227 6.7689 -2.0832 0.9642
-6.2873 6.2177 -2.0782 0.9643
-6.8006 5.6207 -2.0735 0.9644
-7.9989 3.6041 -2.0619 0.9646
-8.4885 2.1231 -2.0565 0.9647
-8.6353 1.3578 -2.0544 0.9647
-8.7155 0.5834 -2.0529 0.9647
-8.7286 -0.1945 -2.0519 0.9648
-8.5541 -1.7387 -2.0515 0.9648
-8.3678 -2.4939 -2.0521 0.9648
-8.1170 -3.2305 -2.0532 0.9647
-7.8034 -3.9432 -2.0548 0.9647
-7.4291 -4.6269 -2.0569 0.9647
-5.7458 -6.2123 -1.9888 0.9658
-4.9946 -6.4717 -1.9213 0.9670
-4.4081 -6.9051 -1.9253 0.9669
-3.7846 -7.2866 -1.9297 0.9668
-2.4449 -7.8817 -1.9394 0.9667
-1.7384 -8.0898 -1.9447 0.9666
-1.0143 -8.2354 -1.9501 0.9665
-0.2781 -8.3169 -1.9557 0.9664
0.4646 -8.3330 -1.9615 0.9663
1.2081 -8.2831 -1.9673 0.9662
2.6733 -7.9848 -1.9790 0.9660
4.0702 -7.4271 -1.9905 0.9658
5.3515 -6.6237 -2.0013 0.9656
7.4803 -5.3840 -2.1661 0.9628
8.7068 -3.2425 -2.1836 0.9625
9.2848 -0.8297 -2.1908 0.9624
8.4399 0.0000 -2.1852 0.9657
8.4088 0.7514 -2.1859 0.9657
8.3088 1.4969 -2.1859 0.9657
7.6077 3.6339 -2.1829 0.9658
7.2473 4.2926 -2.1809 0.9658
6.8285 4.9149 -2.1784 0.9658
5.8316 6.0298 -2.1719 0.9659
5.2624 6.5133 -2.1681 0.9660
4.6527 6.9423 -2.1638 0.9661
2.6354 7.8714 -2.1492 0.9663
1.9195 8.0547 -2.1439 0.9664
1.1919 8.1725 -2.1384 0.9665
-1.0015 8.1317 -2.1214 0.9667
-3.0895 7.5179 -2.1045 0.9670
-3.7368 7.1946 -2.0991 0.9671
-4.3515 6.8165 -2.0939 0.9671
-5.4658 5.9095 -2.0842 0.9673
-6.4008 4.8271 -2.0757 0.9674
-6.7928 4.2306 -2.0720 0.9675
-7.6367 2.2760 -2.0632 0.9676
-7.8012 1.5857 -2.0612 0.9676
-7.9052 0.8843 -2.0596 0.9677
-7.9297 -0.5308 -2.0577 0.9677
-7.7104 -1.9285 -2.0578 0.9677
-7.5109 -2.6081 -2.0586 0.9677
-7.2534 -3.2682 -2.0599 0.9677
-5.6828 -5.6198 -2.0693 0.9675
-5.1542 -6.0964 -2.0670 0.9676
-4.3712 -6.2181 -1.9680 0.9691
-3.1463 -6.7800 -1.9353 0.9696
-2.5361 -7.0492 -1.9397 0.9695
-1.9032 -7.2644 -1.9444 0.9694
-1.2522 -7.4234 -1.9492 0.9694
0.7595 -7.5499 -1.9647 0.9691
1.4323 -7.4724 -1.9700 0.9691
4.5723 -6.2055 -1.9958 0.9687
6.0416 -5.7141 -2.1531 0.9662
6.5615 -5.1816 -2.1647 0.9660
7.0101 -4.5858 -2.1689 0.9660
8.0095 -2.5827 -2.1789 0.9658
8.2167 -1.8617 -2.1814 0.9658
8.3572 -1.1240 -2.1833 0.9658
8.4329 0.3760 -2.1856 0.9657
8.2332 1.8654 -2.1858 0.9657
8.0318 2.5899 -2.1850 0.9657
7.7650 3.2926 -2.1838 0.9658
7.0450 4.6086 -2.1797 0.9658
6.5984 5.2107 -2.1769 0.9659
4.3343 7.1352 -2.1616 0.9661
3.6739 7.4763 -2.1568 0.9662
2.9870 7.7555 -2.1518 0.9662
2.2793 7.9712 -2.1466 0.9663
1.5568 8.1218 -2.1412 0.9664
0.0916 8.2258 -2.1299 0.9666
-0.6391 8.1793 -2.1242 0.9667
-2.0681 7.8937 -2.1128 0.9668
-2.7551 7.6580 -2.1072 0.9669
-4.0485 7.0122 -2.0965 0.9671
-4.6452 6.6080 -2.0914 0.9672
-5.2029 6.1540 -2.0865 0.9673
-5.7174 5.6541 -2.0820 0.9673
-6.1854 5.1123 -2.0777 0.9674
-6.9688 3.9206 -2.0703 0.9675
-7.7264 1.9325 -2.0621 0.9676
-7.8608 1.2360 -2.0603 0.9677
-7.9343 0.5311 -2.0589 0.9677
-7.9466 -0.1771 -2.0580 0.9677
-7.8976 -0.8835 -2.0576 0.9677
-7.6180 -2.2704 -2.0582 0.9677
-7.3893 -2.9409 -2.0592 0.9677
-7.1033 -3.5895 -2.0607 0.9677
-5.4261 -5.8666 -2.0691 0.9675
-3.4414 -6.6259 -1.9332 0.9696
-2.8443 -6.9212 -1.9375 0.9696
-1.5796 -7.3510 -1.9468 0.9694
-0.9214 -7.4814 -1.9517 0.9693
-0.2525 -7.5534 -1.9568 0.9693
2.4253 -7.2440 -1.9779 0.9689
3.0685 -7.0179 -1.9832 0.9688
3.6905 -6.7344 -1.9883 0.9688
5.6261 -5.8174 -2.0954 0.9671
7.5780 -3.6197 -2.1744 0.9659
7.8814 -2.9351 -2.1775 0.9658
8.1213 -2.2247 -2.1802 0.9658
7.6988 0.0000 -2.1795 0.9685
7.6703 0.6854 -2.1801 0.9685
7.5791 1.3654 -2.1801 0.9685
7.4260 2.0342 -2.1797 0.9685
7.2125 2.6860 -2.1788 0.9685
6.9404 3.3151 -2.1774 0.9685
6.6121 3.9164 -2.1755 0.9686
6.2307 4.4846 -2.1732 0.9686
5.7995 5.0150 -2.1705 0.9686
5.3224 5.5033 -2.1674 0.9687
4.8036 5.9455 -2.1638 0.9687
4.2478 6.3382 -2.1600 0.9688
2.4075 7.1907 -2.1467 0.9690
1.7539 7.3597 -2.1418 0.9690
-0.2510 7.5073 -2.1265 0.9693
-0.9159 7.4368 -2.1212 0.9693
-1.5703 7.3078 -2.1160 0.9694
-2.8274 6.8801 -2.1058 0.9696
-3.4205 6.5857 -2.1008 0.9696
-3.9841 6.2409 -2.0961 0.9697
-5.0062 5.4126 -2.0872 0.9698
-5.4575 4.9360 -2.0832 0.9699
-5.8646 4.4227 -2.0794 0.9699
-6.5354 3.3025 -2.0729 0.9700
-6.7946 2.7042 -2.0702 0.9701
-7.0005 2.0864 -2.0679 0.9701
-7.1519 1.4537 -2.0660 0.9701
-7.2707 -0.4867 -2.0629 0.9702
-7.1980 -1.1318 -2.0627 0.9702
-6.8865 -2.3913 -2.0637 0.9701
-6.6500 -2.9964 -2.0648 0.9701
-5.2081 -5.1504 -2.0736 0.9700
-4.7362 -5.6020 -2.0767 0.9700
-4.2174 -5.9994 -2.0760 0.9700
-2.8895 -6.2267 -1.9433 0.9719
0.0771 -6.9234 -1.9601 0.9716
1.3099 -6.8336 -1.9697 0.9715
1.9176 -6.7063 -1.9746 0.9714
2.5130 -6.5249 -1.9794 0.9714
3.6777 -6.0543 -2.0054 0.9710
4.3968 -5.9673 -2.0983 0.9697
5.0269 -5.6840 -2.1481 0.9689
6.3988 -4.1859 -2.1646 0.9687
7.6924 0.3430 -2.1798 0.9685
7.5102 1.7016 -2.1800 0.9685
7.3267 2.3626 -2.1793 0.9685
6.7831 3.6195 -2.1765 0.9685
6.0211 4.7548 -2.1719 0.9686
5.5664 5.2647 -2.1690 0.9687
3.9575 6.5149 -2.1579 0.9688
2.0824 7.2826 -2.1443 0.9690
1.4227 7.4219 -2.1393 0.9691
-0.5845 7.4795 -2.1238 0.9693
-1.8920 7.2217 -2.1134 0.9694
-5.2372 5.1792 -2.0851 0.9698
-6.9043 2.3974 -2.0690 0.9701
-7.2746 0.4870 -2.0640 0.9701
-7.2861 -0.1624 -2.0632 0.9702
-7.1407 -1.4514 -2.0628 0.9702
-6.9848 -2.0817 -2.0633 0.9702
-6.5122 -3.2908 -2.0656 0.9701
-6.1988 -3.8607 -2.0674 0.9701
-5.4286 -4.9099 -2.0721 0.9700
-4.9771 -5.3812 -2.0751 0.9700
-4.4834 -5.8094 -2.0774 0.9700
-3.9439 -6.1780 -2.0749 0.9700
-2.6048 -6.3384 -1.9400 0.9719
-2.0347 -6.5592 -1.9441 0.9719
-0.8433 -6.8472 -1.9530 0.9717
0.3859 -6.9216 -1.9625 0.9716
1.6150 -6.7768 -1.9722 0.9715
3.3723 -6.1537 -1.9865 0.9712
4.7570 -5.8879 -2.1429 0.9690
5.2882 -5.4679 -2.1534 0.9689
6.5843 -3.8999 -2.1664 0.9687
6.9156 -3.3033 -2.1696 0.9686
7.1916 -2.6782 -2.1725 0.9686
7.5679 -1.3634 -2.1769 0.9685
7.6646 -0.6849 -2.1784 0.9685
7.0437 0.6294 -2.1751 0.9708
6.9600 1.2539 -2.1752 0.9708
6.6236 2.4667 -2.1740 0.9709
5.3277 4.6070 -2.1664 0.9710
4.8900 5.0562 -2.1635 0.9710
4.4139 5.4632 -2.1603 0.9710
1.6130 6.7682 -2.1401 0.9713
-0.2310 6.9080 -2.1259 0.9715
-1.4455 6.7270 -2.1163 0.9716
-2.6037 6.3358 -2.1069 0.9717
-3.1505 6.0657 -2.1023 0.9718
-4.1590 5.3889 -2.0937 0.9719
-5.0300 4.5493 -2.0860 0.9720
-5.7387 3.5741 -2.0794 0.9721
-6.0258 3.0450 -2.0766 0.9721
-6.5958 1.3407 -2.0702 0.9722
-6.6846 0.7478 -2.0689 0.9722
-6.7215 0.1498 -2.0679 0.9723
-6.5207 -1.6310 -2.0674 0.9723
-6.3517 -2.2055 -2.0681 0.9723
-6.1333 -2.7635 -2.0691 0.9722
-5.8671 -3.3008 -2.0706 0.9722
-5.1990 -4.2971 -2.0746 0.9722
-4.8018 -4.7486 -2.0772 0.9721
-4.3662 -5.1644 -2.0801 0.9721
-3.8952 -5.5411 -2.0833 0.9721
-3.3890 -5.8700 -2.0848 0.9720
-2.8520 -6.1459 -2.0840 0.9720
-2.2341 -6.2099 -2.0299 0.9728
-1.6297 -6.2204 -1.9778 0.9734
0.0710 -6.3742 -1.9607 0.9737
0.6395 -6.3568 -1.9651 0.9736
2.9955 -6.0957 -2.0891 0.9720
3.6039 -5.9328 -2.1351 0.9714
4.1352 -5.6123 -2.1442 0.9712
5.5050 -4.3472 -2.1575 0.9711
5.8795 -3.8462 -2.1610 0.9710
6.2076 -3.3125 -2.1641 0.9710
6.4861 -2.7504 -2.1669 0.9709
6.7127 -2.1646 -2.1694 0.9709
7.0617 -0.3149 -2.1742 0.9709
6.8968 1.5626 -2.1751 0.9708
6.7284 2.1696 -2.1744 0.9708
6.5054 2.7585 -2.1734 0.9709
5.1139 4.8367 -2.1650 0.9710
4.6565 5.2652 -2.1619 0.9710
3.0842 6.2761 -2.1509 0.9712
1.9149 6.6967 -2.1423 0.9713
1.3084 6.8260 -2.1378 0.9713
0.6942 6.9003 -2.1331 0.9714
-0.5378 6.8830 -2.1235 0.9715
-2.3214 6.4526 -2.1092 0.9717
-2.8802 6.2067 -2.1046 0.9718
-3.9187 5.5744 -2.0958 0.9719
-4.3907 5.1933 -2.0917 0.9719
-4.8266 4.7731 -2.0879 0.9720
-5.2232 4.3171 -2.0843 0.9720
-5.5779 3.8290 -2.0810 0.9721
-5.8880 3.3125 -2.0780 0.9721
-6.1516 2.7718 -2.0753 0.9722
-6.3668 2.2108 -2.0730 0.9722
-6.5322 1.6338 -2.0711 0.9722
-6.7095 0.4492 -2.0683 0.9723
-6.7204 -0.1498 -2.0676 0.9723
-6.6792 -0.7472 -2.0672 0.9723
-6.4424 -1.9200 -2.0677 0.9723
-4.5886 -4.9612 -2.0786 0.9721
-0.7766 -6.3058 -1.9542 0.9738
-0.2128 -6.3639 -1.9585 0.9737
0.3553 -6.3718 -1.9629 0.9736
0.9231 -6.3292 -1.9673 0.9736
1.4861 -6.2361 -1.9718 0.9735
2.0654 -6.1692 -2.0010 0.9731
2.6766 -6.1216 -2.0550 0.9724
3.3224 -6.0627 -2.1264 0.9715
3.8727 -5.7785 -2.1396 0.9713
5.6979 -4.1011 -2.1593 0.9710
6.0496 -3.5832 -2.1626 0.9710
6.3532 -3.0347 -2.1656 0.9710
6.6061 -2.4601 -2.1682 0.9709
6.4276 1.1580 -2.1710 0.9728
4.9217 4.2559 -2.1628 0.9729
3.6075 5.3828 -2.1539 0.9731
3.1090 5.6732 -2.1504 0.9731
2.0465 6.1125 -2.1427 0.9732
1.4914 6.2582 -2.1385 0.9732
0.3567 6.3976 -2.1299 0.9734
-0.2137 6.3906 -2.1255 0.9734
-2.4103 5.8652 -2.1078 0.9736
-2.9170 5.6162 -2.1036 0.9737
-4.2733 4.6202 -2.0920 0.9738
-5.0088 3.7773 -2.0853 0.9739
-5.3176 3.3118 -2.0824 0.9739
-5.9837 1.7833 -2.0755 0.9740
-6.2308 0.1388 -2.0717 0.9741
-6.2169 -0.4162 -2.0712 0.9741
-6.1547 -0.9678 -2.0710 0.9741
-6.0448 -1.5119 -2.0712 0.9741
-5.8880 -2.0445 -2.0718 0.9741
-5.6853 -2.5617 -2.0728 0.9741
-5.4383 -3.0595 -2.0742 0.9740
-5.1486 -3.5343 -2.0759 0.9740
-4.8184 -3.9825 -2.0779 0.9740
-4.0458 -4.7854 -2.0830 0.9739
-3.1426 -5.4431 -2.0892 0.9739
-2.6501 -5.7108 -2.0927 0.9738
-1.0459 -6.2005 -2.0902 0.9738
-0.4849 -6.2053 -2.0690 0.9741
1.1854 -6.1843 -2.0931 0.9738
1.7528 -6.1299 -2.1193 0.9735
3.3415 -5.5008 -2.1394 0.9732
5.4325 -3.5538 -2.1579 0.9730
6.2005 -1.9994 -2.1656 0.9729
6.3593 -1.4408 -2.1675 0.9729
6.4668 -0.8697 -2.1689 0.9729
6.5218 -0.2908 -2.1700 0.9729
6.2139 2.0037 -2.1703 0.9729
5.4534 3.5675 -2.1662 0.9729
5.1092 4.0347 -2.1640 0.9729
4.3023 4.8647 -2.1587 0.9730
3.3614 5.5337 -2.1522 0.9731
2.8507 5.8010 -2.1485 0.9731
1.7704 6.1916 -2.1406 0.9732
1.2100 6.3122 -2.1364 0.9733
0.6420 6.3819 -2.1321 0.9733
0.0713 6.4005 -2.1277 0.9734
-1.0602 6.2853 -2.1188 0.9735
-1.6120 6.1531 -2.1144 0.9735
-2.1489 5.9728 -2.1100 0.9736
-4.4711 4.4216 -2.0902 0.9738
-4.8392 3.9997 -2.0869 0.9739
-5.1683 3.5479 -2.0838 0.9739
-5.4563 3.0697 -2.0810 0.9740
-5.9010 2.0490 -2.0764 0.9740
-6.2197 0.4164 -2.0721 0.9741
-6.1918 -0.6927 -2.0710 0.9741
-5.9722 -1.7799 -2.0715 0.9741
-5.2987 -3.3000 -2.0750 0.9740
-4.6387 -4.1955 -2.0791 0.9740
-4.2521 -4.5973 -2.0816 0.9739
-3.3793 -5.2935 -2.0876 0.9739
-0.7640 -6.2033 -2.0776 0.9740
0.3459 -6.2028 -2.0651 0.9742
0.9033 -6.1937 -2.0806 0.9740
1.4706 -6.1711 -2.1087 0.9736
2.5665 -5.8699 -2.1295 0.9734
3.0899 -5.6383 -2.1372 0.9733
3.5867 -5.3517 -2.1415 0.9732
4.0564 -5.0206 -2.1455 0.9732
4.4951 -4.6479 -2.1493 0.9731
5.2650 -3.7895 -2.1563 0.9730
5.5893 -3.3106 -2.1594 0.9730
5.8692 -2.8035 -2.1621 0.9730
6.1023 -2.2725 -2.1645 0.9729
6.5009 -0.5809 -2.1695 0.9729
6.0591 0.0000 -2.1668 0.9746
6.0363 0.5394 -2.1672 0.9746
5.8443 1.6009 -2.1669 0.9746
4.9066 3.5316 -2.1619 0.9746
3.7863 4.6864 -2.1545 0.9747
3.3495 4.9978 -2.1515 0.9748
2.8869 5.2680 -2.1482 0.9748
2.4027 5.4951 -2.1447 0.9748
1.9008 5.6774 -2.1410 0.9749
0.3315 5.9447 -2.1292 0.9750
-0.1986 5.9391 -2.1251 0.9751
-1.7504 5.6426 -2.1127 0.9752
-2.2414 5.4540 -2.1087 0.9753
-2.7129 5.2232 -2.1048 0.9753
-3.1613 4.9521 -2.1010 0.9754
-3.5833 4.6430 -2.0974 0.9754
-3.9758 4.2986 -2.0939 0.9754
-4.6611 3.5151 -2.0877 0.9755
-5.4052 2.1512 -2.0804 0.9756
-5.7688 0.6453 -2.0758 0.9756
-5.7881 -0.3875 -2.0745 0.9757
-5.7303 -0.9010 -2.0744 0.9757
-5.6279 -1.4076 -2.0746 0.9757
-5.2930 -2.3849 -2.0761 0.9756
-5.0627 -2.8482 -2.0773 0.9756
-4.7928 -3.2901 -2.0789 0.9756
-4.1417 -4.0958 -2.0830 0.9756
-3.3584 -4.7774 -2.0883 0.9755
-2.4656 -5.3132 -2.0946 0.9754
-1.4895 -5.6854 -2.1018 0.9753
-0.9789 -5.8035 -2.1047 0.9753
-0.4591 -5.8752 -2.1074 0.9753
0.0658 -5.9027 -2.1110 0.9752
0.5921 -5.8853 -2.1153 0.9752
1.1162 -5.8231 -2.1203 0.9751
2.1408 -5.5584 -2.1301 0.9750
2.6320 -5.3559 -2.1341 0.9750
3.1040 -5.1098 -2.1380 0.9749
4.3658 -4.1292 -2.1489 0.9748
5.0433 -3.2992 -2.1551 0.9747
5.3236 -2.8408 -2.1578 0.9747
5.7548 -1.8557 -2.1623 0.9746
5.9018 -1.3372 -2.1640 0.9746
6.0012 -0.8071 -2.1654 0.9746
6.0521 -0.2699 -2.1664 0.9746
5.9104 1.3391 -2.1672 0.9746
5.3399 2.8495 -2.1645 0.9746
4.7422 3.7449 -2.1609 0.9747
3.9940 4.5160 -2.1559 0.9747
3.5713 4.8471 -2.1530 0.9747
2.6473 5.3871 -2.1465 0.9748
1.6445 5.7513 -2.1391 0.9749
0.0663 5.9478 -2.1271 0.9750
-0.4625 5.9186 -2.1230 0.9751
-1.4987 5.7205 -2.1147 0.9752
-1.9981 5.5537 -2.1107 0.9752
-4.1601 4.1140 -2.0923 0.9755
-4.5031 3.7219 -2.0892 0.9755
-4.8099 3.3018 -2.0863 0.9755
-5.0783 2.8570 -2.0837 0.9756
-5.4931 1.9074 -2.0794 0.9756
-5.7359 0.9019 -2.0764 0.9756
-5.8002 -0.1293 -2.0747 0.9757
-5.6846 -1.1554 -2.0744 0.9757
-5.3926 -2.1462 -2.0756 0.9756
-5.1829 -2.6190 -2.0766 0.9756
-4.9326 -3.0721 -2.0781 0.9756
-4.3177 -3.9051 -2.0819 0.9756
-3.5654 -4.6199 -2.0869 0.9755
-1.7398 -5.6085 -2.0999 0.9754
-0.7199 -5.8448 -2.1059 0.9753
-0.1971 -5.8945 -2.1091 0.9753
0.8546 -5.8598 -2.1177 0.9752
1.3762 -5.7750 -2.1230 0.9751
1.8892 -5.6428 -2.1280 0.9750
3.3315 -4.9710 -2.1400 0.9749
3.7673 -4.6628 -2.1437 0.9749
4.1742 -4.3161 -2.1472 0.9748
5.6638 -2.1092 -2.1613 0.9747
5.8342 -1.5982 -2.1632 0.9746
5.9576 -1.0733 -2.1648 0.9746
6.0328 -0.5391 -2.1660 0.9746
5.6245 0.5026 -2.1640 0.9761
5.2896 1.9699 -2.1631 0.9761
4.8512 2.8734 -2.1607 0.9761
4.5727 3.2912 -2.1590 0.9762
4.2576 3.6817 -2.1570 0.9762
3.9089 4.0418 -2.1547 0.9762
2.2404 5.1238 -2.1430 0.9763
0.8030 5.5060 -2.1323 0.9764
-0.6765 5.4928 -2.1209 0.9766
-1.1606 5.4010 -2.1170 0.9766
-1.6337 5.2667 -2.1132 0.9767
-2.0923 5.0913 -2.1094 0.9767
-2.9518 4.6239 -2.1022 0.9768
-3.3462 4.3358 -2.0988 0.9768
-4.6233 2.8794 -2.0873 0.9769
-5.3185 1.0810 -2.0798 0.9770
-5.4090 -0.3621 -2.0775 0.9770
-5.3550 -0.8420 -2.0773 0.9770
-4.9460 -2.2286 -2.0789 0.9770
-4.4783 -3.0741 -2.0816 0.9770
-4.1905 -3.4635 -2.0834 0.9770
-3.8694 -3.8265 -2.0854 0.9770
-3.1371 -4.4625 -2.0904 0.9769
-1.8547 -5.1552 -2.0995 0.9768
-1.3908 -5.3085 -2.1030 0.9768
-0.9143 -5.4204 -2.1065 0.9767
1.0423 -5.4375 -2.1217 0.9766
1.5249 -5.3328 -2.1255 0.9765
2.4550 -4.9957 -2.1331 0.9764
2.8949 -4.7656 -2.1368 0.9764
3.7060 -4.1904 -2.1437 0.9763
4.0703 -3.8497 -2.1470 0.9763
4.7010 -3.0753 -2.1527 0.9762
4.9618 -2.6477 -2.1552 0.9762
5.3630 -1.7294 -2.1594 0.9762
5.5921 -0.7521 -2.1623 0.9761
5.5967 0.7527 -2.1641 0.9761
5.3730 1.7326 -2.1634 0.9761
5.1955 2.2031 -2.1626 0.9761
4.7166 3.0855 -2.1599 0.9761
3.3292 4.5184 -2.1508 0.9762
0.5565 5.5315 -2.1305 0.9765
0.0618 5.5491 -2.1266 0.9765
-2.3150 4.9887 -2.1076 0.9767
-2.7451 4.7547 -2.1040 0.9768
-3.8854 3.8424 -2.0941 0.9769
-4.2062 3.4765 -2.0912 0.9769
-4.9580 2.2339 -2.0839 0.9770
-5.3599 0.8428 -2.0792 0.9770
-5.4111 0.3622 -2.0783 0.9770
-5.4203 -0.1208 -2.0777 0.9770
-5.3873 -0.6026 -2.0774 0.9770
-5.3123 -1.0798 -2.0774 0.9770
-5.0393 -2.0056 -2.0785 0.9770
-4.8431 -2.4473 -2.0795 0.9770
-4.6090 -2.8705 -2.0808 0.9770
-4.3387 -3.2719 -2.0824 0.9770
-4.0340 -3.6485 -2.0844 0.9770
-2.9371 -4.6009 -2.0918 0.9769
-1.1539 -5.3697 -2.1047 0.9767
-0.6725 -5.4605 -2.1084 0.9767
-0.1842 -5.5084 -2.1121 0.9767
0.3074 -5.5128 -2.1159 0.9766
0.7983 -5.4735 -2.1197 0.9766
1.7625 -5.2644 -2.1275 0.9765
3.1069 -4.6358 -2.1386 0.9764
3.5129 -4.3479 -2.1421 0.9763
3.8919 -4.0242 -2.1454 0.9763
4.2408 -3.6672 -2.1485 0.9763
4.5565 -3.2796 -2.1514 0.9762
4.8362 -2.8645 -2.1540 0.9762
5.2784 -1.9657 -2.1585 0.9762
5.5515 -1.0002 -2.1617 0.9761
5.6214 -0.5023 -2.1628 0.9761
5.2794 0.0000 -2.1607 0.9774
4.9464 1.8421 -2.1603 0.9774
4.7607 2.2740 -2.1593 0.9775
4.5368 2.6871 -2.1581 0.9775
2.9211 4.3586 -2.1474 0.9776
2.5182 4.5952 -2.1446 0.9776
1.6587 4.9544 -2.1383 0.9777
0.7516 5.1536 -2.1315 0.9777
-1.5300 4.9324 -2.1136 0.9779
-1.9597 4.7687 -2.1101 0.9780
-2.3725 4.5679 -2.1067 0.9780
-2.7653 4.3318 -2.1033 0.9780
-3.1351 4.0623 -2.1002 0.9781
-3.4793 3.7617 -2.0972 0.9781
-3.7952 3.4325 -2.0943 0.9781
-4.0805 3.0772 -2.0917 0.9782
-4.3332 2.6987 -2.0893 0.9782
-4.5516 2.3000 -2.0872 0.9782
-2.1365 0.4343 -0.8923 0.9906
-2.1261 0.2378 -0.8756 0.9908
-2.1285 0.0474 -0.8714 0.9908
-4.6368 -2.0893 -2.0815 0.9783
-4.1980 -2.8817 -2.0840 0.9782
-3.2967 -3.8993 -2.0898 0.9782
-2.5593 -4.4328 -2.0949 0.9781
-2.1575 -4.6494 -2.0978 0.9781
-0.8564 -5.0773 -2.1074 0.9780
-0.4018 -5.1418 -2.1108 0.9780
0.9759 -5.0910 -2.1216 0.9778
2.7092 -4.4599 -2.1357 0.9777
3.1002 -4.2076 -2.1390 0.9777
3.4675 -3.9208 -2.1422 0.9776
4.1189 -3.2527 -2.1480 0.9776
4.3974 -2.8766 -2.1506 0.9775
4.6410 -2.4765 -2.1530 0.9775
5.1432 -1.1653 -2.1583 0.9775
5.2294 -0.7033 -2.1595 0.9775
5.2734 -0.2352 -2.1604 0.9774
5.2748 0.2352 -2.1610 0.9774
5.2334 0.7038 -2.1612 0.9774
5.0244 1.6201 -2.1606 0.9774
4.6534 2.4832 -2.1587 0.9775
4.4110 2.8856 -2.1573 0.9775
3.8229 3.6157 -2.1536 0.9775
3.4823 3.9375 -2.1513 0.9775
2.3094 4.6995 -2.1431 0.9776
1.8792 4.8793 -2.1400 0.9777
0.9813 5.1191 -2.1333 0.9777
0.0579 5.1947 -2.1262 0.9778
-0.4040 5.1705 -2.1226 0.9778
-0.8612 5.1053 -2.1190 0.9779
-1.3099 4.9999 -2.1154 0.9779
-1.7468 4.8553 -2.1118 0.9779
-2.9533 4.2011 -2.1017 0.9780
-3.3106 3.9158 -2.0986 0.9781
-4.6473 2.0940 -2.0862 0.9782
-2.1308 0.5330 -0.8989 0.9906
-2.1285 -0.0474 -0.8714 0.9908
-2.1261 -0.2378 -0.8756 0.9908
-2.1365 -0.4343 -0.8923 0.9906
-4.8714 -1.4518 -2.0804 0.9783
-4.5403 -2.2943 -2.0820 0.9783
-3.7812 -3.4198 -2.0866 0.9782
-2.7524 -4.3116 -2.0936 0.9781
-1.9497 -4.7443 -2.0993 0.9781
-1.5219 -4.9063 -2.1024 0.9780
-1.0809 -5.0301 -2.1057 0.9780
-0.6299 -5.1146 -2.1091 0.9780
-0.1725 -5.1589 -2.1126 0.9779
2.0855 -4.7696 -2.1305 0.9778
3.2870 -4.0684 -2.1406 0.9776
3.6413 -3.7651 -2.1437 0.9776
3.9674 -3.4307 -2.1466 0.9776
4.5237 -2.6794 -2.1518 0.9775
4.9366 -1.8384 -2.1560 0.9775
5.0845 -1.3928 -2.1576 0.9775
4.8745 0.8782 -2.1586 0.9786
4.7764 1.3084 -2.1583 0.9786
4.6398 1.7279 -2.1578 0.9786
4.2558 2.5207 -2.1557 0.9786
3.7359 3.2305 -2.1525 0.9787
3.0977 3.8341 -2.1482 0.9787
0.2718 4.8741 -2.1275 0.9789
-0.1629 4.8712 -2.1241 0.9790
-1.0207 4.7499 -2.1173 0.9790
-1.4371 4.6328 -2.1140 0.9791
-1.8409 4.4795 -2.1107 0.9791
-2.2289 4.2913 -2.1074 0.9791
-3.5666 3.2258 -2.0959 0.9792
-3.8351 2.8922 -2.0934 0.9793
-4.0729 2.5366 -2.0911 0.9793
-4.2784 2.1619 -2.0891 0.9793
-4.4500 1.7711 -2.0873 0.9793
-1.9300 0.3923 -0.8583 0.9914
-1.9433 0.2174 -0.8522 0.9915
-1.9479 -0.1304 -0.8508 0.9915
-1.9080 -0.4772 -0.8571 0.9915
-4.1692 -2.3456 -2.0848 0.9793
-3.9464 -2.7090 -2.0861 0.9793
-3.4091 -3.3713 -2.0895 0.9793
-3.0986 -3.6650 -2.0916 0.9793
-2.7631 -3.9305 -2.0939 0.9793
-2.0274 -4.3690 -2.0991 0.9792
-1.6327 -4.5383 -2.1020 0.9792
0.0541 -4.8519 -2.1147 0.9791
0.9164 -4.7807 -2.1215 0.9790
1.3404 -4.6877 -2.1248 0.9790
2.1571 -4.3895 -2.1315 0.9789
2.5430 -4.1864 -2.1347 0.9789
3.5735 -3.3798 -2.1436 0.9788
4.3542 -2.3235 -2.1509 0.9787
4.5479 -1.9285 -2.1529 0.9787
4.7051 -1.5172 -2.1546 0.9787
4.8247 -1.0931 -2.1560 0.9786
4.9054 -0.6597 -2.1571 0.9786
4.9477 0.2206 -2.1584 0.9786
4.9088 0.6602 -2.1586 0.9786
4.8304 1.0944 -2.1585 0.9786
3.2672 3.6943 -2.1494 0.9787
2.5546 4.2054 -2.1444 0.9788
2.1673 4.4104 -2.1417 0.9788
1.7638 4.5795 -2.1387 0.9788
1.3472 4.7115 -2.1356 0.9788
0.9211 4.8055 -2.1325 0.9789
0.4890 4.8609 -2.1292 0.9789
-2.0370 4.3897 -2.1090 0.9791
-2.4160 4.1846 -2.1059 0.9791
-3.4215 3.3836 -2.0972 0.9792
-3.7046 3.0619 -2.0946 0.9792
-3.9579 2.7170 -2.0922 0.9793
-4.1798 2.3515 -2.0901 0.9793
-1.9397 0.3050 -0.8557 0.9915
-1.9470 -0.0434 -0.8487 0.9915
-1.9433 -0.2174 -0.8522 0.9915
-1.9300 -0.3923 -0.8583 0.9914
-1.8741 -0.5585 -0.8523 0.9915
-4.4415 -1.7677 -2.0834 0.9794
-4.0618 -2.5297 -2.0854 0.9793
-3.8232 -2.8832 -2.0869 0.9793
-3.5543 -3.2146 -2.0886 0.9793
-2.5868 -4.0521 -2.0951 0.9792
-2.2186 -4.2716 -2.0977 0.9792
-1.8320 -4.4580 -2.1005 0.9792
-1.0155 -4.7257 -2.1065 0.9791
-0.5917 -4.8046 -2.1097 0.9791
1.1293 -4.7390 -2.1232 0.9790
2.3522 -4.2923 -2.1331 0.9789
3.0850 -3.8183 -2.1394 0.9788
3.4172 -3.5334 -2.1423 0.9788
3.7229 -3.2193 -2.1450 0.9788
4.4555 -2.1282 -2.1519 0.9787
4.6311 -1.7247 -2.1537 0.9787
4.8699 -0.8774 -2.1566 0.9786
4.6576 0.0000 -2.1559 0.9797
4.6398 0.4146 -2.1563 0.9797
4.3639 1.6251 -2.1555 0.9797
4.2003 2.0063 -2.1547 0.9797
4.0030 2.3710 -2.1536 0.9797
3.5142 3.0389 -2.1505 0.9797
2.5789 3.8480 -2.1442 0.9798
1.8513 4.2340 -2.1390 0.9798
1.4651 4.3762 -2.1362 0.9799
0.6642 4.5538 -2.1302 0.9799
0.2558 4.5881 -2.1270 0.9799
-0.1533 4.5858 -2.1239 0.9800
-2.0992 4.0417 -2.1082 0.9801
-2.7750 3.5957 -2.1024 0.9802
-3.0801 3.3302 -2.0998 0.9802
-3.6135 2.7250 -2.0949 0.9802
-1.5924 0.4746 -0.7692 0.9927
-1.6373 0.3328 -0.7734 0.9927
-1.6716 0.0373 -0.7739 0.9927
-1.6521 -0.2598 -0.7741 0.9927
-1.6165 -0.4043 -0.7713 0.9927
-1.5621 -0.5424 -0.7654 0.9927
-4.1084 -1.8512 -2.0859 0.9803
-3.7191 -2.5530 -2.0881 0.9803
-3.4795 -2.8759 -2.0896 0.9803
-3.2124 -3.1768 -2.0913 0.9803
-2.2660 -3.9248 -2.0978 0.9802
-1.9100 -4.1159 -2.1003 0.9802
-1.5380 -4.2750 -2.1030 0.9802
1.2618 -4.4129 -2.1246 0.9800
2.0303 -4.1315 -2.1308 0.9799
3.6363 -2.8715 -2.1447 0.9798
4.2780 -1.8140 -2.1509 0.9797
4.5380 -1.0282 -2.1538 0.9797
4.6534 0.2075 -2.1561 0.9797
4.5430 1.0293 -2.1562 0.9797
3.8922 2.5462 -2.1529 0.9797
3.0737 3.4754 -2.1476 0.9798
1.6597 4.3094 -2.1376 0.9799
0.8670 4.5229 -2.1317 0.9799
0.4603 4.5755 -2.1286 0.9799
-0.3572 4.5710 -2.1223 0.9800
-1.1585 4.4219 -2.1159 0.9801
-1.5451 4.2948 -2.1128 0.9801
-2.6138 3.7182 -2.1038 0.9802
-2.9305 3.4663 -2.1011 0.9802
-3.2235 3.1877 -2.0985 0.9802
-3.9386 2.2158 -2.0918 0.9803
-4.1166 1.8549 -2.0900 0.9803
-1.6521 0.2598 -0.7741 0.9927
-3.8279 -2.3841 -2.0874 0.9803
-3.0691 -3.3183 -2.0922 0.9803
-2.4372 -3.8177 -2.0966 0.9802
-1.7258 -4.1995 -2.1016 0.9802
-1.3470 -4.3422 -2.1044 0.9802
-0.9565 -4.4509 -2.1073 0.9801
-0.5573 -4.5249 -2.1103 0.9801
0.2546 -4.5655 -2.1166 0.9800
2.9030 -3.5931 -2.1382 0.9798
3.5028 -3.0290 -2.1435 0.9798
3.9928 -2.3649 -2.1481 0.9798
4.1912 -2.0020 -2.1500 0.9797
4.4864 -1.2289 -2.1532 0.9797
4.5805 -0.8252 -2.1544 0.9797
4.6377 -0.4144 -2.1553 0.9797
4.3741 0.3909 -2.1542 0.9806
4.1141 1.5321 -2.1535 0.9806
3.9600 1.8915 -2.1527 0.9806
3.7741 2.2354 -2.1516 0.9806
3.5580 2.5609 -2.1503 0.9807
3.3135 2.8653 -2.1488 0.9807
3.0428 3.1463 -2.1470 0.9807
2.7482 3.4014 -2.1450 0.9807
2.0971 3.8267 -2.1404 0.9807
1.7461 3.9934 -2.1379 0.9808
-0.5285 4.2908 -2.1206 0.9809
-0.9070 4.2207 -2.1176 0.9809
-1.6364 3.9818 -2.1117 0.9810
-1.9816 3.8152 -2.1088 0.9810
-3.1729 2.8697 -2.0985 0.9811
-3.6241 2.2571 -2.0943 0.9812
-3.8074 1.9240 -2.0925 0.9812
-1.3059 0.5197 -0.6895 0.9938
-1.3200 0.3934 -0.6756 0.9939
-1.3047 0.2652 -0.6531 0.9941
-1.3536 0.0302 -0.6641 0.9940
-1.3513 -0.0905 -0.6643 0.9940
-1.3149 -0.3289 -0.6649 0.9940
-1.2865 -0.5797 -0.6922 0.9937
-3.5125 -2.4112 -2.0898 0.9812
-3.2861 -2.7161 -2.0912 0.9812
-3.0337 -3.0001 -2.0929 0.9812
-2.7571 -3.2611 -2.0947 0.9812
-2.4583 -3.4970 -2.0968 0.9811
-2.1395 -3.7058 -2.0990 0.9811
-1.8033 -3.8860 -2.1014 0.9811
0.0480 -4.3120 -2.1153 0.9810
0.4322 -4.2967 -2.1183 0.9809
2.2576 -3.7166 -2.1331 0.9808
2.8881 -3.2657 -2.1385 0.9808
3.1710 -2.9992 -2.1410 0.9807
3.6602 -2.3944 -2.1454 0.9807
4.0336 -1.7104 -2.1491 0.9807
4.1728 -1.3455 -2.1506 0.9807
4.2784 -0.9694 -2.1519 0.9806
4.3497 -0.5850 -2.1529 0.9806
4.3870 0.1956 -2.1540 0.9806
4.3525 0.5854 -2.1542 0.9806
4.2829 0.9704 -2.1541 0.9806
3.8709 2.0656 -2.1522 0.9806
3.4392 2.7159 -2.1496 0.9807
3.1813 3.0089 -2.1479 0.9807
2.8983 3.2772 -2.1460 0.9807
2.5926 3.5187 -2.1439 0.9807
2.2667 3.7315 -2.1417 0.9807
1.9234 3.9140 -2.1392 0.9808
1.5655 4.0647 -2.1366 0.9808
-0.7186 4.2599 -2.1191 0.9809
-1.0933 4.1731 -2.1161 0.9810
-1.4584 4.0536 -2.1131 0.9810
-1.8109 3.9023 -2.1102 0.9810
-2.1481 3.7207 -2.1074 0.9810
-2.4676 3.5102 -2.1047 0.9811
-2.7668 3.2726 -2.1021 0.9811
-3.2958 2.7240 -2.0974 0.9811
-1.3149 0.3289 -0.6649 0.9940
-1.3513 0.0905 -0.6643 0.9940
-1.3047 -0.2652 -0.6531 0.9941
-1.3200 -0.3934 -0.6756 0.9939
-1.3059 -0.5197 -0.6895 0.9938
-3.6153 -2.2517 -2.0892 0.9812
-3.4027 -2.5661 -2.0905 0.9812
-2.8983 -3.1336 -2.0938 0.9812
-2.6103 -3.3823 -2.0957 0.9811
-1.9735 -3.7996 -2.1002 0.9811
-1.6294 -3.9648 -2.1027 0.9811
-0.5260 -4.2710 -2.1109 0.9810
0.6237 -4.2762 -2.1198 0.9809
1.0032 -4.2097 -2.1228 0.9809
1.3759 -4.1095 -2.1258 0.9809
1.7386 -3.9763 -2.1287 0.9809
2.0884 -3.8109 -2.1316 0.9808
2.4225 -3.6147 -2.1345 0.9808
3.0325 -3.1356 -2.1397 0.9808
3.3033 -2.8565 -2.1422 0.9807
3.5482 -2.5538 -2.1444 0.9807
3.9519 -1.8877 -2.1483 0.9807
4.1073 -1.5296 -2.1499 0.9807
4.2298 -1.1587 -2.1513 0.9807
4.1481 0.0000 -2.1520 0.9815
4.1322 0.3693 -2.1523 0.9815
4.0010 1.0960 -2.1521 0.9815
3.8867 1.4474 -2.1516 0.9815
3.1307 2.7072 -2.1472 0.9815
2.8751 2.9728 -2.1455 0.9815
2.5968 3.2141 -2.1436 0.9816
2.2982 3.4291 -2.1416 0.9816
1.9818 3.6163 -2.1393 0.9816
1.6502 3.7741 -2.1369 0.9816
1.3062 3.9014 -2.1344 0.9816
0.5923 4.0610 -2.1291 0.9817
-1.5476 3.7658 -2.1121 0.9818
-2.4782 3.2111 -2.1043 0.9819
-2.7511 2.9744 -2.1019 0.9819
-3.0017 2.7149 -2.0997 0.9819
-3.2282 2.4345 -2.0976 0.9819
-1.0665 0.5389 -0.6199 0.9946
-1.1070 0.4406 -0.6181 0.9946
-1.1333 0.2303 -0.5999 0.9948
-1.1785 0.0263 -0.6115 0.9947
-1.0898 -0.4910 -0.6201 0.9946
-2.0241 -3.5058 -2.1001 0.9819
-1.0295 -3.9295 -2.1073 0.9819
-0.6765 -4.0106 -2.1100 0.9818
0.4087 -4.0628 -2.1183 0.9818
1.4735 -3.8258 -2.1269 0.9817
2.7295 -3.0863 -2.1374 0.9816
2.9967 -2.8342 -2.1398 0.9816
3.2404 -2.5589 -2.1420 0.9816
3.4586 -2.2625 -2.1440 0.9815
3.6493 -1.9473 -2.1459 0.9815
4.1093 -0.5526 -2.1510 0.9815
4.1435 -0.1848 -2.1517 0.9815
4.0461 0.9167 -2.1522 0.9815
3.2494 2.5660 -2.1479 0.9815
3.0059 2.8429 -2.1464 0.9815
2.1421 3.5263 -2.1405 0.9816
1.8177 3.6990 -2.1381 0.9816
1.1304 3.9533 -2.1331 0.9816
0.7731 4.0332 -2.1304 0.9817
0.4105 4.0807 -2.1277 0.9817
0.0456 4.0956 -2.1249 0.9817
-0.6794 4.0280 -2.1192 0.9818
-1.0339 3.9462 -2.1163 0.9818
-1.3792 3.8335 -2.1135 0.9818
-1.7127 3.6907 -2.1108 0.9818
-3.3319 2.2872 -2.0966 0.9820
-1.0898 0.4910 -0.6201 0.9946
-1.1275 0.2820 -0.6029 0.9948
-1.1517 0.1811 -0.6048 0.9948
-1.1739 0.0786 -0.6103 0.9947
-1.1333 -0.2303 -0.5999 0.9948
-1.1070 -0.4406 -0.6181 0.9946
-1.0665 -0.5389 -0.6199 0.9946
-3.2198 -2.4281 -2.0921 0.9820
-2.7423 -2.9649 -2.0952 0.9820
-1.8669 -3.5944 -2.1012 0.9819
-1.5413 -3.7505 -2.1036 0.9819
-1.2028 -3.8774 -2.1061 0.9819
-0.1362 -4.0729 -2.1141 0.9818
0.2272 -4.0743 -2.1169 0.9818
0.9485 -3.9801 -2.1226 0.9817
1.3007 -3.8851 -2.1255 0.9817
1.9741 -3.6023 -2.1310 0.9817
2.2897 -3.4165 -2.1337 0.9816
2.5878 -3.2030 -2.1362 0.9816
2.8659 -2.9633 -2.1386 0.9816
3.1216 -2.6994 -2.1409 0.9816
3.8806 -1.4452 -2.1482 0.9815
3.9962 -1.0947 -2.1495 0.9815
4.1306 -0.3691 -2.1514 0.9815
2.0429 0.0000 -1.1189 0.9907
1.9714 0.7342 -1.1522 0.9905
3.5408 1.6913 -2.1492 0.9823
3.1817 2.2901 -2.1471 0.9823
2.7215 2.8140 -2.1441 0.9823
2.1757 3.2463 -2.1404 0.9823
1.5624 3.5733 -2.1360 0.9824
1.2368 3.6940 -2.1336 0.9824
0.5609 3.8457 -2.1286 0.9824
-0.1295 3.8745 -2.1232 0.9825
-0.4733 3.8427 -2.1205 0.9825
-0.8124 3.7805 -2.1178 0.9825
-1.1442 3.6885 -2.1152 0.9825
-1.7757 3.4187 -2.1100 0.9826
-2.0705 3.2433 -2.1075 0.9826
-2.6069 2.8186 -2.1028 0.9826
-2.8446 2.5728 -2.1007 0.9827
-3.2499 2.0240 -2.0969 0.9827
-0.9638 0.3836 -0.5681 0.9953
-1.0000 0.2032 -0.5589 0.9954
-1.0166 -0.1599 -0.5637 0.9953
-0.9847 -0.2463 -0.5559 0.9954
-0.9756 -0.3388 -0.5656 0.9953
-0.9472 -0.4268 -0.5690 0.9953
-0.9240 -0.5198 -0.5806 0.9952
-2.9472 -2.4359 -2.0942 0.9827
-2.2041 -3.1354 -2.0991 0.9827
-1.9181 -3.3223 -2.1011 0.9827
-1.6165 -3.4834 -2.1033 0.9826
-1.3014 -3.6174 -2.1056 0.9826
-0.9754 -3.7231 -2.1080 0.9826
-0.6409 -3.7997 -2.1105 0.9826
-0.3006 -3.8464 -2.1131 0.9826
0.0430 -3.8627 -2.1157 0.9825
0.3871 -3.8484 -2.1184 0.9825
1.0661 -3.7282 -2.1238 0.9825
2.0206 -3.3264 -2.1317 0.9824
2.5842 -2.9220 -2.1365 0.9824
2.8370 -2.6832 -2.1387 0.9823
3.2739 -2.1417 -2.1427 0.9823
3.4544 -1.8433 -2.1445 0.9823
1.9895 -0.6415 -1.1449 0.9905
2.0042 -0.4541 -1.1255 0.9907
2.0226 -0.2720 -1.1178 0.9907
2.0226 0.2720 -1.1178 0.9907
2.0041 0.4541 -1.1255 0.9907
3.4612 1.8470 -2.1488 0.9823
3.2815 2.1467 -2.1477 0.9823
3.0756 2.4288 -2.1464 0.9823
2.8453 2.6910 -2.1449 0.9823
2.5924 2.9313 -2.1433 0.9823
1.7210 3.5020 -2.1372 0.9824
1.0704 3.7433 -2.1324 0.9824
0.7321 3.8192 -2.1299 0.9824
0.3888 3.8644 -2.1272 0.9824
0.0432 3.8788 -2.1246 0.9825
-0.6436 3.8153 -2.1192 0.9825
-2.4801 2.9335 -2.1039 0.9826
-2.7285 2.6983 -2.1018 0.9827
-2.9550 2.4423 -2.0997 0.9827
-0.9240 0.5198 -0.5806 0.9952
-0.9847 0.2463 -0.5559 0.9954
-1.0376 0.0695 -0.5696 0.9953
-1.0415 -0.0232 -0.5706 0.9953
-1.0293 -0.1151 -0.5673 0.9953
-1.0000 -0.2033 -0.5589 0.9954
-3.0518 -2.3015 -2.0935 0.9827
-2.5990 -2.8101 -2.0965 0.9827
-1.4605 -3.5539 -2.1044 0.9826
-1.1396 -3.6739 -2.1068 0.9826
-0.8091 -3.7651 -2.1092 0.9826
0.5586 -3.8298 -2.1198 0.9825
2.9552 -2.5555 -2.1398 0.9823
3.3675 -1.9946 -2.1436 0.9823
3.5344 -1.6882 -2.1453 0.9823
1.9715 -0.7342 -1.1522 0.9905
2.0004 -0.5480 -1.1360 0.9906
2.0036 -0.3610 -1.1150 0.9908
2.0356 -0.1819 -1.1193 0.9907
1.8754 0.0000 -1.0828 0.9914
1.8700 0.1671 -1.0839 0.9914
1.8426 0.3320 -1.0810 0.9914
1.7194 0.8213 -1.1001 0.9912
3.0164 2.1710 -2.1457 0.9830
2.8094 2.4294 -2.1444 0.9830
2.5802 2.6680 -2.1429 0.9830
2.0629 3.0781 -2.1393 0.9830
1.7791 3.2464 -2.1373 0.9830
1.4816 3.3885 -2.1352 0.9831
0.8555 3.5897 -2.1306 0.9831
0.5320 3.6474 -2.1281 0.9831
-0.4490 3.6453 -2.1205 0.9832
-0.7707 3.5865 -2.1179 0.9832
-1.0856 3.4995 -2.1154 0.9832
-1.3911 3.3850 -2.1129 0.9832
-1.6849 3.2440 -2.1105 0.9833
-1.9647 3.0777 -2.1081 0.9833
-2.2285 2.8875 -2.1058 0.9833
-2.4741 2.6750 -2.1037 0.9833
-2.9038 2.1899 -2.0998 0.9833
-0.8491 0.5288 -0.5776 0.9954
-0.8760 0.4427 -0.5666 0.9955
-0.9012 0.2686 -0.5429 0.9957
-0.9306 0.0207 -0.5374 0.9957
-0.9274 -0.0621 -0.5366 0.9957
-0.9189 -0.1445 -0.5370 0.9957
-0.9030 -0.2259 -0.5374 0.9957
-0.8638 -0.4860 -0.5722 0.9954
-2.5824 -2.5538 -2.0969 0.9834
-0.9256 -3.5330 -2.1086 0.9833
-0.6082 -3.6054 -2.1110 0.9833
0.0408 -3.6647 -2.1159 0.9832
0.6916 -3.6081 -2.1211 0.9832
1.0112 -3.5365 -2.1236 0.9832
2.1919 -2.9749 -2.1334 0.9831
2.4505 -2.7709 -2.1356 0.9831
2.6901 -2.5443 -2.1378 0.9830
1.7564 -0.7448 -1.1014 0.9912
1.8108 -0.5839 -1.0985 0.9913
1.8316 -0.4150 -1.0843 0.9914
1.8755 -0.0836 -1.0839 0.9914
1.8755 0.0836 -1.0839 0.9914
1.8592 0.2500 -1.0831 0.9914
3.1109 2.0351 -2.1463 0.9830
2.6975 2.5513 -2.1436 0.9830
2.4579 2.7792 -2.1420 0.9830
1.9229 3.1655 -2.1383 0.9830
1.6319 3.3208 -2.1363 0.9831
1.3285 3.4493 -2.1341 0.9831
1.0151 3.5500 -2.1317 0.9831
0.6943 3.6222 -2.1293 0.9831
-0.9291 3.5465 -2.1167 0.9832
-1.5396 3.3177 -2.1117 0.9832
-2.3537 2.7839 -2.1048 0.9833
-2.9972 2.0575 -2.0989 0.9833
-0.8858 0.3991 -0.5609 0.9955
-0.8984 0.3119 -0.5490 0.9956
-0.9030 0.2258 -0.5374 0.9957
-0.9189 0.1445 -0.5370 0.9957
-0.9274 0.0621 -0.5366 0.9957
-0.9120 -0.1854 -0.5373 0.9957
-0.8932 -0.3555 -0.5550 0.9956
-0.8491 -0.5288 -0.5776 0.9954
-2.8970 -2.1847 -2.0949 0.9834
-1.9582 -3.0675 -2.1011 0.9833
-1.6790 -3.2327 -2.1031 0.9833
-1.0815 -3.4863 -2.1074 0.9833
0.5299 -3.6331 -2.1198 0.9832
0.8522 -3.5759 -2.1223 0.9832
1.1685 -3.4900 -2.1249 0.9831
1.4762 -3.3761 -2.1274 0.9831
1.7729 -3.2351 -2.1299 0.9831
2.0561 -3.0679 -2.1322 0.9831
2.5728 -2.6603 -2.1367 0.9831
3.0093 -2.1660 -2.1407 0.9830
3.1927 -1.8911 -2.1424 0.9830
1.7194 -0.8213 -1.1001 0.9912
1.7869 -0.6655 -1.1009 0.9912
1.8700 -0.1671 -1.0839 0.9914
