ply
format ascii 1.0
element vertex 1335
property float32 x
property float32 y
property float32 z
property float32 I
end_header
-15.1828 11.4499 -1.8257 0.9264
-19.6491 -1.3153 -1.8906 0.9239
-19.4144 -3.0528 -1.8868 0.9241
-17.8848 -6.2103 -1.8176 0.9267
-15.6201 10.7226 -1.8189 0.9267
-17.2573 9.7088 -1.9010 0.9235
-19.5492 -2.1869 -1.8885 0.9240
-18.8034 -5.6040 -1.8837 0.9242
-16.8938 -6.7235 -1.7456 0.9295
-16.2383 -8.2056 -1.7467 0.9295
19.0721 0.0000 -2.2655 0.9261
19.0442 1.7018 -2.2712 0.9259
17.9753 6.6941 -2.2785 0.9256
17.3010 8.2640 -2.2775 0.9257
16.4777 9.7598 -2.2749 0.9258
15.5144 11.1666 -2.2706 0.9259
14.4215 12.4708 -2.2647 0.9261
11.0255 13.6465 -2.0840 0.9318
-10.6838 11.5512 -1.8690 0.9386
-11.5920 10.4843 -1.8566 0.9390
-12.8805 9.7136 -1.9163 0.9371
-14.1402 8.8066 -1.9788 0.9351
-14.7863 7.4719 -1.9679 0.9354
-15.7256 4.6868 -1.9492 0.9360
-16.0161 3.2554 -1.9414 0.9363
-16.2364 0.3618 -1.9291 0.9367
-16.1672 -1.0823 -1.9247 0.9368
-15.6763 -3.9209 -1.9195 0.9370
-15.2585 -5.2983 -1.9187 0.9370
-13.0606 -7.3478 -1.7801 0.9414
17.0817 -3.8702 -2.0805 0.9319
17.4309 -2.3442 -2.0892 0.9316
18.9682 2.5510 -2.2734 0.9258
17.6572 7.4873 -2.2782 0.9257
14.9834 11.8323 -2.2679 0.9260
13.8301 13.0804 -2.2612 0.9262
-12.0089 9.9256 -1.8507 0.9392
-13.7526 9.4407 -1.9815 0.9350
-15.5354 5.3945 -1.9535 0.9359
-16.2263 1.0862 -1.9318 0.9366
-16.2167 -0.3614 -1.9268 0.9367
-16.0882 -1.7997 -1.9230 0.9369
-15.8425 -3.2201 -1.9204 0.9370
-14.9815 -5.9625 -1.9154 0.9371
-13.3684 -6.7554 -1.7792 0.9414
-12.7285 -7.9274 -1.7812 0.9414
15.7661 0.0000 -2.2339 0.9383
15.5717 2.8054 -2.2419 0.9381
11.9223 10.3096 -2.2333 0.9383
10.9277 11.2992 -2.2272 0.9385
8.0543 12.0178 -2.0499 0.9432
6.9233 12.6334 -2.0412 0.9435
-7.2205 11.3107 -1.9013 0.9472
-9.0033 9.7343 -1.8787 0.9478
-11.2978 8.5201 -2.0050 0.9444
-11.9513 7.4433 -1.9949 0.9447
-12.9656 5.1602 -1.9772 0.9452
-13.3221 3.9704 -1.9697 0.9454
-13.5765 2.7595 -1.9630 0.9456
-13.7225 -0.9186 -1.9487 0.9460
-13.5670 -2.1333 -1.9459 0.9460
-12.9574 -4.4993 -1.9435 0.9461
-12.5076 -5.6356 -1.9438 0.9461
-11.0893 -6.2387 -1.8028 0.9499
13.2400 -5.6142 -2.0377 0.9436
14.9330 -3.3834 -2.1695 0.9400
15.5604 -2.0927 -2.2246 0.9385
15.6707 2.1075 -2.2404 0.9381
12.3839 9.7795 -2.2358 0.9382
11.4365 10.8166 -2.2304 0.9384
7.4955 12.3393 -2.0456 0.9433
-6.7303 11.6571 -1.9072 0.9471
-7.6936 10.9443 -1.8955 0.9474
-8.5857 10.1552 -1.8842 0.9477
-10.9358 9.0386 -2.0102 0.9443
-11.6364 7.9880 -1.9998 0.9446
-12.2419 6.8872 -1.9902 0.9448
-12.7493 5.7446 -1.9813 0.9451
-13.1566 4.5684 -1.9733 0.9453
-13.6651 2.1487 -1.9600 0.9456
-13.7623 -0.3067 -1.9505 0.9459
-13.6574 -1.5278 -1.9472 0.9460
-13.4516 -2.7341 -1.9449 0.9461
-13.1465 -3.9181 -1.9437 0.9461
-12.7443 -5.0721 -1.9435 0.9461
-12.2058 -6.1679 -1.9377 0.9462
13.5074 -5.0302 -2.0423 0.9434
15.4166 -2.7774 -2.2195 0.9387
12.6308 4.7038 -2.2204 0.9468
12.1584 5.8076 -2.2197 0.9468
9.3087 9.6251 -2.2059 0.9472
7.2214 10.7752 -2.1369 0.9488
5.9073 10.7795 -2.0250 0.9514
4.9049 11.2177 -2.0169 0.9516
3.8702 11.5598 -2.0082 0.9518
2.8130 11.8037 -1.9990 0.9520
-1.4530 11.7973 -1.9582 0.9530
-5.3598 10.3194 -1.9156 0.9540
-6.2235 9.7489 -1.9054 0.9542
-7.4889 9.7037 -2.0193 0.9515
-8.3865 9.0673 -2.0347 0.9512
-10.3403 6.4400 -2.0068 0.9518
-10.8288 5.4720 -1.9988 0.9520
-11.9079 1.3321 -1.9739 0.9526
-11.9101 -0.7973 -1.9664 0.9528
-11.7773 -1.8519 -1.9640 0.9528
-11.5567 -2.8905 -1.9625 0.9529
-11.2500 -3.9064 -1.9619 0.9529
-10.8592 -4.8929 -1.9621 0.9529
-10.3793 -5.8393 -1.9619 0.9529
-9.1163 -6.2580 -1.8216 0.9562
-8.5361 -7.0552 -1.8244 0.9561
10.7841 -5.7546 -2.0137 0.9517
11.2999 -4.7916 -2.0220 0.9515
12.6179 -4.0687 -2.1841 0.9477
13.0076 -2.9471 -2.1972 0.9474
13.3966 -0.5974 -2.2091 0.9471
13.3372 1.7937 -2.2169 0.9469
12.8271 4.1362 -2.2203 0.9468
12.4077 5.2613 -2.2202 0.9468
11.8836 6.3413 -2.2190 0.9469
11.2600 7.3659 -2.2166 0.9469
10.5430 8.3258 -2.2131 0.9470
8.8589 10.0169 -2.2029 0.9472
7.8957 10.7161 -2.1928 0.9475
3.3438 11.6940 -2.0037 0.9519
-0.9285 11.8825 -1.9635 0.9528
-2.9878 11.4041 -1.9421 0.9533
-5.7985 10.0432 -1.9105 0.9541
-6.8306 9.7167 -1.9567 0.9530
-7.9819 9.4410 -2.0367 0.9511
-8.7605 8.6634 -2.0297 0.9513
-11.3998 3.9584 -1.9880 0.9523
-11.9421 0.7994 -1.9717 0.9526
-11.8548 -1.3262 -1.9651 0.9528
-11.6779 -2.3736 -1.9631 0.9528
-11.4140 -3.4017 -1.9621 0.9529
-11.0649 -4.4037 -1.9619 0.9529
-9.9604 -6.2034 -1.9331 0.9535
-8.2209 -7.4353 -1.8261 0.9561
-7.5428 -8.1552 -1.8300 0.9560
11.9177 -4.4382 -2.0950 0.9498
13.1460 -2.3684 -2.2005 0.9473
13.3409 -1.1921 -2.2065 0.9471
11.6768 0.0000 -2.1948 0.9536
10.9809 4.0893 -2.2025 0.9534
10.5707 5.0492 -2.2019 0.9534
8.8306 7.6362 -2.1943 0.9536
6.4528 9.6282 -2.1786 0.9539
5.5417 10.1123 -2.1674 0.9542
3.3753 10.0816 -1.9983 0.9577
1.5217 10.4335 -1.9818 0.9580
0.5844 10.4808 -1.9730 0.9582
-5.8947 9.2339 -2.0591 0.9564
-6.6625 8.6328 -2.0497 0.9566
-7.3715 7.9700 -2.0406 0.9568
-9.1040 5.6701 -2.0159 0.9573
-9.5387 4.8201 -2.0088 0.9574
-10.3817 2.1102 -1.9913 0.9578
-10.5114 -0.7036 -1.9801 0.9580
-10.3957 -1.6346 -1.9780 0.9581
-9.9315 -3.4486 -1.9761 0.9581
-9.1688 -5.1582 -1.9774 0.9581
-6.9607 -6.8835 -1.8400 0.9609
7.6475 -7.2329 -1.9785 0.9581
8.8835 -5.8114 -1.9953 0.9577
9.5400 -5.0907 -2.0325 0.9569
11.5369 -1.5516 -2.1880 0.9537
11.6748 0.5206 -2.1966 0.9535
11.4226 2.5880 -2.2014 0.9534
9.7913 6.4052 -2.1992 0.9535
8.4736 8.0143 -2.1922 0.9536
6.0083 9.8910 -2.1752 0.9540
5.0186 10.2125 -2.1388 0.9547
3.8611 10.0251 -2.0193 0.9572
0.1167 10.4725 -1.9685 0.9583
-0.8121 10.3927 -1.9594 0.9585
-3.4988 9.7252 -1.9427 0.9588
-4.5061 9.7103 -2.0121 0.9574
-6.2856 8.9414 -2.0544 0.9565
-7.7026 7.6173 -2.0362 0.9569
-8.3153 6.8727 -2.0277 0.9570
-9.3307 5.2494 -2.0123 0.9574
-9.7277 4.3831 -2.0055 0.9575
-10.0481 3.4891 -1.9993 0.9576
-10.2903 2.5738 -1.9937 0.9577
-10.4532 1.6437 -1.9889 0.9578
-10.0762 -3.0030 -1.9763 0.9581
-9.3865 -4.7432 -1.9768 0.9581
-8.9336 -5.5639 -1.9782 0.9581
-6.6538 -7.1940 -1.8419 0.9609
-5.2988 -8.3004 -1.8510 0.9607
7.9796 -6.9002 -1.9828 0.9580
10.8319 -4.0338 -2.1726 0.9540
11.1826 -3.0632 -2.1793 0.9539
11.4422 -2.0614 -2.1853 0.9538
10.2948 0.9200 -2.1848 0.9586
10.1820 1.8344 -2.1869 0.9586
9.9841 2.7349 -2.1882 0.9586
9.7027 3.6133 -2.1886 0.9586
8.3877 6.0371 -2.1845 0.9586
7.1616 7.4051 -2.1776 0.9588
6.4603 7.9960 -2.1729 0.9588
4.9144 8.9676 -2.1615 0.9591
4.0841 9.3407 -2.1549 0.9592
0.5418 9.7176 -2.0573 0.9610
-0.3246 9.7099 -2.0536 0.9611
-1.1954 9.7058 -2.0671 0.9608
-2.9228 9.4222 -2.0853 0.9605
-3.7390 9.0983 -2.0793 0.9606
-5.2483 8.2214 -2.0618 0.9609
-6.5697 7.1031 -2.0452 0.9612
-7.1486 6.4655 -2.0374 0.9614
-7.6679 5.7826 -2.0301 0.9615
-8.1244 5.0599 -2.0232 0.9616
-8.5155 4.3031 -2.0168 0.9617
-9.0932 2.7101 -2.0057 0.9620
-9.3890 1.0503 -1.9970 0.9621
-9.2959 -1.4617 -1.9891 0.9623
-9.1233 -2.2819 -1.9879 0.9623
-8.8818 -3.0841 -1.9874 0.9623
-8.5730 -3.8628 -1.9876 0.9623
-8.1990 -4.6127 -1.9886 0.9623
-7.7625 -5.3286 -1.9902 0.9622
-4.4041 -7.6281 -1.8619 0.9646
4.7866 -7.8799 -1.9489 0.9630
5.4921 -7.4540 -1.9571 0.9629
6.1591 -6.9642 -1.9652 0.9627
6.7816 -6.4140 -1.9731 0.9626
8.9792 -4.7914 -2.1513 0.9592
9.4037 -3.9875 -2.1591 0.9591
9.7495 -3.1438 -2.1653 0.9590
10.2018 -1.3720 -2.1759 0.9588
10.3031 -0.4594 -2.1800 0.9587
10.3191 0.4602 -2.1834 0.9586
10.2491 1.3784 -2.1860 0.9586
10.0936 2.2869 -2.1877 0.9586
8.6531 5.6606 -2.1857 0.9586
7.4914 7.0853 -2.1796 0.9587
6.0904 8.2660 -2.1703 0.9589
4.5032 9.1638 -2.1583 0.9591
1.8737 9.7749 -2.1038 0.9601
0.1082 9.7121 -2.0531 0.9611
-0.7586 9.7082 -2.0584 0.9610
-3.3365 9.2739 -2.0833 0.9605
-4.8871 8.4647 -2.0661 0.9608
-6.2590 7.4032 -2.0492 0.9611
-6.8664 6.7903 -2.0413 0.9613
-8.3283 4.6854 -2.0199 0.9617
-9.1939 2.2996 -2.0033 0.9620
-9.3419 1.4690 -1.9989 0.9621
-9.4228 -0.2100 -1.9923 0.9622
-9.2183 -1.8737 -1.9884 0.9623
-8.3940 -4.2417 -1.9880 0.9623
-7.9884 -4.9752 -1.9893 0.9623
-5.9469 -6.4297 -1.8513 0.9648
-4.0655 -7.8274 -1.8644 0.9646
-3.3625 -8.1822 -1.8699 0.9645
5.1438 -7.6750 -1.9530 0.9629
7.6446 -5.5023 -1.9910 0.9622
8.7200 -5.1649 -2.1423 0.9594
9.2024 -4.3956 -2.1557 0.9592
9.5862 -3.5700 -2.1623 0.9590
10.1195 -1.8231 -2.1735 0.9588
9.2394 0.0000 -2.1715 0.9627
9.1120 1.6416 -2.1760 0.9627
8.9344 2.4474 -2.1771 0.9627
7.9655 4.7180 -2.1758 0.9627
5.7853 7.1606 -2.1635 0.9629
4.4033 8.0350 -2.1534 0.9631
2.8922 8.6387 -2.1411 0.9633
2.1051 8.8335 -2.1342 0.9634
-1.0942 8.8843 -2.1038 0.9639
-4.0630 7.8226 -2.0717 0.9644
-5.3455 6.9264 -2.0563 0.9647
-5.9196 6.4002 -2.0490 0.9648
-7.3283 4.5641 -2.0290 0.9651
-7.6835 3.8826 -2.0233 0.9652
-7.9777 3.1750 -2.0180 0.9653
-8.5177 0.1898 -2.0023 0.9656
-8.4906 -0.5684 -1.9999 0.9656
-7.4081 -4.1677 -1.9977 0.9657
-6.5638 -5.4251 -2.0014 0.9656
-5.2548 -6.2154 -1.9129 0.9671
-4.5620 -6.4896 -1.8644 0.9679
-3.9753 -6.8854 -1.8686 0.9679
-3.3551 -7.2302 -1.8733 0.9678
-2.7058 -7.5209 -1.8785 0.9677
-2.0317 -7.7550 -1.8841 0.9676
-1.3377 -7.9303 -1.8901 0.9675
-0.6286 -8.0450 -1.8965 0.9674
0.0902 -8.0975 -1.9032 0.9673
0.8135 -8.0867 -1.9102 0.9672
1.5358 -8.0122 -1.9173 0.9670
2.9546 -7.6715 -1.9321 0.9668
3.6397 -7.4067 -1.9396 0.9667
4.3010 -7.0805 -1.9470 0.9665
5.5296 -6.2524 -1.9617 0.9663
7.0706 -5.5836 -2.1174 0.9637
8.8176 2.8433 -2.1774 0.9626
8.5293 3.6167 -2.1774 0.9626
7.7443 5.0661 -2.1749 0.9627
6.7065 6.3430 -2.1695 0.9628
6.1046 6.9026 -2.1657 0.9628
4.7630 7.8409 -2.1561 0.9630
3.2792 8.5142 -2.1443 0.9632
1.7067 8.9036 -2.1306 0.9634
0.1003 9.0012 -2.1156 0.9637
-1.4861 8.8099 -2.0998 0.9640
-2.2556 8.6095 -2.0917 0.9641
-3.0013 8.3423 -2.0837 0.9642
-4.3991 7.6194 -2.0678 0.9645
-5.0409 7.1708 -2.0601 0.9646
-6.1881 6.1196 -2.0454 0.9649
-6.6858 5.5260 -2.0386 0.9650
-7.5134 4.2270 -2.0261 0.9652
-7.8383 3.5318 -2.0206 0.9653
-8.1013 2.8131 -2.0155 0.9654
-8.3010 2.0762 -2.0110 0.9655
-8.4364 1.3266 -2.0071 0.9655
-8.4528 -0.9456 -1.9990 0.9657
-7.2175 -4.4951 -1.9984 0.9657
-6.7950 -5.1243 -2.0002 0.9656
-6.3197 -5.7158 -2.0027 0.9656
-5.7358 -6.2014 -1.9853 0.9659
-4.8416 -6.2734 -1.8624 0.9680
-4.2731 -6.6937 -1.8664 0.9679
1.1751 -8.0575 -1.9137 0.9671
1.8948 -7.9509 -1.9210 0.9670
2.6049 -7.7805 -1.9284 0.9668
3.9737 -7.2511 -1.9433 0.9666
5.2359 -6.4806 -1.9581 0.9663
6.5682 -5.6798 -2.0408 0.9649
7.3598 -5.2973 -2.1312 0.9634
7.8411 -4.6443 -2.1418 0.9632
8.2477 -3.9396 -2.1482 0.9631
8.5890 -3.1986 -2.1540 0.9630
8.3540 0.0000 -2.1630 0.9661
7.8484 2.9228 -2.1684 0.9660
7.5557 3.6091 -2.1680 0.9660
7.2008 4.2651 -2.1669 0.9660
6.7871 4.8851 -2.1651 0.9660
4.6263 6.9029 -2.1516 0.9662
3.3133 7.5777 -2.1414 0.9664
2.6186 7.8214 -2.1356 0.9665
1.1833 8.1132 -2.1229 0.9667
0.4550 8.1601 -2.1161 0.9668
-0.9923 8.0570 -2.1019 0.9670
-1.6996 7.9093 -2.0946 0.9671
-2.3884 7.6996 -2.0873 0.9672
-3.6899 7.1043 -2.0727 0.9675
-4.2928 6.7246 -2.0656 0.9676
-4.8580 6.2947 -2.0587 0.9677
-6.2894 4.7431 -2.0396 0.9680
-6.9930 3.5337 -2.0286 0.9681
-7.6288 1.5506 -2.0156 0.9683
-7.7594 0.1729 -2.0095 0.9684
-7.7355 -0.5178 -2.0073 0.9685
-7.0584 -3.1803 -2.0045 0.9685
-6.3896 -4.3862 -2.0067 0.9685
-5.0153 -5.9321 -2.0113 0.9684
-4.3638 -6.2076 -1.9647 0.9691
-3.6192 -6.2686 -1.8741 0.9705
-2.4622 -6.8439 -1.8832 0.9704
0.7392 -7.3477 -1.9120 0.9699
1.3950 -7.2774 -1.9186 0.9698
2.0442 -7.1491 -1.9252 0.9697
4.4725 -6.0702 -1.9522 0.9693
5.2001 -5.8798 -2.0324 0.9681
6.8949 -4.5104 -2.1333 0.9665
7.2892 -3.8897 -2.1392 0.9664
7.9022 -2.5481 -2.1498 0.9663
8.1146 -1.8385 -2.1543 0.9662
8.2612 -1.1110 -2.1582 0.9661
8.3402 -0.3719 -2.1616 0.9661
8.2922 1.1152 -2.1663 0.9660
7.9705 2.5702 -2.1684 0.9660
7.7100 3.2693 -2.1683 0.9660
6.5592 5.1798 -2.1640 0.9661
6.0644 5.7357 -2.1612 0.9661
4.9343 6.6969 -2.1538 0.9662
2.9685 7.7076 -2.1385 0.9664
2.2644 7.9189 -2.1325 0.9665
1.5459 8.0649 -2.1262 0.9666
0.0909 8.1588 -2.1126 0.9668
-0.6335 8.1071 -2.1055 0.9670
-1.3479 7.9910 -2.0982 0.9671
-2.7243 7.5722 -2.0836 0.9673
-3.9958 6.9209 -2.0692 0.9675
-4.5804 6.5157 -2.0622 0.9676
-5.1252 6.0621 -2.0554 0.9677
-5.6264 5.5641 -2.0488 0.9678
-6.4853 4.4519 -2.0367 0.9680
-7.1347 3.2147 -2.0262 0.9682
-7.5591 1.8907 -2.0175 0.9683
-7.7490 0.5187 -2.0108 0.9684
-7.7548 -0.1728 -2.0084 0.9685
-7.4191 -2.2111 -2.0044 0.9685
-7.1924 -2.8625 -2.0043 0.9685
-6.1907 -4.6686 -2.0076 0.9685
-5.2782 -5.7067 -2.0127 0.9684
-4.7420 -6.1443 -2.0096 0.9684
-3.3401 -6.4308 -1.8762 0.9705
-0.8955 -7.2705 -1.8967 0.9702
0.4104 -7.3610 -1.9089 0.9700
1.7207 -7.2205 -1.9219 0.9698
3.6048 -6.5780 -1.9421 0.9695
5.6199 -5.8110 -2.0931 0.9671
6.6773 -4.8061 -2.1301 0.9666
7.4651 -3.5658 -2.1420 0.9664
8.1963 -1.4766 -2.1563 0.9662
7.5079 1.3526 -2.1597 0.9688
7.3609 2.0164 -2.1606 0.9688
7.1531 2.6639 -2.1609 0.9688
6.5634 3.8875 -2.1595 0.9688
4.7717 5.9060 -2.1495 0.9689
3.0231 6.9141 -2.1363 0.9691
2.3898 7.1381 -2.1310 0.9692
1.7404 7.3031 -2.1254 0.9693
-0.9069 7.3633 -2.1003 0.9696
-2.1841 7.0409 -2.0869 0.9698
-2.7931 6.7967 -2.0802 0.9699
-3.3762 6.5004 -2.0736 0.9700
-4.4476 5.7629 -2.0608 0.9702
-4.9282 5.3283 -2.0547 0.9703
-5.3675 4.8546 -2.0488 0.9704
-6.1109 3.8059 -2.0380 0.9705
-6.8543 2.0428 -2.0247 0.9707
-6.9967 1.4221 -2.0212 0.9708
-7.1182 0.1586 -2.0156 0.9708
-7.0970 -0.4751 -2.0136 0.9709
-7.0214 -1.1041 -2.0121 0.9709
-6.8920 -1.7238 -2.0112 0.9709
-6.4765 -2.9181 -2.0110 0.9709
-5.8623 -4.0242 -2.0130 0.9709
-4.6068 -5.4490 -2.0200 0.9708
-3.5678 -6.1797 -2.0201 0.9708
-2.8840 -6.2148 -1.9396 0.9719
-2.2567 -6.2726 -1.8872 0.9727
-1.1145 -6.6073 -1.8969 0.9725
-0.5235 -6.6990 -1.9022 0.9725
1.2765 -6.6595 -1.9196 0.9722
1.8701 -6.5402 -1.9257 0.9721
2.4526 -6.3681 -1.9319 0.9720
3.0194 -6.1442 -1.9381 0.9719
4.3915 -5.9602 -2.0959 0.9697
4.9342 -5.5792 -2.1085 0.9695
6.2931 -4.1168 -2.1289 0.9692
7.2077 -2.3242 -2.1439 0.9690
7.4001 -1.6766 -2.1480 0.9689
7.6035 -0.3390 -2.1546 0.9689
7.6122 0.3395 -2.1571 0.9688
7.5583 1.0165 -2.1590 0.9688
7.4421 1.6862 -2.1602 0.9688
7.2645 2.3425 -2.1608 0.9688
7.0270 2.9797 -2.1608 0.9688
6.3815 4.1746 -2.1588 0.9688
5.9793 4.7218 -2.1568 0.9688
5.5288 5.2291 -2.1543 0.9689
3.9308 6.4710 -2.1434 0.9690
2.7089 7.0334 -2.1337 0.9692
2.0668 7.2280 -2.1282 0.9692
-0.5789 7.4080 -2.1036 0.9696
-1.8713 7.1426 -2.0903 0.9698
-2.4916 6.9255 -2.0836 0.9699
-3.0882 6.6549 -2.0769 0.9700
-4.1928 5.9644 -2.0639 0.9701
-5.1532 5.0961 -2.0517 0.9703
-6.5407 2.9471 -2.0309 0.9706
-6.9322 1.7339 -2.0229 0.9707
-7.0475 1.1082 -2.0196 0.9708
-7.1144 -0.1585 -2.0145 0.9708
-6.9634 -1.4154 -2.0116 0.9709
-6.5996 -2.6266 -2.0108 0.9709
-4.3630 -5.6533 -2.0216 0.9707
-3.2238 -6.2069 -1.9800 0.9713
-1.9775 -6.3747 -1.8895 0.9726
-1.4059 -6.5423 -1.8944 0.9726
-0.8202 -6.6596 -1.8995 0.9725
-0.2249 -6.7255 -1.9050 0.9724
0.3758 -6.7389 -1.9107 0.9723
0.9771 -6.6993 -1.9166 0.9722
2.1630 -6.4607 -1.9288 0.9721
2.7383 -6.2626 -1.9350 0.9720
5.6649 -4.8986 -2.1201 0.9693
7.0896 -2.6402 -2.1417 0.9690
7.3113 -2.0028 -2.1460 0.9690
7.4739 -1.3465 -2.1499 0.9689
6.9686 0.6227 -2.1519 0.9711
6.7549 1.8504 -2.1542 0.9711
6.3196 3.0186 -2.1541 0.9711
6.0233 3.5676 -2.1532 0.9711
5.6779 4.0867 -2.1517 0.9711
4.8529 5.0179 -2.1471 0.9712
4.3807 5.4221 -2.1440 0.9712
3.3380 6.0912 -2.1364 0.9714
2.1956 6.5579 -2.1271 0.9715
0.9931 6.8091 -2.1165 0.9716
-0.2287 6.8397 -2.1049 0.9718
-0.8341 6.7727 -2.0989 0.9718
-2.5711 6.2563 -2.0805 0.9721
-3.6185 5.6683 -2.0684 0.9722
-5.3120 4.0060 -2.0464 0.9725
-5.9111 2.9870 -2.0371 0.9727
-6.1411 2.4441 -2.0330 0.9727
-6.4549 1.3120 -2.0260 0.9728
-6.5370 0.7313 -2.0232 0.9728
-6.5685 0.1464 -2.0208 0.9729
-6.4800 -1.0189 -2.0176 0.9729
-5.4101 -3.7138 -2.0184 0.9729
-4.6748 -4.6230 -2.0222 0.9729
-4.2503 -5.0273 -2.0249 0.9728
-3.7918 -5.3939 -2.0280 0.9728
-2.2306 -6.2001 -2.0267 0.9728
-1.6271 -6.2106 -1.9747 0.9735
-1.0489 -6.2181 -1.9396 0.9740
-0.4863 -6.2227 -1.9198 0.9742
0.0694 -6.2254 -1.9149 0.9743
1.1889 -6.2025 -1.9425 0.9739
1.7659 -6.1757 -1.9756 0.9735
2.3639 -6.1378 -2.0230 0.9728
2.9868 -6.0779 -2.0830 0.9721
3.5324 -5.8152 -2.0928 0.9719
4.0550 -5.5035 -2.1026 0.9718
4.5415 -5.1352 -2.1086 0.9717
4.9942 -4.7235 -2.1143 0.9716
5.4090 -4.2714 -2.1199 0.9716
6.3897 -2.7095 -2.1347 0.9714
6.7942 -1.5393 -2.1427 0.9713
6.9365 0.9329 -2.1527 0.9711
6.1778 3.2966 -2.1538 0.9711
5.8566 3.8312 -2.1526 0.9711
4.1315 5.6073 -2.1423 0.9713
3.6096 5.9422 -2.1385 0.9713
3.0603 6.2275 -2.1342 0.9714
2.4884 6.4610 -2.1296 0.9714
1.2971 6.7669 -2.1192 0.9716
0.6879 6.8374 -2.1137 0.9717
-0.5324 6.8130 -2.1019 0.9718
-1.7218 6.5722 -2.0897 0.9720
-2.2932 6.3740 -2.0835 0.9720
-2.8430 6.1266 -2.0774 0.9721
-4.3235 5.1138 -2.0597 0.9724
-4.7487 4.6961 -2.0542 0.9724
-5.1346 4.2438 -2.0489 0.9725
-5.7784 3.2509 -2.0393 0.9726
-6.2380 2.1661 -2.0311 0.9727
-6.5591 0.4391 -2.0219 0.9729
-6.5653 -0.1463 -2.0198 0.9729
-6.2829 -1.8725 -2.0165 0.9729
-5.5684 -3.4680 -2.0177 0.9729
-5.2413 -3.9527 -2.0192 0.9729
-4.4670 -4.8297 -2.0235 0.9728
-3.5508 -5.5621 -2.0297 0.9728
-1.3355 -6.2147 -1.9552 0.9737
0.3470 -6.2227 -1.9169 0.9743
0.9059 -6.2117 -1.9308 0.9741
2.6731 -6.1135 -2.0523 0.9725
4.7724 -4.9346 -2.1115 0.9717
6.5106 -2.4246 -2.1369 0.9713
6.7131 -1.8389 -2.1409 0.9713
6.8614 -1.2361 -2.1444 0.9712
6.9541 -0.6214 -2.1474 0.9712
6.4323 0.5748 -2.1466 0.9731
6.0584 2.2562 -2.1490 0.9731
4.8801 4.2200 -2.1446 0.9732
4.4802 4.6325 -2.1422 0.9732
4.0447 5.0062 -2.1393 0.9732
2.0284 6.0585 -2.1238 0.9734
1.4778 6.2011 -2.1190 0.9735
0.9178 6.2930 -2.1140 0.9735
-0.2114 6.3239 -2.1033 0.9737
-2.3793 5.7896 -2.0807 0.9740
-2.8773 5.5398 -2.0750 0.9740
-5.2211 3.2517 -2.0446 0.9744
-5.4787 2.7685 -2.0404 0.9745
-5.6927 2.2656 -2.0366 0.9745
-5.8618 1.7470 -2.0332 0.9745
-6.0618 0.6781 -2.0275 0.9746
-6.0915 0.1357 -2.0254 0.9746
-5.8998 -1.4756 -2.0215 0.9747
-5.5442 -2.4981 -2.0214 0.9747
-3.9411 -4.6616 -2.0291 0.9746
-3.0614 -5.3025 -2.0353 0.9745
-2.5820 -5.5640 -2.0389 0.9745
-2.0801 -5.7816 -2.0424 0.9744
-1.5584 -5.9484 -2.0440 0.9744
-1.0241 -6.0712 -2.0466 0.9744
0.0689 -6.1812 -2.0548 0.9743
0.6204 -6.1668 -2.0602 0.9742
1.1704 -6.1059 -2.0666 0.9741
1.7150 -5.9979 -2.0736 0.9740
2.7729 -5.6426 -2.0899 0.9738
4.1985 -4.7473 -2.1066 0.9736
5.6441 -3.0118 -2.1265 0.9734
5.9016 -2.5025 -2.1308 0.9733
6.1120 -1.9709 -2.1347 0.9733
6.3839 -0.8586 -2.1412 0.9732
6.4427 -0.2873 -2.1437 0.9732
6.4024 0.8610 -2.1474 0.9731
6.3034 1.4282 -2.1484 0.9731
6.1528 1.9840 -2.1489 0.9731
5.9517 2.5237 -2.1489 0.9731
5.7019 3.0427 -2.1483 0.9731
5.4057 3.5362 -2.1472 0.9731
5.0657 4.0003 -2.1456 0.9732
4.2667 4.8244 -2.1408 0.9732
3.8148 5.1775 -2.1377 0.9733
2.2987 5.9685 -2.1260 0.9734
0.0706 6.3353 -2.1060 0.9736
-0.4923 6.2999 -2.1005 0.9737
-2.1219 5.8979 -2.0835 0.9739
-3.1170 5.3989 -2.0722 0.9741
-4.3986 4.3498 -2.0563 0.9743
-5.0765 3.4848 -2.0468 0.9744
-5.3552 3.0128 -2.0425 0.9744
-5.5912 2.5193 -2.0385 0.9745
-5.7829 2.0080 -2.0349 0.9745
-5.9292 1.4830 -2.0316 0.9746
-5.6496 -2.2485 -2.0212 0.9747
-2.8247 -5.4384 -2.0371 0.9745
-1.2926 -6.0153 -2.0452 0.9744
0.3446 -6.1798 -2.0574 0.9742
0.8958 -6.1423 -2.0633 0.9742
1.9842 -5.9265 -2.0775 0.9740
3.5144 -5.2439 -2.0984 0.9737
4.8118 -4.1610 -2.1146 0.9735
5.1753 -3.7249 -2.1196 0.9735
5.7786 -2.7602 -2.1287 0.9734
6.0128 -2.2392 -2.1328 0.9733
6.1989 -1.6981 -2.1365 0.9733
6.3350 -1.1413 -2.1397 0.9732
6.4199 -0.5737 -2.1425 0.9732
5.6190 2.0925 -2.1442 0.9749
5.4097 2.5840 -2.1439 0.9749
4.5268 3.9145 -2.1401 0.9749
4.1562 4.2974 -2.1379 0.9749
2.3806 5.4445 -2.1250 0.9751
1.8829 5.6238 -2.1208 0.9751
1.3720 5.7571 -2.1164 0.9752
-1.2287 5.7178 -2.0914 0.9755
-1.7283 5.5717 -2.0861 0.9755
-3.1153 4.8801 -2.0704 0.9757
-3.5287 4.5723 -2.0654 0.9758
-3.9124 4.2301 -2.0605 0.9758
-5.0999 2.5771 -2.0434 0.9760
-5.2998 2.1093 -2.0398 0.9761
-5.4579 1.6266 -2.0366 0.9761
-5.6452 0.6315 -2.0314 0.9762
-5.6575 -0.3787 -2.0277 0.9762
-5.5981 -0.8802 -2.0265 0.9762
-5.3505 -1.8579 -2.0255 0.9762
-5.1643 -2.3269 -2.0256 0.9762
-4.9381 -2.7781 -2.0262 0.9762
-4.6736 -3.2082 -2.0272 0.9762
-4.3726 -3.6141 -2.0287 0.9762
-4.0373 -3.9926 -2.0305 0.9762
-2.4036 -5.1796 -2.0420 0.9760
-1.4527 -5.5448 -2.0498 0.9759
-0.9554 -5.6641 -2.0541 0.9759
0.0643 -5.7690 -2.0632 0.9758
3.0410 -5.0062 -2.0947 0.9754
3.8995 -4.4092 -2.1050 0.9753
4.2865 -4.0542 -2.1099 0.9752
4.6408 -3.6648 -2.1147 0.9752
5.4768 -2.3224 -2.1274 0.9750
5.6713 -1.8288 -2.1310 0.9750
5.8204 -1.3187 -2.1342 0.9750
5.9224 -0.7965 -2.1370 0.9749
5.9818 0.2667 -2.1413 0.9749
5.9383 0.7987 -2.1427 0.9749
5.5200 2.3407 -2.1441 0.9749
4.6987 3.7106 -2.1411 0.9749
2.6231 5.3379 -2.1269 0.9751
1.6288 5.6963 -2.1187 0.9751
1.1129 5.8061 -2.1141 0.9752
-0.4573 5.8525 -2.0993 0.9754
-2.8984 5.0202 -2.0730 0.9757
-3.3256 4.7307 -2.0679 0.9757
-3.7245 4.4053 -2.0630 0.9758
-4.4264 3.6586 -2.0536 0.9759
-5.3842 1.8696 -2.0382 0.9761
-5.6332 -0.6302 -2.0271 0.9762
-5.4282 -1.6178 -2.0256 0.9762
-5.2625 -2.0944 -2.0255 0.9762
-5.0561 -2.5549 -2.0258 0.9762
-4.8105 -2.9960 -2.0266 0.9762
-4.5275 -3.4144 -2.0279 0.9762
-4.2091 -3.8069 -2.0295 0.9762
-3.8575 -4.1707 -2.0316 0.9762
-3.4753 -4.5030 -2.0341 0.9761
-2.6297 -5.0631 -2.0402 0.9761
-2.1724 -5.2863 -2.0438 0.9760
0.3216 -5.7673 -2.0656 0.9758
0.8358 -5.7307 -2.0710 0.9757
1.8479 -5.5194 -2.0815 0.9756
2.3377 -5.3466 -2.0867 0.9755
2.8114 -5.1302 -2.0920 0.9755
3.6948 -4.5731 -2.1024 0.9753
4.8047 -3.4582 -2.1170 0.9752
5.1039 -3.0231 -2.1213 0.9751
5.5797 -2.0779 -2.1292 0.9750
5.9555 -0.5322 -2.1382 0.9749
5.5750 0.0000 -2.1364 0.9764
5.5569 0.4966 -2.1380 0.9764
5.4936 0.9897 -2.1391 0.9764
5.2332 1.9489 -2.1400 0.9764
4.8025 2.8445 -2.1390 0.9764
4.5278 3.2589 -2.1378 0.9764
3.4959 4.3269 -2.1317 0.9765
2.6657 4.8643 -2.1257 0.9765
2.2185 5.0738 -2.1221 0.9766
0.7946 5.4479 -2.1098 0.9767
-0.1832 5.4783 -2.1006 0.9768
-1.1463 5.3343 -2.0909 0.9769
-2.9083 4.5558 -2.0713 0.9771
-3.2948 4.2692 -2.0666 0.9772
-3.6536 3.9503 -2.0620 0.9772
-3.9823 3.6017 -2.0577 0.9773
-5.1008 1.5202 -2.0397 0.9775
-5.2091 1.0588 -2.0370 0.9775
-5.2888 -0.3540 -2.0313 0.9775
-5.0022 -1.7369 -2.0292 0.9776
-4.8280 -2.1754 -2.0293 0.9776
-4.6165 -2.5972 -2.0299 0.9776
-4.3691 -2.9992 -2.0308 0.9776
-4.0875 -3.3784 -2.0322 0.9775
-3.7739 -3.7321 -2.0340 0.9775
-3.4303 -4.0574 -2.0361 0.9775
-2.6636 -4.6135 -2.0415 0.9774
-1.3571 -5.1798 -2.0520 0.9773
-0.4188 -5.3601 -2.0603 0.9772
0.0600 -5.3878 -2.0648 0.9772
0.5405 -5.3731 -2.0695 0.9771
1.0190 -5.3159 -2.0742 0.9771
1.9545 -5.0749 -2.0840 0.9770
3.2486 -4.4090 -2.0987 0.9768
3.6364 -4.1117 -2.1035 0.9768
4.6224 -3.0238 -2.1167 0.9766
4.8823 -2.6052 -2.1207 0.9766
5.1036 -2.1641 -2.1243 0.9765
5.2842 -1.7039 -2.1277 0.9765
5.5670 -0.2482 -2.1355 0.9764
5.5716 0.2485 -2.1373 0.9764
5.4450 1.2337 -2.1395 0.9764
5.3147 1.7138 -2.1400 0.9764
5.1410 2.1800 -2.1399 0.9764
4.9254 2.6283 -2.1394 0.9764
4.6699 3.0549 -2.1385 0.9764
4.3766 3.4561 -2.1371 0.9764
3.6874 4.1694 -2.1330 0.9764
3.2975 4.4755 -2.1303 0.9765
2.4444 4.9742 -2.1239 0.9765
1.9885 5.1630 -2.1202 0.9766
1.5182 5.3095 -2.1163 0.9766
0.5505 5.4720 -2.1076 0.9767
0.0611 5.4872 -2.1029 0.9768
-0.4265 5.4585 -2.0982 0.9768
-0.9086 5.3864 -2.0933 0.9769
-1.8405 5.1157 -2.0835 0.9770
-2.2831 4.9200 -2.0785 0.9770
-2.7056 4.6863 -2.0737 0.9771
-3.4778 4.1136 -2.0643 0.9772
-3.8219 3.7795 -2.0598 0.9772
-4.1345 3.4173 -2.0556 0.9773
-5.1600 1.2906 -2.0383 0.9775
-5.2480 0.8252 -2.0358 0.9775
-5.2951 0.3545 -2.0337 0.9775
-5.3012 -0.1181 -2.0320 0.9775
-5.1906 -1.0550 -2.0298 0.9776
-4.7269 -2.3886 -2.0296 0.9776
-4.4972 -2.8009 -2.0303 0.9776
-3.9346 -3.5586 -2.0330 0.9775
-3.6057 -3.8984 -2.0350 0.9775
-3.2481 -4.2087 -2.0373 0.9775
-2.8644 -4.4870 -2.0400 0.9775
-2.4573 -4.7312 -2.0431 0.9774
-1.5850 -5.1094 -2.0501 0.9773
-0.6565 -5.3305 -2.0582 0.9773
1.2562 -5.2714 -2.0767 0.9771
3.0455 -4.5442 -2.0963 0.9768
3.8201 -3.9500 -2.1058 0.9767
4.4787 -3.2236 -2.1147 0.9766
5.1991 -1.9362 -2.1261 0.9765
5.2116 0.0000 -2.1330 0.9777
5.1350 0.9251 -2.1355 0.9777
5.0338 1.3789 -2.1361 0.9777
4.7094 2.2495 -2.1360 0.9777
4.4891 2.6589 -2.1354 0.9777
3.9417 3.4085 -2.1328 0.9777
3.6195 3.7425 -2.1309 0.9777
2.4928 4.5487 -2.1229 0.9778
1.1964 5.0202 -2.1122 0.9779
0.2862 5.1325 -2.1038 0.9780
-0.6257 5.0803 -2.0949 0.9781
-1.5099 4.8674 -2.0857 0.9782
-1.9328 4.7032 -2.0811 0.9783
-2.3386 4.5026 -2.0765 0.9783
-3.0866 3.9994 -2.0676 0.9784
-3.7316 3.3751 -2.0593 0.9785
-4.2553 2.6502 -2.0517 0.9786
-4.6429 1.8479 -2.0452 0.9786
-4.7824 1.4253 -2.0424 0.9787
-2.1365 0.4343 -0.8923 0.9906
-2.1261 0.2378 -0.8756 0.9908
-2.1285 0.0474 -0.8714 0.9908
-2.1302 -0.1426 -0.8738 0.9908
-2.1308 -0.5330 -0.8989 0.9906
-4.6915 -1.6291 -2.0326 0.9788
-4.3296 -2.4358 -2.0332 0.9788
-3.8333 -3.1683 -2.0354 0.9787
-2.4972 -4.3253 -2.0441 0.9786
-2.1054 -4.5370 -2.0471 0.9786
-0.8363 -4.9578 -2.0578 0.9785
-0.3925 -5.0223 -2.0618 0.9785
0.9544 -4.9788 -2.0748 0.9783
1.3968 -4.8848 -2.0794 0.9783
3.0403 -4.1264 -2.0977 0.9781
3.4027 -3.8475 -2.1022 0.9780
3.7393 -3.5366 -2.1065 0.9780
4.0472 -3.1960 -2.1106 0.9780
4.7726 -2.0238 -2.1217 0.9778
4.9411 -1.5933 -2.1248 0.9778
5.0699 -1.1487 -2.1276 0.9778
5.1579 -0.6937 -2.1300 0.9778
5.2042 -0.2321 -2.1321 0.9777
5.1700 0.6953 -2.1350 0.9777
4.8053 2.0376 -2.1362 0.9777
4.6039 2.4567 -2.1358 0.9777
4.3652 2.8556 -2.1349 0.9777
3.4474 3.8980 -2.1298 0.9778
3.0831 4.1845 -2.1273 0.9778
2.2859 4.6517 -2.1213 0.9778
1.8598 4.8288 -2.1178 0.9779
1.4201 4.9665 -2.1141 0.9779
0.0572 5.1348 -2.1017 0.9781
-0.3992 5.1086 -2.0972 0.9781
-1.7233 4.7900 -2.0834 0.9782
-2.1381 4.6074 -2.0788 0.9783
-2.5341 4.3892 -2.0743 0.9783
-4.1366 2.8396 -2.0535 0.9785
-4.3654 2.4559 -2.0500 0.9786
-2.1308 0.5329 -0.8989 0.9906
-2.1345 0.3356 -0.8843 0.9907
-2.1365 -0.4343 -0.8923 0.9906
-4.2177 -2.6268 -2.0336 0.9788
-3.6897 -3.3371 -2.0362 0.9787
-3.3811 -3.6556 -2.0380 0.9787
-3.0456 -3.9463 -2.0402 0.9787
-1.9027 -4.6300 -2.0487 0.9786
-1.0553 -4.9110 -2.0558 0.9785
-0.6152 -4.9949 -2.0597 0.9785
-0.1685 -5.0399 -2.0639 0.9784
1.1765 -4.9368 -2.0771 0.9783
1.6148 -4.8231 -2.0817 0.9783
2.8504 -4.2531 -2.0955 0.9781
3.2246 -3.9911 -2.1000 0.9781
3.5744 -3.6959 -2.1044 0.9780
3.8970 -3.3699 -2.1086 0.9780
4.1895 -3.0154 -2.1126 0.9779
4.8617 -1.8105 -2.1233 0.9778
5.1191 -0.9223 -2.1288 0.9778
5.1863 -0.4635 -2.1311 0.9777
4.8708 0.4353 -2.1312 0.9789
4.7199 1.2929 -2.1328 0.9789
4.5865 1.7080 -2.1330 0.9789
4.4158 2.1092 -2.1327 0.9789
4.2093 2.4932 -2.1321 0.9789
3.3943 3.5097 -2.1279 0.9789
1.9463 4.4514 -2.1173 0.9790
1.5400 4.5996 -2.1140 0.9791
1.1225 4.7104 -2.1104 0.9791
0.6976 4.7830 -2.1066 0.9791
-0.5874 4.7692 -2.0942 0.9793
-1.0075 4.6884 -2.0899 0.9793
-1.8152 4.4171 -2.0812 0.9794
-3.2166 3.4777 -2.0646 0.9795
-3.9998 2.4911 -2.0536 0.9796
-4.1991 2.1219 -2.0504 0.9797
-1.8741 0.5585 -0.8523 0.9915
-1.9300 0.3923 -0.8583 0.9914
-1.9433 0.2174 -0.8522 0.9915
-1.9470 0.0434 -0.8487 0.9915
-1.9080 -0.4772 -0.8571 0.9915
-4.2586 -1.9188 -2.0357 0.9798
-3.8534 -2.6452 -2.0370 0.9798
-2.6971 -3.8366 -2.0439 0.9797
-2.3478 -4.0665 -2.0464 0.9797
-1.9793 -4.2652 -2.0493 0.9797
-1.5942 -4.4312 -2.0524 0.9797
0.0528 -4.7426 -2.0670 0.9795
0.4757 -4.7284 -2.0711 0.9795
0.8965 -4.6767 -2.0753 0.9794
2.1133 -4.3004 -2.0883 0.9793
2.8540 -3.8734 -2.0968 0.9792
4.2837 -2.2858 -2.1161 0.9790
4.8372 -0.6505 -2.1271 0.9789
4.8803 -0.2176 -2.1290 0.9789
4.7723 1.0813 -2.1326 0.9789
4.3169 2.3036 -2.1325 0.9789
4.0931 2.6776 -2.1317 0.9789
3.8364 3.0296 -2.1304 0.9789
3.2330 3.6556 -2.1269 0.9789
2.8916 3.9246 -2.1245 0.9790
2.1443 4.3636 -2.1189 0.9790
-1.6183 4.4982 -2.0834 0.9794
-2.0081 4.3273 -2.0791 0.9794
-2.7324 3.8868 -2.0706 0.9795
-3.0614 3.6211 -2.0665 0.9795
-3.6413 3.0097 -2.0589 0.9796
-3.8880 2.6690 -2.0553 0.9796
-4.2863 1.9313 -2.0489 0.9797
-1.8741 -0.5585 -0.8523 0.9915
-4.3397 -1.7271 -2.0356 0.9798
-4.1693 -2.1068 -2.0359 0.9798
-3.7328 -2.8150 -2.0376 0.9798
-3.1794 -3.4375 -2.0407 0.9798
-2.8637 -3.7106 -2.0427 0.9798
-2.5250 -3.9554 -2.0451 0.9797
-1.3963 -4.5014 -2.0540 0.9796
-0.9918 -4.6156 -2.0575 0.9796
-0.5781 -4.6939 -2.0612 0.9796
-0.1583 -4.7356 -2.0650 0.9795
0.2643 -4.7402 -2.0690 0.9795
1.5165 -4.5296 -2.0818 0.9794
1.9176 -4.3857 -2.0861 0.9793
2.6759 -3.9927 -2.0947 0.9792
3.0267 -3.7462 -2.0989 0.9792
3.9310 -2.8294 -2.1108 0.9791
4.1743 -2.4724 -2.1144 0.9791
4.5603 -1.6983 -2.1208 0.9790
4.6995 -1.2873 -2.1236 0.9790
4.8637 -0.4346 -2.1281 0.9789
4.5798 0.4093 -2.1284 0.9799
4.5271 0.8156 -2.1293 0.9799
4.4377 1.2156 -2.1298 0.9799
4.3122 1.6059 -2.1300 0.9799
4.1518 1.9831 -2.1298 0.9799
3.9577 2.3441 -2.1292 0.9799
3.4756 3.0055 -2.1269 0.9800
2.5508 3.8061 -2.1209 0.9800
1.4487 4.3269 -2.1121 0.9801
1.0561 4.4316 -2.1088 0.9801
0.6564 4.5003 -2.1052 0.9802
0.2527 4.5328 -2.1014 0.9802
-0.1514 4.5290 -2.0976 0.9802
-0.5529 4.4890 -2.0936 0.9803
-1.3348 4.3030 -2.0854 0.9803
-1.7092 4.1590 -2.0814 0.9804
-2.0685 3.9826 -2.0773 0.9804
-2.4101 3.7754 -2.0733 0.9805
-3.9572 1.9996 -2.0523 0.9806
-1.5257 0.6072 -0.7601 0.9928
-1.5924 0.4746 -0.7692 0.9927
-1.6373 0.3328 -0.7734 0.9927
-1.6675 0.1865 -0.7767 0.9926
-1.6738 -0.1120 -0.7765 0.9926
-1.6521 -0.2598 -0.7741 0.9927
-1.6165 -0.4043 -0.7713 0.9927
-4.0149 -1.8090 -2.0384 0.9808
-3.1371 -3.1023 -2.0423 0.9807
-2.5422 -3.6163 -2.0461 0.9807
-2.2128 -3.8327 -2.0485 0.9807
0.8442 -4.4042 -2.0758 0.9804
1.2353 -4.3200 -2.0798 0.9804
1.6180 -4.2011 -2.0839 0.9804
3.5730 -2.8216 -2.1074 0.9801
4.0295 -2.1502 -2.1141 0.9801
4.2109 -1.7855 -2.1171 0.9800
4.3587 -1.4055 -2.1199 0.9800
4.5487 -0.6117 -2.1245 0.9800
4.5922 0.2048 -2.1278 0.9799
4.4870 1.0166 -2.1296 0.9799
3.6073 2.8486 -2.1276 0.9799
3.3370 3.1561 -2.1261 0.9800
2.7194 3.6908 -2.1221 0.9800
1.2535 4.3837 -2.1105 0.9801
0.0505 4.5354 -2.0995 0.9802
-1.1429 4.3625 -2.0875 0.9803
-1.5237 4.2352 -2.0834 0.9804
-1.8909 4.0748 -2.0793 0.9804
-2.2417 3.8827 -2.0753 0.9804
-2.8837 3.4109 -2.0675 0.9805
-3.6635 2.5149 -2.0569 0.9806
-1.6165 0.4043 -0.7713 0.9927
-1.6521 0.2598 -0.7741 0.9927
-1.6738 0.1120 -0.7765 0.9926
-1.5924 -0.4746 -0.7692 0.9927
-3.7395 -2.3290 -2.0392 0.9808
-3.5190 -2.6538 -2.0402 0.9808
-2.9970 -3.2404 -2.0431 0.9807
-2.6993 -3.4976 -2.0451 0.9807
-2.0412 -3.9299 -2.0498 0.9807
-0.1491 -4.4610 -2.0661 0.9805
0.2489 -4.4647 -2.0699 0.9805
0.6466 -4.4332 -2.0738 0.9804
1.0406 -4.3665 -2.0778 0.9804
1.4279 -4.2648 -2.0818 0.9804
1.8053 -4.1289 -2.0859 0.9803
2.5186 -3.7580 -2.0940 0.9803
2.8484 -3.5256 -2.0980 0.9802
3.1567 -3.2640 -2.1019 0.9802
3.4408 -2.9754 -2.1056 0.9801
3.9267 -2.3258 -2.1125 0.9801
4.4196 -1.2107 -2.1211 0.9800
4.5147 -0.8134 -2.1234 0.9800
4.5735 -0.4087 -2.1254 0.9800
4.3312 0.0000 -2.1245 0.9809
4.3164 0.3857 -2.1258 0.9809
3.9129 1.8691 -2.1271 0.9809
3.7300 2.2093 -2.1265 0.9809
3.0085 3.1108 -2.1228 0.9809
2.4046 3.5880 -2.1187 0.9809
1.7261 3.9477 -2.1135 0.9810
0.6190 4.2442 -2.1039 0.9811
-0.5216 4.2348 -2.0930 0.9812
-0.8948 4.1640 -2.0892 0.9812
-1.2595 4.0603 -2.0853 0.9812
-1.6129 3.9248 -2.0815 0.9813
-1.9523 3.7588 -2.0776 0.9813
-2.2749 3.5636 -2.0739 0.9813
-2.8607 3.0930 -2.0666 0.9814
-3.3529 2.5285 -2.0599 0.9815
-3.7373 1.8886 -2.0540 0.9815
-1.3059 0.5197 -0.6895 0.9938
-1.3149 -0.3289 -0.6649 0.9940
-1.3171 -0.4573 -0.6839 0.9938
-1.2865 -0.5797 -0.6922 0.9937
-3.6269 -2.0404 -2.0413 0.9816
-2.4013 -3.4159 -2.0482 0.9816
-1.7617 -3.7964 -2.0530 0.9815
-0.3280 -4.1976 -2.0653 0.9814
0.0470 -4.2173 -2.0688 0.9814
0.4229 -4.2037 -2.0724 0.9814
0.7968 -4.1569 -2.0762 0.9813
1.1658 -4.0769 -2.0800 0.9813
1.5268 -3.9643 -2.0838 0.9813
1.8771 -3.8198 -2.0877 0.9812
2.5338 -3.4389 -2.0953 0.9811
2.8348 -3.2054 -2.0990 0.9811
3.1142 -2.9454 -2.1026 0.9811
3.5985 -2.3540 -2.1093 0.9810
3.7993 -2.0274 -2.1124 0.9810
4.1090 -1.3250 -2.1178 0.9809
4.2153 -0.9551 -2.1201 0.9809
4.2876 -0.5766 -2.1221 0.9809
4.3282 0.1930 -2.1252 0.9809
4.2959 0.5777 -2.1262 0.9809
4.2288 0.9581 -2.1269 0.9809
3.8253 2.0413 -2.1269 0.9809
3.3999 2.6849 -2.1250 0.9809
2.8657 3.2403 -2.1219 0.9809
2.5635 3.4792 -2.1198 0.9809
2.2411 3.6894 -2.1175 0.9810
1.9015 3.8695 -2.1149 0.9810
1.1820 4.1337 -2.1089 0.9810
0.8081 4.2159 -2.1056 0.9811
-0.3327 4.2577 -2.0949 0.9812
-0.7091 4.2036 -2.0911 0.9812
-1.0784 4.1162 -2.0872 0.9812
-1.4378 3.9965 -2.0834 0.9813
-1.7845 3.8455 -2.0795 0.9813
-2.4293 3.4556 -2.0720 0.9814
-2.9931 2.9600 -2.0649 0.9814
-3.2394 2.6775 -2.0615 0.9814
-3.6520 2.0546 -2.0554 0.9815
-1.3149 0.3289 -0.6649 0.9940
-1.3513 0.0905 -0.6643 0.9940
-1.3536 -0.0302 -0.6641 0.9940
-1.3419 -0.1501 -0.6624 0.9940
-1.3047 -0.2652 -0.6531 0.9941
-3.3246 -2.5072 -2.0426 0.9816
-2.8312 -3.0611 -2.0453 0.9816
-2.5498 -3.3039 -2.0472 0.9816
-1.5919 -3.8737 -2.0543 0.9815
-0.5142 -4.1753 -2.0636 0.9814
-0.1408 -4.2115 -2.0670 0.9814
1.3475 -4.0247 -2.0819 0.9813
1.7035 -3.8960 -2.0858 0.9812
2.0473 -3.7358 -2.0896 0.9812
2.3760 -3.5452 -2.0934 0.9812
2.6869 -3.3256 -2.0972 0.9811
2.9774 -3.0786 -2.1008 0.9811
3.2450 -2.8060 -2.1043 0.9811
4.1663 -1.1413 -2.1190 0.9809
4.2557 -0.7667 -2.1211 0.9809
4.0908 0.0000 -2.1222 0.9817
4.0297 0.7260 -2.1242 0.9817
3.3218 2.3909 -2.1233 0.9817
2.8417 2.9383 -2.1206 0.9817
2.2716 3.3894 -2.1167 0.9818
1.9587 3.5742 -2.1144 0.9818
1.2906 3.8549 -2.1090 0.9818
0.5850 4.0109 -2.1028 0.9819
0.2253 4.0406 -2.0994 0.9819
-0.1350 4.0380 -2.0960 0.9820
-0.8459 3.9366 -2.0888 0.9820
-1.5251 3.7112 -2.0815 0.9821
-2.1516 3.3704 -2.0744 0.9821
-2.7061 2.9258 -2.0675 0.9822
-3.1722 2.3923 -2.0612 0.9823
-3.3678 2.0975 -2.0583 0.9823
-1.0665 0.5389 -0.6199 0.9946
-1.1266 0.3358 -0.6099 0.9947
-1.1333 0.2303 -0.5999 0.9948
-1.1649 0.1303 -0.6081 0.9947
-1.1739 -0.0786 -0.6103 0.9947
-1.1517 -0.1811 -0.6048 0.9948
-1.1275 -0.2820 -0.6029 0.9948
-1.1198 -0.3889 -0.6150 0.9947
-3.4331 -1.9314 -2.0435 0.9824
-3.2487 -2.2301 -2.0442 0.9824
-3.0388 -2.5117 -2.0453 0.9824
-2.8050 -2.7740 -2.0466 0.9824
-2.5490 -3.0150 -2.0482 0.9824
-1.3424 -3.7313 -2.0572 0.9823
-1.0064 -3.8413 -2.0600 0.9823
-0.6615 -3.9214 -2.0631 0.9822
-0.3103 -3.9708 -2.0662 0.9822
1.4436 -3.7483 -2.0838 0.9821
1.7746 -3.6113 -2.0874 0.9820
2.6793 -3.0295 -2.0981 0.9819
2.9431 -2.7835 -2.1015 0.9819
3.4002 -2.2243 -2.1078 0.9819
3.7506 -1.5904 -2.1134 0.9818
3.8817 -1.2517 -2.1159 0.9818
4.0499 -0.5447 -2.1199 0.9818
4.0855 -0.1822 -2.1216 0.9817
4.0880 0.1823 -2.1229 0.9817
4.0574 0.5457 -2.1238 0.9817
3.8981 1.2570 -2.1248 0.9817
2.9709 2.8098 -2.1214 0.9817
2.1172 3.4854 -2.1156 0.9818
1.7965 3.6557 -2.1131 0.9818
-0.3145 4.0246 -2.0942 0.9820
-1.3595 3.7788 -2.0834 0.9821
-1.6875 3.6364 -2.0797 0.9821
-2.2976 3.2684 -2.0726 0.9822
-2.5751 3.0459 -2.0692 0.9822
-3.0647 2.5331 -2.0627 0.9822
-3.2733 2.2470 -2.0597 0.9823
-3.4556 1.9441 -2.0569 0.9823
-1.0898 0.4910 -0.6201 0.9946
-1.1198 0.3889 -0.6150 0.9947
-1.1517 0.1811 -0.6048 0.9948
-1.1739 0.0786 -0.6103 0.9947
-1.1649 -0.1303 -0.6081 0.9947
-1.1266 -0.3358 -0.6099 0.9947
-1.0665 -0.5389 -0.6199 0.9946
-3.3442 -2.0828 -2.0439 0.9824
-3.1469 -2.3732 -2.0447 0.9824
-2.9248 -2.6453 -2.0459 0.9824
-2.4132 -3.1269 -2.0491 0.9824
-2.1274 -3.3325 -2.0511 0.9823
-1.8244 -3.5126 -2.0534 0.9823
-1.5063 -3.6654 -2.0559 0.9823
-1.1757 -3.7900 -2.0586 0.9823
-0.8349 -3.8851 -2.0615 0.9823
-0.1332 -3.9838 -2.0679 0.9822
0.2223 -3.9864 -2.0713 0.9822
0.9287 -3.8971 -2.0784 0.9821
1.2741 -3.8056 -2.0820 0.9821
1.9354 -3.5317 -2.0893 0.9820
2.2459 -3.3512 -2.0929 0.9820
2.5396 -3.1433 -2.0964 0.9820
2.8139 -2.9095 -2.0998 0.9819
3.6737 -1.7548 -2.1121 0.9818
3.8200 -1.4226 -2.1147 0.9818
3.9357 -1.0781 -2.1170 0.9818
4.0199 -0.7242 -2.1190 0.9818
2.0356 0.1819 -1.1193 0.9907
3.4967 1.6702 -2.1224 0.9825
3.1432 2.2624 -2.1211 0.9825
2.9278 2.5318 -2.1200 0.9825
2.6891 2.7805 -2.1186 0.9825
2.4290 3.0064 -2.1169 0.9825
1.8538 3.3828 -2.1127 0.9826
1.5436 3.5302 -2.1103 0.9826
1.2217 3.6490 -2.1076 0.9826
-0.1278 3.8235 -2.0953 0.9827
-1.7489 3.3673 -2.0782 0.9828
-2.0384 3.1931 -2.0748 0.9829
-2.3108 2.9942 -2.0715 0.9829
-2.5642 2.7723 -2.0683 0.9829
-3.1919 1.9880 -2.0596 0.9830
-0.9364 0.4732 -0.5746 0.9952
-1.0000 0.2033 -0.5589 0.9954
-1.0415 0.0232 -0.5706 0.9953
-1.0166 -0.1599 -0.5637 0.9953
-0.9756 -0.3387 -0.5656 0.9953
-0.9472 -0.4268 -0.5690 0.9953
-3.0802 -2.1144 -2.0463 0.9831
-2.8811 -2.3813 -2.0472 0.9831
-2.1544 -3.0647 -2.0518 0.9831
-1.8749 -3.2475 -2.0538 0.9830
-1.5802 -3.4052 -2.0561 0.9830
-1.2724 -3.5366 -2.0586 0.9830
-0.9538 -3.6406 -2.0613 0.9830
-0.6268 -3.7162 -2.0641 0.9830
-0.2940 -3.7627 -2.0671 0.9829
0.0421 -3.7797 -2.0703 0.9829
0.7139 -3.7242 -2.0769 0.9829
1.0442 -3.6519 -2.0803 0.9828
1.3674 -3.5503 -2.0838 0.9828
1.6807 -3.4202 -2.0872 0.9828
1.9817 -3.2624 -2.0906 0.9827
2.5369 -2.8685 -2.0973 0.9827
3.0142 -2.3803 -2.1036 0.9826
3.2186 -2.1055 -2.1065 0.9826
1.9407 -0.8229 -1.1546 0.9904
1.9895 -0.6415 -1.1449 0.9905
2.0041 -0.4541 -1.1255 0.9907
2.0226 -0.2720 -1.1178 0.9907
2.0434 0.0911 -1.1203 0.9907
2.0042 0.4541 -1.1255 0.9907
1.9895 0.6415 -1.1449 0.9905
1.9407 0.8229 -1.1546 0.9904
3.0386 2.3995 -2.1206 0.9825
2.8113 2.6589 -2.1193 0.9825
2.0037 3.2986 -2.1138 0.9826
1.0572 3.6973 -2.1062 0.9826
0.7229 3.7715 -2.1033 0.9826
0.3838 3.8152 -2.1002 0.9827
-0.6348 3.7632 -2.0902 0.9827
-0.9656 3.6857 -2.0868 0.9828
-1.2877 3.5792 -2.0834 0.9828
-1.5985 3.4447 -2.0799 0.9828
-1.8957 3.2834 -2.0765 0.9829
-2.4400 2.8860 -2.0699 0.9829
-2.6831 2.6534 -2.0668 0.9829
-3.1022 2.1296 -2.0609 0.9830
-0.9240 0.5198 -0.5806 0.9952
-0.9472 0.4268 -0.5690 0.9953
-0.9847 0.2463 -0.5559 0.9954
-1.0166 0.1599 -0.5637 0.9953
-1.0293 -0.1152 -0.5673 0.9953
-0.9638 -0.3836 -0.5681 0.9953
-0.9364 -0.4732 -0.5746 0.9952
-2.9836 -2.2500 -2.0467 0.9831
-2.7730 -2.5080 -2.0478 0.9831
-2.5405 -2.7467 -2.0492 0.9831
-2.0167 -3.1591 -2.0528 0.9831
-1.1143 -3.5921 -2.0599 0.9830
-0.7912 -3.6820 -2.0627 0.9830
-0.1262 -3.7749 -2.0687 0.9829
0.5468 -3.7493 -2.0752 0.9829
1.2069 -3.6047 -2.0820 0.9828
1.8329 -3.3447 -2.0889 0.9828
2.1268 -3.1734 -2.0923 0.9827
2.4047 -2.9763 -2.0957 0.9827
2.9031 -2.5104 -2.1021 0.9826
3.4772 -1.6609 -2.1106 0.9826
2.0004 -0.5480 -1.1360 0.9906
2.0036 -0.3609 -1.1150 0.9908
2.0356 -0.1819 -1.1193 0.9907
1.8754 0.0000 -1.0828 0.9914
1.8700 0.1671 -1.0839 0.9914
1.7869 0.6654 -1.1009 0.9912
2.7750 2.3996 -2.1181 0.9832
2.5488 2.6354 -2.1167 0.9832
2.3023 2.8497 -2.1151 0.9832
2.0378 3.0406 -2.1133 0.9832
1.4633 3.3467 -2.1088 0.9833
0.5251 3.6005 -2.1008 0.9833
0.2023 3.6278 -2.0978 0.9834
-0.4428 3.5954 -2.0915 0.9834
-0.7599 3.5362 -2.0883 0.9834
-1.0699 3.4492 -2.0850 0.9835
-1.3705 3.3350 -2.0817 0.9835
-1.9341 3.0297 -2.0753 0.9835
-2.4334 2.6310 -2.0691 0.9836
-2.6541 2.4005 -2.0662 0.9836
-0.8491 0.5288 -0.5776 0.9954
-0.8932 0.3555 -0.5550 0.9956
-0.9120 0.1854 -0.5373 0.9957
-0.9237 0.1033 -0.5366 0.9957
-0.9274 -0.0621 -0.5366 0.9957
-0.8984 -0.3119 -0.5490 0.9956
-0.8858 -0.3991 -0.5609 0.9955
-0.8638 -0.4859 -0.5722 0.9954
-2.7356 -2.2610 -2.0490 0.9837
-2.0454 -2.9095 -2.0534 0.9837
-1.7799 -3.0829 -2.0553 0.9837
-1.2078 -3.3570 -2.0598 0.9837
-0.5949 -3.5270 -2.0651 0.9836
0.9907 -3.4646 -2.0805 0.9835
1.2971 -3.3680 -2.0837 0.9835
1.5943 -3.2442 -2.0870 0.9834
2.1509 -2.9192 -2.0935 0.9834
2.4057 -2.7202 -2.0966 0.9834
2.8580 -2.2569 -2.1025 0.9833
3.0516 -1.9962 -2.1053 0.9833
1.7564 -0.7448 -1.1014 0.9912
1.8108 -0.5839 -1.0985 0.9913
1.8592 -0.2500 -1.0831 0.9914
1.8592 0.2500 -1.0831 0.9914
1.8108 0.5839 -1.0985 0.9913
1.6861 0.8997 -1.1034 0.9912
3.0722 2.0097 -2.1195 0.9832
2.8799 2.2742 -2.1186 0.9832
1.6119 3.2801 -2.1100 0.9833
1.0024 3.5055 -2.1050 0.9833
0.3640 3.6178 -2.0993 0.9833
0.0404 3.6306 -2.0962 0.9834
-0.2824 3.6143 -2.0931 0.9834
-0.6021 3.5694 -2.0899 0.9834
-1.2216 3.3954 -2.0833 0.9835
-1.5165 3.2681 -2.0801 0.9835
-1.7986 3.1153 -2.0768 0.9835
-2.3155 2.7387 -2.0706 0.9836
-0.8638 0.4859 -0.5722 0.9954
-0.8858 0.3991 -0.5609 0.9955
-0.9030 0.2259 -0.5374 0.9957
-0.9189 0.1445 -0.5370 0.9957
-0.9306 -0.0207 -0.5374 0.9957
-0.9120 -0.1854 -0.5373 0.9957
-0.9012 -0.2686 -0.5429 0.9957
-0.8760 -0.4426 -0.5667 0.9955
-1.9146 -2.9991 -2.0543 0.9837
-1.6417 -3.1608 -2.0564 0.9837
-1.3553 -3.2980 -2.0586 0.9837
-0.7510 -3.4947 -2.0637 0.9836
-0.1198 -3.5823 -2.0694 0.9836
0.1998 -3.5841 -2.0725 0.9836
0.5188 -3.5574 -2.0756 0.9835
1.4470 -3.3094 -2.0854 0.9835
1.7386 -3.1725 -2.0886 0.9834
2.0171 -3.0098 -2.0919 0.9834
2.5264 -2.6122 -2.0981 0.9834
2.7528 -2.3804 -2.1011 0.9833
3.1394 -1.8595 -2.1066 0.9833
1.7194 -0.8213 -1.1001 0.9912
1.7869 -0.6654 -1.1009 0.9912
1.8267 -0.5004 -1.0935 0.9913
1.8700 -0.1671 -1.0839 0.9914
