ply
format ascii 1.0
element vertex 1343
property float32 x
property float32 y
property float32 z
property float32 I
end_header
-15.0854 11.3765 -1.8139 0.9269
-19.3565 3.9344 -1.8963 0.9237
-19.5422 2.1861 -1.8879 0.9240
-19.4879 -1.3045 -1.8751 0.9245
-19.2509 -3.0271 -1.8709 0.9247
-17.8758 -6.2071 -1.8167 0.9268
-15.5173 10.6521 -1.8070 0.9272
-17.2530 9.7064 -1.9005 0.9235
-19.2099 4.8047 -1.9011 0.9235
-19.4672 3.0611 -1.8919 0.9239
-19.5816 1.3108 -1.8841 0.9242
-16.7355 -6.6606 -1.7293 0.9302
-16.0837 -8.1274 -1.7301 0.9301
18.7830 3.3839 -2.2671 0.9260
17.9173 6.6725 -2.2711 0.9259
17.2478 8.2386 -2.2705 0.9259
16.4291 9.7310 -2.2682 0.9260
15.4702 11.1348 -2.2641 0.9261
12.7940 13.2289 -2.1861 0.9285
-12.8775 9.7114 -1.9159 0.9371
-15.2125 6.0544 -1.9449 0.9362
-15.6162 4.6541 -1.9356 0.9365
-15.8521 -2.4926 -1.9061 0.9374
-15.5483 -3.8889 -1.9038 0.9375
-15.1316 -5.2542 -1.9027 0.9375
-13.7999 -6.2179 -1.7979 0.9409
-12.9425 -7.2813 -1.7640 0.9419
16.9929 -3.8501 -2.0697 0.9322
17.4044 -2.3407 -2.0860 0.9317
18.9446 -0.8448 -2.2526 0.9265
18.1939 5.8668 -2.2708 0.9259
17.6016 7.4637 -2.2710 0.9259
16.8566 8.9950 -2.2696 0.9259
15.9666 10.4449 -2.2664 0.9260
14.9414 11.7991 -2.2615 0.9262
13.7921 13.0445 -2.2550 0.9264
10.3507 14.0481 -2.0728 0.9321
-11.0827 10.9600 -1.8515 0.9391
-11.9332 9.8631 -1.8390 0.9395
-14.3859 8.0934 -1.9607 0.9357
-14.9662 6.7435 -1.9499 0.9360
-15.7734 3.9452 -1.9314 0.9366
-15.9985 2.5156 -1.9237 0.9368
-14.8615 -5.9148 -1.9000 0.9376
-12.6127 -7.8553 -1.7650 0.9419
16.7634 -4.5920 -2.0646 0.9324
18.7118 -1.6721 -2.2316 0.9271
15.6699 1.4003 -2.2291 0.9384
15.2147 4.1677 -2.2352 0.9383
14.7895 5.5077 -2.2361 0.9382
14.2376 6.8007 -2.2356 0.9382
13.5642 8.0341 -2.2337 0.9383
11.8825 10.2752 -2.2258 0.9385
10.8917 11.2619 -2.2199 0.9387
-7.1803 11.2477 -1.8907 0.9475
-8.1018 10.4978 -1.8789 0.9478
-11.2304 8.4692 -1.9930 0.9448
-12.4279 6.2801 -1.9730 0.9453
-12.8799 5.1261 -1.9642 0.9455
-13.6291 1.5247 -1.9431 0.9461
-13.4626 -2.1169 -1.9309 0.9464
-12.8541 -4.4634 -1.9280 0.9465
-12.4064 -5.5901 -1.9281 0.9465
13.1620 -5.5812 -2.0256 0.9439
13.6698 -4.4080 -2.0351 0.9436
15.6598 -0.6983 -2.2210 0.9386
15.7001 0.7001 -2.2267 0.9385
15.6062 2.0988 -2.2311 0.9384
15.3784 3.4843 -2.2342 0.9383
15.0182 4.8428 -2.2358 0.9382
13.1842 8.6247 -2.2323 0.9383
10.3438 11.6959 -2.2123 0.9389
-6.6936 11.5936 -1.8968 0.9474
-7.6499 10.8822 -1.8848 0.9477
-9.8180 9.7092 -1.9565 0.9457
-10.8717 8.9857 -1.9985 0.9446
-13.0682 4.5378 -1.9601 0.9456
-13.5680 2.1335 -1.9461 0.9460
-13.5533 -1.5162 -1.9323 0.9464
-13.0426 -3.8871 -1.9283 0.9465
-10.0901 -7.6093 -1.7906 0.9502
12.8683 -6.1467 -2.0206 0.9440
13.4294 -5.0012 -2.0305 0.9437
13.8858 -3.8037 -2.0399 0.9435
15.3468 -2.7649 -2.2095 0.9389
13.3346 1.1916 -2.2055 0.9472
13.1943 2.3771 -2.2086 0.9471
12.1104 5.7847 -2.2110 0.9470
11.5391 6.8347 -2.2094 0.9471
8.3608 10.3483 -2.1917 0.9475
5.8825 10.7343 -2.0165 0.9516
4.8841 11.1702 -2.0084 0.9518
3.8536 11.5100 -1.9996 0.9520
2.8006 11.7520 -1.9902 0.9522
-3.4652 11.1707 -1.9268 0.9537
-4.4205 10.7567 -1.9158 0.9539
-6.2095 9.7270 -1.9011 0.9543
-10.2766 6.4003 -1.9945 0.9521
-11.4687 3.4180 -1.9715 0.9526
-11.8240 1.3227 -1.9600 0.9529
-11.6892 -1.8381 -1.9493 0.9532
-9.0684 -6.2251 -1.8120 0.9564
-8.4635 -6.9952 -1.8089 0.9565
-7.8222 -7.7355 -1.8123 0.9564
10.7174 -5.7190 -2.0012 0.9519
11.2324 -4.7629 -2.0099 0.9517
13.3332 -0.5945 -2.1987 0.9473
13.2786 1.7858 -2.2072 0.9471
12.7743 4.1192 -2.2111 0.9470
11.8372 6.3165 -2.2103 0.9471
10.5034 8.2945 -2.2048 0.9472
9.7038 9.1778 -2.2003 0.9473
8.8262 9.9799 -2.1948 0.9474
7.8682 10.6789 -2.1852 0.9476
4.3722 11.3522 -2.0041 0.9519
-1.9620 11.6313 -1.9432 0.9533
-4.8815 10.5193 -1.9104 0.9541
-10.0035 6.8670 -1.9989 0.9520
-10.9698 4.9428 -1.9821 0.9524
-11.3243 3.9322 -1.9748 0.9526
-11.7686 1.8505 -1.9626 0.9529
-11.8571 0.7937 -1.9577 0.9530
-11.7669 -1.3163 -1.9506 0.9531
-11.5898 -2.3557 -1.9483 0.9532
-10.9790 -4.3695 -1.9467 0.9532
-8.7598 -6.6061 -1.8074 0.9565
-8.1508 -7.3719 -1.8105 0.9564
-7.4782 -8.0854 -1.8143 0.9563
9.7900 -7.0464 -1.9871 0.9523
10.4282 -6.1766 -1.9967 0.9521
10.9857 -5.2474 -2.0056 0.9518
13.0802 -2.3565 -2.1895 0.9475
13.2765 -1.1864 -2.1959 0.9474
11.5939 1.0360 -2.1879 0.9537
11.4698 2.0664 -2.1906 0.9537
11.2491 3.0814 -2.1923 0.9536
10.9335 4.0717 -2.1930 0.9536
10.5261 5.0279 -2.1926 0.9536
10.0305 5.9411 -2.1912 0.9537
5.5208 10.0743 -2.1593 0.9543
3.3599 10.0354 -1.9892 0.9578
2.4433 10.2525 -1.9810 0.9580
-0.3474 10.3915 -1.9543 0.9586
-2.1632 10.0665 -1.9353 0.9590
-6.6260 8.5855 -2.0384 0.9568
-7.3299 7.9250 -2.0291 0.9570
-7.9707 7.2091 -2.0201 0.9572
-9.0481 5.6352 -2.0036 0.9575
-9.8336 3.9137 -1.9893 0.9578
-10.3197 -1.6227 -1.9635 0.9584
-10.1263 -2.5327 -1.9620 0.9584
-9.8569 -3.4227 -1.9612 0.9584
-6.9029 -6.8264 -1.8248 0.9613
-6.2809 -7.4291 -1.8285 0.9612
7.5958 -7.1841 -1.9651 0.9583
8.2422 -6.5088 -1.9740 0.9582
10.5537 -4.4752 -2.1547 0.9544
11.5440 1.5525 -2.1893 0.9537
11.3714 2.5764 -2.1916 0.9537
10.2890 5.4904 -2.1920 0.9536
9.7511 6.3789 -2.1902 0.9537
9.1327 7.2120 -2.1873 0.9537
8.4396 7.9821 -2.1834 0.9538
7.6788 8.6826 -2.1787 0.9539
5.9842 9.8514 -2.1665 0.9542
5.0177 10.2108 -2.1384 0.9548
3.8605 10.0235 -2.0189 0.9572
2.9036 10.1546 -1.9852 0.9579
1.0480 10.4178 -1.9680 0.9583
0.1161 10.4213 -1.9589 0.9585
-0.8080 10.3408 -1.9496 0.9587
-3.4982 9.7233 -1.9423 0.9588
-4.5052 9.7084 -2.0117 0.9574
-6.2517 8.8932 -2.0433 0.9567
-8.8053 6.0445 -2.0075 0.9575
-9.2726 5.2167 -1.9998 0.9576
-10.3816 1.6324 -1.9753 0.9581
-10.4627 0.7004 -1.9710 0.9582
-10.4645 -0.2332 -1.9674 0.9583
-10.0010 -2.9806 -1.9615 0.9584
-8.8647 -5.5210 -1.9629 0.9584
-7.1937 -6.5063 -1.8231 0.9613
7.2514 -7.4979 -1.9606 0.9584
8.5426 -6.1486 -1.9783 0.9581
10.2498 -4.8959 -2.1351 0.9548
10.7725 -4.0117 -2.1607 0.9543
11.3834 -2.0508 -2.1741 0.9540
11.5499 -1.0321 -2.1796 0.9539
10.2706 0.0000 -2.1710 0.9589
10.2451 0.9155 -2.1742 0.9588
10.1340 1.8257 -2.1766 0.9588
9.9381 2.7223 -2.1781 0.9587
9.6590 3.5970 -2.1787 0.9587
8.8620 5.2490 -2.1772 0.9588
8.3516 6.0111 -2.1751 0.9588
6.4330 7.9623 -2.1637 0.9590
4.8935 8.9295 -2.1524 0.9592
4.0667 9.3007 -2.1457 0.9593
3.2085 9.5831 -2.1362 0.9595
2.3289 9.7723 -2.1235 0.9598
1.4217 9.7479 -2.0823 0.9605
0.5417 9.7158 -2.0569 0.9610
-0.3246 9.7081 -2.0532 0.9611
-1.1952 9.7040 -2.0667 0.9608
-2.9093 9.3785 -2.0756 0.9606
-5.9020 7.6475 -2.0420 0.9613
-7.6220 5.7480 -2.0179 0.9617
-8.0746 5.0289 -2.0108 0.9619
-9.0336 2.6923 -1.9925 0.9622
-9.2147 1.8730 -1.9876 0.9623
-9.3249 1.0432 -1.9834 0.9624
-9.3640 0.2087 -1.9798 0.9624
-9.3319 -0.6247 -1.9770 0.9625
-9.2293 -1.4512 -1.9749 0.9625
-8.8164 -3.0614 -1.9728 0.9626
-6.2883 -6.2186 -1.8694 0.9645
-5.6141 -6.6404 -1.8381 0.9651
-2.9751 -8.2694 -1.8577 0.9647
4.7523 -7.8234 -1.9349 0.9633
5.4535 -7.4016 -1.9434 0.9631
6.1168 -6.9164 -1.9517 0.9630
9.3508 -3.9651 -2.1469 0.9593
9.6962 -3.1266 -2.1535 0.9592
9.9633 -2.2574 -2.1594 0.9591
10.2513 -0.4571 -2.1691 0.9589
10.2685 0.4579 -2.1727 0.9588
10.2002 1.3718 -2.1755 0.9588
8.0704 6.3731 -2.1737 0.9588
6.7888 7.6762 -2.1661 0.9590
6.0647 8.2311 -2.1612 0.9591
2.7699 9.6870 -2.1297 0.9596
0.9788 9.7291 -2.0669 0.9608
-1.6363 9.7008 -2.0795 0.9606
-3.3203 9.2289 -2.0732 0.9607
-4.1103 8.8575 -2.0641 0.9609
-4.8611 8.4196 -2.0551 0.9610
-5.5672 7.9195 -2.0463 0.9612
-7.3721 6.0932 -2.0217 0.9617
-8.2766 4.6564 -2.0074 0.9619
-8.6307 3.8888 -2.0010 0.9620
-9.1329 2.2843 -1.9900 0.9622
-9.3533 0.6261 -1.9815 0.9624
-9.1518 -1.8602 -1.9741 0.9625
-7.9282 -4.9377 -1.9743 0.9625
-7.4645 -5.6292 -1.9762 0.9625
-5.8986 -6.3775 -1.8363 0.9651
-5.3183 -6.8911 -1.8400 0.9650
-4.6949 -7.3544 -1.8443 0.9650
8.6715 -5.1362 -2.1304 0.9596
9.1500 -4.3706 -2.1434 0.9594
10.0665 -1.8136 -2.1621 0.9590
10.2107 -0.9124 -2.1669 0.9590
9.1926 0.0000 -2.1605 0.9629
9.1683 0.8193 -2.1633 0.9629
9.0678 1.6336 -2.1654 0.9628
8.8919 2.4357 -2.1668 0.9628
8.3201 3.9742 -2.1670 0.9628
7.4735 5.3791 -2.1641 0.9629
6.9566 6.0156 -2.1615 0.9629
6.3836 6.6005 -2.1581 0.9630
5.7598 7.1290 -2.1540 0.9630
3.6443 8.3346 -2.1379 0.9633
2.8792 8.5998 -2.1314 0.9634
1.3001 8.9141 -2.1172 0.9637
0.4997 8.9620 -2.1095 0.9638
-1.0889 8.8410 -2.0935 0.9641
-3.3460 8.1419 -2.0688 0.9645
-5.8858 6.3636 -2.0372 0.9650
-6.8728 5.1830 -2.0231 0.9652
-7.2835 4.5362 -2.0166 0.9654
-7.6355 3.8584 -2.0106 0.9655
-7.9267 3.1548 -2.0051 0.9656
-8.1557 2.4307 -2.0001 0.9656
-8.3212 1.6914 -1.9957 0.9657
-8.4225 0.9422 -1.9918 0.9658
-8.4592 0.1885 -1.9886 0.9658
-8.4315 -0.5644 -1.9860 0.9659
-8.3396 -1.3113 -1.9841 0.9659
-8.1845 -2.0471 -1.9828 0.9659
-7.9674 -2.7666 -1.9822 0.9659
-7.6897 -3.4648 -1.9822 0.9659
-7.3535 -4.1371 -1.9830 0.9659
-6.9610 -4.7785 -1.9844 0.9659
-6.5149 -5.3847 -1.9864 0.9659
-6.0084 -5.9419 -1.9860 0.9659
-4.5256 -6.4378 -1.8495 0.9682
-3.9436 -6.8305 -1.8537 0.9681
-3.3284 -7.1726 -1.8584 0.9680
-2.0157 -7.6938 -1.8692 0.9678
-1.3272 -7.8681 -1.8753 0.9677
0.0895 -8.0350 -1.8885 0.9675
1.5242 -7.9518 -1.9029 0.9673
2.2347 -7.8150 -1.9103 0.9672
4.8984 -6.6482 -1.9408 0.9666
7.5692 -4.9516 -2.1258 0.9635
8.0056 -4.2719 -2.1326 0.9634
8.9225 -2.0216 -2.1501 0.9631
9.0866 -1.2220 -2.1548 0.9630
9.1899 0.4098 -2.1620 0.9629
9.1275 1.2275 -2.1645 0.9629
8.7760 2.8299 -2.1671 0.9628
8.4898 3.6000 -2.1673 0.9628
8.1332 4.3400 -2.1666 0.9628
7.7094 5.0432 -2.1651 0.9629
7.2224 5.7034 -2.1629 0.9629
6.0777 6.8721 -2.1561 0.9630
4.0176 8.1757 -2.1409 0.9633
3.2645 8.4761 -2.1347 0.9634
1.6989 8.8628 -2.1209 0.9636
-0.6953 8.8980 -2.0976 0.9640
-2.2443 8.5662 -2.0812 0.9643
-3.6980 7.9690 -2.0647 0.9645
-5.6067 6.6317 -2.0410 0.9649
-6.1523 6.0842 -2.0336 0.9651
-7.4669 4.2008 -2.0136 0.9654
-8.2465 2.0626 -1.9978 0.9657
-8.4490 0.5656 -1.9901 0.9658
-8.0836 -2.4092 -1.9824 0.9659
-7.5288 -3.8045 -1.9825 0.9659
-6.7445 -5.0863 -1.9853 0.9659
-6.2725 -5.6732 -1.9877 0.9658
-5.7304 -6.1957 -1.9835 0.9659
-4.8077 -6.2296 -1.8494 0.9682
-4.2390 -6.6403 -1.8515 0.9681
-3.0097 -7.3238 -1.8609 0.9680
-2.3528 -7.5846 -1.8664 0.9679
-0.9770 -7.9328 -1.8785 0.9677
-0.2680 -8.0164 -1.8851 0.9676
1.1662 -7.9963 -1.8992 0.9673
1.8806 -7.8913 -1.9066 0.9672
2.5857 -7.7230 -1.9141 0.9671
3.2758 -7.4920 -1.9217 0.9670
4.5885 -6.8465 -1.9370 0.9667
5.1998 -6.4358 -1.9446 0.9666
5.7738 -5.9701 -1.9519 0.9664
6.5660 -5.6779 -2.0401 0.9650
8.5410 -3.1807 -2.1420 0.9632
8.8131 -2.4141 -2.1476 0.9631
9.1408 -0.8168 -2.1569 0.9630
8.3109 -0.0000 -2.1518 0.9662
8.2879 0.7406 -2.1544 0.9662
7.8107 2.9087 -2.1580 0.9661
7.5199 3.5920 -2.1578 0.9662
6.7556 4.8624 -2.1551 0.9662
5.7719 5.9681 -2.1497 0.9663
5.2089 6.4471 -2.1460 0.9663
4.6052 6.8714 -2.1417 0.9664
2.6064 7.7850 -2.1257 0.9666
1.8976 7.9627 -2.1194 0.9667
1.1777 8.0747 -2.1128 0.9668
-0.9874 8.0169 -2.0914 0.9672
-2.3761 7.6597 -2.0765 0.9674
-3.0374 7.3911 -2.0690 0.9675
-3.6699 7.0660 -2.0616 0.9676
-4.2692 6.6876 -2.0543 0.9677
-4.8307 6.2593 -2.0472 0.9679
-5.3506 5.7850 -2.0403 0.9680
-6.2518 4.7147 -2.0274 0.9682
-6.9494 3.5117 -2.0160 0.9683
-7.2163 2.8720 -2.0110 0.9684
-7.5786 1.5404 -2.0024 0.9686
-7.7067 0.1717 -1.9959 0.9687
-7.6823 -0.5143 -1.9935 0.9687
-7.5993 -1.1949 -1.9918 0.9687
-7.2607 -2.5212 -1.9900 0.9687
-7.0077 -3.1575 -1.9901 0.9687
-5.4825 -5.4217 -1.9964 0.9686
-4.3620 -6.2050 -1.9638 0.9691
-3.5961 -6.2287 -1.8622 0.9707
-2.4430 -6.7905 -1.8685 0.9706
-0.5672 -7.2584 -1.8851 0.9704
0.0814 -7.3039 -1.8912 0.9703
1.3846 -7.2232 -1.9043 0.9701
2.6623 -6.9126 -1.9179 0.9699
4.4415 -6.0281 -1.9387 0.9695
6.4077 -5.0601 -2.1140 0.9668
6.8538 -4.4836 -2.1206 0.9667
7.5827 -3.2153 -2.1325 0.9665
7.8582 -2.5339 -2.1378 0.9665
8.2172 -1.1051 -2.1467 0.9663
8.3080 0.3705 -2.1532 0.9662
8.2506 1.1096 -2.1555 0.9662
8.1250 1.8409 -2.1570 0.9662
7.9320 2.5577 -2.1579 0.9662
6.5290 5.1559 -2.1540 0.9662
4.9118 6.6663 -2.1439 0.9664
4.2898 7.0619 -2.1394 0.9664
2.2538 7.8820 -2.1226 0.9667
0.0905 8.1192 -2.1023 0.9670
-0.6304 8.0671 -2.0951 0.9671
-1.3411 7.9509 -2.0877 0.9672
-2.0362 7.7720 -2.0802 0.9673
-5.0960 6.0276 -2.0437 0.9679
-5.5938 5.5318 -2.0369 0.9680
-6.0447 4.9961 -2.0305 0.9681
-6.4460 4.4249 -2.0244 0.9682
-6.7951 3.8229 -2.0187 0.9683
-7.0898 3.1945 -2.0134 0.9684
-7.3285 2.5447 -2.0086 0.9685
-7.6327 1.2002 -2.0005 0.9686
-7.7019 -0.1716 -1.9946 0.9687
-7.6481 -0.8556 -1.9926 0.9687
-7.5360 -1.5318 -1.9911 0.9687
-7.3665 -2.1955 -1.9902 0.9687
-7.1410 -2.8420 -1.9900 0.9687
-6.8609 -3.4670 -1.9903 0.9687
-5.2393 -5.6647 -1.9978 0.9686
-3.9679 -6.2156 -1.9093 0.9700
-3.3139 -6.3804 -1.8615 0.9707
-2.1410 -6.9019 -1.8710 0.9706
-0.8886 -7.2145 -1.8821 0.9704
-0.2437 -7.2882 -1.8881 0.9703
0.4073 -7.3053 -1.8944 0.9702
1.0596 -7.2650 -1.9009 0.9701
1.7080 -7.1671 -1.9076 0.9700
2.3475 -7.0116 -1.9145 0.9699
2.9730 -6.7994 -1.9214 0.9698
3.5792 -6.5313 -1.9284 0.9697
4.1612 -6.2090 -1.9353 0.9696
5.6180 -5.8090 -2.0924 0.9672
7.0572 -4.1800 -2.1237 0.9667
7.4221 -3.5452 -2.1297 0.9666
7.7282 -2.8780 -2.1352 0.9665
7.9724 -2.1839 -2.1402 0.9664
8.1521 -1.4687 -2.1447 0.9664
8.2654 -0.7386 -2.1486 0.9663
7.5758 0.0000 -2.1447 0.9690
7.5540 0.6750 -2.1470 0.9690
7.3242 2.0063 -2.1498 0.9689
6.8531 3.2735 -2.1500 0.9689
6.5319 3.8689 -2.1492 0.9689
6.1573 4.4317 -2.1476 0.9690
5.7326 4.9572 -2.1455 0.9690
5.2619 5.4407 -2.1427 0.9690
4.7493 5.8783 -2.1394 0.9691
3.0088 6.8814 -2.1262 0.9693
1.7321 7.2680 -2.1151 0.9694
1.0752 7.3723 -2.1091 0.9695
0.4135 7.4165 -2.1028 0.9696
-1.5457 7.1932 -2.0828 0.9699
-3.3578 6.4650 -2.0623 0.9702
-4.8997 5.2976 -2.0428 0.9704
-5.7281 4.3198 -2.0310 0.9706
-6.0736 3.7827 -2.0256 0.9707
-6.6163 2.6332 -2.0159 0.9708
-7.0378 0.7873 -2.0048 0.9710
-7.0704 0.1575 -2.0021 0.9710
-6.9730 -1.0965 -1.9983 0.9711
-6.1491 -3.4594 -1.9973 0.9711
-5.4462 -4.5014 -2.0002 0.9711
-5.0297 -4.9739 -2.0025 0.9710
-4.5734 -5.4094 -2.0053 0.9710
-2.8828 -6.2122 -1.9388 0.9719
-2.2413 -6.2299 -1.8743 0.9729
-1.1060 -6.5570 -1.8825 0.9727
-0.5195 -6.6483 -1.8878 0.9727
0.6716 -6.6757 -1.8994 0.9725
1.8565 -6.4926 -1.9117 0.9723
4.3662 -5.9259 -2.0838 0.9699
4.9046 -5.5457 -2.0958 0.9697
5.3996 -5.1069 -2.1040 0.9696
6.2556 -4.0923 -2.1162 0.9694
6.9175 -2.9333 -2.1271 0.9692
7.4919 -1.0076 -2.1400 0.9691
7.5633 -0.3373 -2.1433 0.9690
7.5727 0.3377 -2.1459 0.9690
7.4047 1.6777 -2.1494 0.9689
7.2286 2.3309 -2.1501 0.9689
6.9928 2.9652 -2.1502 0.9689
6.6994 3.5749 -2.1497 0.9689
5.9510 4.6994 -2.1466 0.9690
5.5027 5.2044 -2.1442 0.9690
3.9123 6.4406 -2.1333 0.9692
3.3163 6.7485 -2.1287 0.9692
-0.5760 7.3708 -2.0930 0.9697
-1.8615 7.1055 -2.0794 0.9699
-2.4784 6.8888 -2.0725 0.9700
-3.6366 6.2987 -2.0590 0.9702
-5.5377 4.5770 -2.0339 0.9706
-5.9068 4.0548 -2.0283 0.9707
-6.2282 3.5039 -2.0230 0.9707
-6.4997 2.9286 -2.0182 0.9708
-6.8873 1.7226 -2.0098 0.9709
-7.0012 1.1009 -2.0063 0.9710
-7.0663 -0.1575 -2.0009 0.9710
-6.9151 -1.4055 -1.9976 0.9711
-6.5530 -2.6080 -1.9966 0.9711
-6.2959 -3.1814 -1.9970 0.9711
-5.6387 -4.2523 -1.9993 0.9711
-4.8063 -5.1965 -2.0039 0.9710
-3.8143 -5.9750 -2.0068 0.9710
-3.2224 -6.2043 -1.9792 0.9714
-1.9623 -6.3258 -1.8750 0.9728
-0.2232 -6.6748 -1.8906 0.9726
0.3729 -6.6885 -1.8964 0.9725
1.5629 -6.5581 -1.9085 0.9724
2.7187 -6.2179 -1.9211 0.9722
3.3324 -6.0808 -1.9630 0.9716
4.6391 -5.7418 -2.0897 0.9698
5.1588 -5.3342 -2.1008 0.9696
6.0587 -4.3608 -2.1133 0.9694
6.4404 -3.8147 -2.1191 0.9694
6.7718 -3.2346 -2.1245 0.9693
7.5353 -0.6734 -2.1417 0.9690
6.9323 0.6195 -2.1407 0.9713
6.7207 1.8410 -2.1433 0.9713
6.2884 3.0037 -2.1435 0.9713
5.9938 3.5501 -2.1427 0.9713
3.8556 5.7530 -2.1302 0.9714
3.3220 6.0618 -2.1261 0.9715
2.7634 6.3201 -2.1216 0.9715
0.9882 6.7754 -2.1060 0.9718
0.3801 6.8177 -2.1002 0.9718
-0.2275 6.8050 -2.0942 0.9719
-1.9993 6.4450 -2.0755 0.9722
-2.5572 6.2226 -2.0692 0.9722
-3.0915 5.9522 -2.0630 0.9723
-3.5983 5.6366 -2.0568 0.9724
-4.0737 5.2785 -2.0508 0.9725
-5.5998 3.4876 -2.0291 0.9728
-5.8745 2.9685 -2.0244 0.9728
-6.4131 1.3035 -2.0129 0.9730
-6.4940 0.7265 -2.0099 0.9730
-6.5052 -0.4355 -2.0053 0.9731
-6.4358 -1.0120 -2.0038 0.9731
-6.3170 -1.5800 -2.0028 0.9731
-6.1499 -2.1355 -2.0024 0.9731
-5.9355 -2.6744 -2.0024 0.9731
-5.6755 -3.1930 -2.0030 0.9731
-5.3717 -3.6875 -2.0041 0.9731
-5.0262 -4.1543 -2.0057 0.9731
-4.6414 -4.5900 -2.0078 0.9731
-4.2199 -4.9913 -2.0104 0.9730
-3.7646 -5.3553 -2.0134 0.9730
-3.2788 -5.6790 -2.0170 0.9729
-2.7612 -5.9501 -2.0176 0.9729
-2.2213 -6.1742 -2.0182 0.9729
-1.6265 -6.2081 -1.9739 0.9735
0.0693 -6.2212 -1.9136 0.9743
1.1884 -6.2000 -1.9417 0.9739
2.9680 -6.0397 -2.0699 0.9722
4.0291 -5.4684 -2.0892 0.9720
4.5130 -5.1030 -2.0953 0.9719
4.9634 -4.6943 -2.1013 0.9718
6.0742 -3.2413 -2.1177 0.9716
6.3530 -2.6939 -2.1225 0.9715
6.8772 -0.9249 -2.1343 0.9714
6.9418 -0.3095 -2.1373 0.9713
6.9497 0.3099 -2.1397 0.9713
6.7947 1.5395 -2.1429 0.9713
6.6329 2.1388 -2.1436 0.9713
6.4165 2.7208 -2.1437 0.9713
5.4613 4.3127 -2.1404 0.9713
4.1117 5.5804 -2.1320 0.9714
3.5922 5.9136 -2.1282 0.9715
0.0760 6.8182 -2.0972 0.9719
-1.1275 6.6842 -2.0850 0.9720
-1.7128 6.5376 -2.0787 0.9721
-4.2987 5.0845 -2.0479 0.9725
-5.9944 2.7009 -2.0223 0.9729
-6.5156 0.4362 -2.0086 0.9730
-6.4767 -0.7245 -2.0045 0.9731
-6.0485 -2.4072 -2.0023 0.9731
-5.8111 -2.9365 -2.0026 0.9731
-4.8386 -4.3762 -2.0067 0.9731
-3.9963 -5.1781 -2.0118 0.9730
-3.0236 -5.8215 -2.0177 0.9729
-1.9243 -6.2033 -1.9977 0.9732
-1.3349 -6.2122 -1.9544 0.9738
-0.7658 -6.2182 -1.9270 0.9741
0.3467 -6.2179 -1.9155 0.9743
1.4745 -6.1871 -1.9563 0.9737
2.0618 -6.1584 -1.9975 0.9732
5.1747 -4.4747 -2.1042 0.9718
5.5672 -4.0071 -2.1098 0.9717
5.9167 -3.5045 -2.1151 0.9716
6.2198 -2.9709 -2.1201 0.9716
6.6756 -1.8286 -2.1289 0.9714
6.4179 0.0000 -2.1333 0.9733
6.3264 1.1398 -2.1368 0.9733
6.0277 2.2447 -2.1381 0.9733
5.8034 2.7721 -2.1379 0.9733
4.0249 4.9817 -2.1289 0.9734
3.5600 5.3119 -2.1256 0.9734
3.0677 5.5979 -2.1219 0.9735
2.5523 5.8373 -2.1177 0.9735
1.4704 6.1701 -2.1084 0.9736
0.9132 6.2613 -2.1033 0.9737
0.3514 6.3017 -2.0980 0.9737
-0.2103 6.2913 -2.0924 0.9738
-1.3153 6.1207 -2.0810 0.9740
-2.8614 5.5092 -2.0636 0.9742
-3.3312 5.2182 -2.0579 0.9742
-3.7722 4.8877 -2.0523 0.9743
-4.8922 3.6894 -2.0368 0.9745
-5.6569 2.2514 -2.0238 0.9747
-5.8245 1.7359 -2.0202 0.9747
-5.9695 -0.9387 -2.0087 0.9748
-5.8595 -1.4656 -2.0077 0.9749
-4.9825 -3.4203 -2.0089 0.9748
-4.3045 -4.2568 -2.0123 0.9748
-3.0398 -5.2650 -2.0209 0.9747
-2.5637 -5.5247 -2.0245 0.9747
-2.0659 -5.7424 -2.0286 0.9746
-1.5480 -5.9085 -2.0303 0.9746
0.0684 -6.1406 -2.0413 0.9744
1.1628 -6.0664 -2.0532 0.9743
1.7041 -5.9596 -2.0604 0.9742
2.7547 -5.6057 -2.0762 0.9740
3.2518 -5.3533 -2.0820 0.9739
4.5876 -4.3389 -2.0990 0.9737
5.3103 -3.4738 -2.1093 0.9736
5.8675 -2.4880 -2.1185 0.9735
6.0773 -1.9597 -2.1226 0.9734
6.2383 -1.4134 -2.1262 0.9734
6.4147 0.2860 -2.1344 0.9733
6.3689 0.8565 -2.1361 0.9733
6.1213 1.9739 -2.1379 0.9733
5.9216 2.5110 -2.1380 0.9733
5.6734 3.0274 -2.1376 0.9733
5.0407 3.9806 -2.1350 0.9733
2.8126 5.7235 -2.1198 0.9735
2.2874 5.9390 -2.1155 0.9735
1.1927 6.2220 -2.1059 0.9736
0.6326 6.2879 -2.1007 0.9737
0.0702 6.3029 -2.0952 0.9738
-0.4897 6.2673 -2.0896 0.9738
-2.1104 5.8660 -2.0723 0.9741
-2.6168 5.6390 -2.0664 0.9741
-3.0997 5.3688 -2.0607 0.9742
-3.5555 5.0577 -2.0551 0.9743
-4.3728 4.3244 -2.0443 0.9744
-5.7464 1.9953 -2.0220 0.9747
-5.9901 0.9419 -2.0156 0.9748
-6.0482 -0.1348 -2.0110 0.9748
-6.0073 -0.6720 -2.0093 0.9748
-5.6106 -2.2330 -2.0073 0.9749
-5.1285 -3.1940 -2.0083 0.9749
-4.8268 -3.6401 -2.0096 0.9748
-3.2686 -5.1201 -2.0192 0.9747
-1.8088 -5.8310 -2.0294 0.9746
-1.2840 -5.9751 -2.0315 0.9746
-0.2050 -6.1302 -2.0388 0.9745
0.3423 -6.1394 -2.0439 0.9744
1.9716 -5.8889 -2.0643 0.9742
3.0059 -5.4852 -2.0791 0.9740
3.9526 -4.8922 -2.0906 0.9738
4.3840 -4.5331 -2.0962 0.9738
4.7824 -4.1355 -2.1016 0.9737
5.1442 -3.7026 -2.1068 0.9736
5.7450 -2.7441 -2.1163 0.9735
6.3000 -1.1350 -2.1279 0.9734
6.3849 -0.5706 -2.1308 0.9733
5.9529 0.0000 -2.1288 0.9750
5.8673 1.0570 -2.1320 0.9750
5.7522 1.5757 -2.1328 0.9750
5.5900 2.0817 -2.1332 0.9750
5.3821 2.5708 -2.1330 0.9750
4.5042 3.8949 -2.1294 0.9750
4.1354 4.2760 -2.1273 0.9750
3.7338 4.6214 -2.1247 0.9751
3.3030 4.9283 -2.1216 0.9751
2.8466 5.1943 -2.1182 0.9752
1.8734 5.5955 -2.1102 0.9752
1.3650 5.7279 -2.1057 0.9753
-0.1954 5.8436 -2.0909 0.9755
-0.7129 5.7884 -2.0856 0.9755
-1.2221 5.6873 -2.0803 0.9756
-1.7190 5.5415 -2.0748 0.9757
-2.6604 5.1221 -2.0641 0.9758
-3.0978 4.8525 -2.0588 0.9758
-3.5085 4.5461 -2.0536 0.9759
-3.8897 4.2055 -2.0485 0.9760
-4.2385 3.8335 -2.0437 0.9760
-5.2666 2.0961 -2.0271 0.9762
-5.4233 1.6163 -2.0237 0.9762
-5.5375 1.1256 -2.0207 0.9763
-5.6199 -0.3762 -2.0142 0.9764
-5.3140 -1.8452 -2.0116 0.9764
-5.1288 -2.3109 -2.0117 0.9764
-4.9040 -2.7589 -2.0122 0.9764
-4.3421 -3.5889 -2.0145 0.9764
-2.3868 -5.1434 -2.0277 0.9762
-1.9231 -5.3453 -2.0315 0.9762
1.0843 -5.6567 -2.0597 0.9758
1.5876 -5.5520 -2.0650 0.9758
2.0808 -5.4027 -2.0704 0.9757
3.8752 -4.3818 -2.0918 0.9755
4.2602 -4.0292 -2.0969 0.9754
4.6127 -3.6426 -2.1018 0.9753
5.2079 -2.7790 -2.1109 0.9752
5.4451 -2.3089 -2.1151 0.9752
5.9439 -0.2650 -2.1277 0.9750
5.9497 0.2653 -2.1298 0.9750
5.9069 0.7944 -2.1314 0.9750
5.8157 1.3177 -2.1325 0.9750
5.6769 1.8306 -2.1330 0.9750
5.4917 2.3287 -2.1331 0.9750
4.9886 3.2634 -2.1318 0.9750
3.9385 4.4534 -2.1260 0.9751
3.0777 5.0666 -2.1199 0.9751
2.6100 5.3113 -2.1163 0.9752
1.6206 5.6675 -2.1080 0.9753
1.1073 5.7766 -2.1034 0.9753
0.0652 5.8538 -2.0935 0.9754
-0.4549 5.8218 -2.0883 0.9755
-1.9616 5.4523 -2.0721 0.9757
-2.4327 5.2424 -2.0667 0.9757
-2.8822 4.9921 -2.0614 0.9758
-3.3066 4.7038 -2.0561 0.9759
-3.7030 4.3799 -2.0510 0.9759
-4.0683 4.0233 -2.0461 0.9760
-4.9541 2.7871 -2.0328 0.9761
-5.1727 2.3307 -2.0289 0.9762
-5.3502 1.8578 -2.0253 0.9762
-5.5956 -0.6260 -2.0135 0.9764
-5.5147 -1.1209 -2.0124 0.9764
-5.3913 -1.6068 -2.0118 0.9764
-5.2264 -2.0801 -2.0116 0.9764
-5.0212 -2.5373 -2.0119 0.9764
-4.7772 -2.9752 -2.0126 0.9764
-3.4509 -4.4715 -2.0199 0.9763
-3.0435 -4.7676 -2.0227 0.9763
-2.6113 -5.0276 -2.0260 0.9762
-2.1573 -5.2494 -2.0296 0.9762
-0.1913 -5.7209 -2.0470 0.9760
0.3194 -5.7291 -2.0519 0.9759
0.8302 -5.6921 -2.0571 0.9759
3.2443 -4.8408 -2.0839 0.9755
3.6716 -4.5443 -2.0892 0.9755
4.0715 -4.2099 -2.0944 0.9754
4.4407 -3.8400 -2.0994 0.9754
4.7758 -3.4374 -2.1042 0.9753
5.7191 -1.5667 -2.1206 0.9751
5.8446 -1.0530 -2.1237 0.9751
5.9228 -0.5293 -2.1265 0.9751
5.5446 0.0000 -2.1248 0.9765
5.5270 0.4939 -2.1265 0.9765
4.7779 2.8300 -2.1281 0.9765
4.5047 3.2423 -2.1270 0.9765
4.1952 3.6277 -2.1254 0.9765
3.4782 4.3051 -2.1210 0.9766
3.0771 4.5914 -2.1181 0.9766
2.6522 4.8397 -2.1149 0.9766
1.7460 5.2149 -2.1075 0.9767
1.2724 5.3391 -2.1033 0.9768
0.7905 5.4198 -2.0989 0.9768
0.3043 5.4566 -2.0943 0.9769
-1.1401 5.3056 -2.0796 0.9770
-1.6039 5.1705 -2.0746 0.9771
-2.0527 4.9950 -2.0695 0.9771
-2.4831 4.7808 -2.0645 0.9772
-2.8918 4.5300 -2.0595 0.9772
-3.9587 3.5804 -2.0455 0.9774
-4.5123 2.8103 -2.0372 0.9775
-4.7358 2.3931 -2.0334 0.9775
-4.9216 1.9587 -2.0299 0.9776
-5.0685 1.5106 -2.0268 0.9776
-5.2686 0.1174 -2.0195 0.9777
-5.1031 -1.2764 -2.0159 0.9777
-4.7951 -2.1606 -2.0155 0.9777
-3.7477 -3.7062 -2.0199 0.9777
-3.0381 -4.3218 -2.0245 0.9776
-2.6451 -4.5815 -2.0273 0.9776
-1.3477 -5.1442 -2.0379 0.9775
-0.8863 -5.2542 -2.0420 0.9774
1.0122 -5.2805 -2.0604 0.9772
1.4817 -5.1819 -2.0654 0.9772
1.9418 -5.0417 -2.0704 0.9771
2.3886 -4.8607 -2.0755 0.9771
2.8186 -4.6401 -2.0805 0.9770
3.6137 -4.0861 -2.0904 0.9769
5.0740 -2.1515 -2.1120 0.9767
5.2540 -1.6942 -2.1155 0.9766
5.4864 -0.7379 -2.1214 0.9766
5.5365 -0.2469 -2.1238 0.9765
5.5013 0.7399 -2.1272 0.9765
5.4162 1.2272 -2.1282 0.9765
5.1144 2.1687 -2.1288 0.9765
4.9001 2.6148 -2.1284 0.9765
4.3543 3.4386 -2.1262 0.9765
4.0276 3.8093 -2.1244 0.9765
1.9784 5.1368 -2.1095 0.9767
1.0322 5.3849 -2.1011 0.9768
0.0608 5.4585 -2.0919 0.9769
-0.4243 5.4297 -2.0871 0.9769
-1.3736 5.2432 -2.0771 0.9770
-3.0871 4.3915 -2.0571 0.9773
-3.4577 4.0898 -2.0523 0.9773
-3.7994 3.7573 -2.0477 0.9774
-4.1099 3.3969 -2.0433 0.9774
-4.8335 2.1779 -2.0316 0.9775
-5.0000 1.7362 -2.0283 0.9776
-5.1272 1.2824 -2.0253 0.9776
-5.2142 0.8199 -2.0227 0.9776
-5.2664 -0.1174 -2.0187 0.9777
-5.2313 -0.5852 -2.0172 0.9777
-4.6946 -2.3722 -2.0157 0.9777
-4.4663 -2.7816 -2.0164 0.9777
-4.2033 -3.1698 -2.0175 0.9777
-3.9074 -3.5340 -2.0190 0.9777
-3.5807 -3.8714 -2.0209 0.9777
-3.2256 -4.1795 -2.0232 0.9776
-2.4403 -4.6984 -2.0289 0.9776
-2.0158 -4.9051 -2.0322 0.9775
-1.5740 -5.0742 -2.0359 0.9775
-1.1183 -5.2042 -2.0399 0.9775
-0.1786 -5.3426 -2.0485 0.9774
0.2983 -5.3494 -2.0532 0.9773
0.7750 -5.3140 -2.0580 0.9773
1.7132 -5.1170 -2.0679 0.9771
2.1671 -4.9562 -2.0729 0.9771
2.6059 -4.7553 -2.0780 0.9770
4.7288 -2.8009 -2.1062 0.9767
5.3283 -1.4596 -2.1171 0.9766
5.5170 -0.4930 -2.1227 0.9766
4.6848 2.2378 -2.1249 0.9778
4.4658 2.6451 -2.1243 0.9778
3.9215 3.3910 -2.1218 0.9778
3.2518 4.0248 -2.1177 0.9779
2.8770 4.2928 -2.1150 0.9779
2.4800 4.5254 -2.1120 0.9779
2.0641 4.7208 -2.1087 0.9780
1.6330 4.8774 -2.1051 0.9780
1.1902 4.9941 -2.1012 0.9781
0.7395 5.0703 -2.0971 0.9781
-0.6223 5.0531 -2.0837 0.9782
-1.0672 4.9664 -2.0790 0.9783
-1.9221 4.6772 -2.0696 0.9784
-3.4032 3.6795 -2.0513 0.9786
-4.2294 2.6341 -2.0393 0.9787
-4.6140 1.8363 -2.0325 0.9788
-2.1365 0.4343 -0.8923 0.9906
-2.1261 0.2378 -0.8756 0.9908
-2.1308 -0.5330 -0.8989 0.9906
-4.6599 -1.6181 -2.0189 0.9789
-4.4975 -2.0264 -2.0189 0.9789
-4.3002 -2.4192 -2.0194 0.9789
-3.5146 -3.4757 -2.0230 0.9789
-2.4800 -4.2955 -2.0300 0.9788
-1.6843 -4.6817 -2.0363 0.9787
-1.2632 -4.8215 -2.0399 0.9787
-0.8306 -4.9240 -2.0438 0.9786
-0.3898 -4.9883 -2.0478 0.9786
0.9480 -4.9459 -2.0611 0.9785
2.6384 -4.3433 -2.0799 0.9783
3.0212 -4.1004 -2.0845 0.9782
3.3816 -3.8236 -2.0891 0.9782
4.0227 -3.1767 -2.0978 0.9781
4.7449 -2.0120 -2.1093 0.9780
5.0412 -1.1422 -2.1155 0.9779
5.1291 -0.6898 -2.1181 0.9779
5.1755 -0.2308 -2.1203 0.9779
5.1799 0.2310 -2.1221 0.9778
5.0624 1.1470 -2.1244 0.9778
4.9415 1.5934 -2.1250 0.9778
4.7802 2.0270 -2.1250 0.9778
4.3426 2.8408 -2.1238 0.9778
4.0702 3.2142 -2.1226 0.9778
3.7650 3.5609 -2.1209 0.9779
3.4297 3.8781 -2.1189 0.9779
3.0674 4.1631 -2.1164 0.9779
2.6811 4.4137 -2.1136 0.9779
0.5124 5.0930 -2.0950 0.9781
0.0569 5.1077 -2.0906 0.9782
-1.2859 4.9084 -2.0767 0.9783
-1.7138 4.7635 -2.0719 0.9784
-2.1261 4.5817 -2.0672 0.9784
-2.8918 4.1136 -2.0580 0.9785
-3.5600 3.5206 -2.0492 0.9786
-4.1116 2.8225 -2.0411 0.9787
-4.6877 1.6278 -2.0310 0.9788
-2.1308 0.5329 -0.8989 0.9906
-2.1345 0.3356 -0.8843 0.9907
-2.1261 -0.2378 -0.8756 0.9908
-4.5831 -1.8240 -2.0189 0.9789
-4.4031 -2.2250 -2.0191 0.9789
-4.1889 -2.6089 -2.0197 0.9789
-3.9421 -2.9729 -2.0208 0.9789
-3.3579 -3.6305 -2.0240 0.9789
-2.2879 -4.4049 -2.0315 0.9788
-1.8897 -4.5982 -2.0346 0.9787
-1.4754 -4.7562 -2.0381 0.9787
-1.0481 -4.8775 -2.0418 0.9787
-0.6110 -4.9610 -2.0458 0.9786
0.2794 -5.0115 -2.0543 0.9785
0.7260 -4.9776 -2.0588 0.9785
1.1687 -4.9042 -2.0634 0.9784
2.0290 -4.6404 -2.0728 0.9783
3.2044 -3.9661 -2.0868 0.9782
3.5524 -3.6731 -2.0914 0.9782
4.4229 -2.6197 -2.1039 0.9780
4.6467 -2.2195 -2.1076 0.9780
4.8336 -1.8001 -2.1110 0.9780
4.9820 -1.3647 -2.1141 0.9779
4.8442 0.4329 -2.1196 0.9790
4.7889 0.8628 -2.1207 0.9790
3.0495 3.7744 -2.1147 0.9790
1.9362 4.4283 -2.1064 0.9791
1.1167 4.6858 -2.0993 0.9792
0.2672 4.7914 -2.0914 0.9793
-1.0020 4.6628 -2.0785 0.9794
-1.4100 4.5454 -2.0741 0.9794
-2.8831 3.7358 -2.0566 0.9796
-3.1978 3.4574 -2.0525 0.9797
-3.4860 3.1529 -2.0485 0.9797
-3.7459 2.8249 -2.0447 0.9797
-3.9755 2.4760 -2.0411 0.9798
-4.1733 2.1089 -2.0378 0.9798
-1.8741 0.5585 -0.8523 0.9915
-1.9433 0.2174 -0.8522 0.9915
-1.9470 0.0434 -0.8487 0.9915
-1.9479 -0.1304 -0.8508 0.9915
-1.9080 -0.4772 -0.8571 0.9915
-1.8290 -0.6351 -0.8438 0.9916
-4.2300 -1.9059 -2.0220 0.9800
-3.8273 -2.6273 -2.0232 0.9799
-3.5803 -2.9592 -2.0243 0.9799
-3.3052 -3.2686 -2.0259 0.9799
-2.6787 -3.8104 -2.0299 0.9799
-1.9658 -4.2361 -2.0353 0.9798
-1.1873 -4.5320 -2.0418 0.9798
-0.3663 -4.6877 -2.0492 0.9797
0.4725 -4.6970 -2.0574 0.9796
0.8906 -4.6459 -2.0616 0.9796
1.3033 -4.5579 -2.0660 0.9795
2.8361 -3.8491 -2.0837 0.9794
3.1739 -3.5888 -2.0880 0.9793
3.7747 -2.9808 -2.0962 0.9792
4.0324 -2.6378 -2.1000 0.9792
4.4508 -1.8873 -2.1069 0.9791
4.6078 -1.4858 -2.1100 0.9791
4.8100 -0.6469 -2.1152 0.9790
4.8571 0.2166 -2.1189 0.9790
4.8215 0.6484 -2.1202 0.9790
4.6331 1.4940 -2.1216 0.9790
4.2942 2.2915 -2.1213 0.9790
4.0718 2.6636 -2.1205 0.9790
3.8164 3.0138 -2.1194 0.9790
3.2163 3.6367 -2.1159 0.9790
2.5146 4.1397 -2.1109 0.9791
2.1332 4.3409 -2.1079 0.9791
1.7357 4.5066 -2.1047 0.9791
1.3255 4.6354 -2.1012 0.9792
0.4808 4.7794 -2.0935 0.9793
0.0534 4.7938 -2.0893 0.9793
-0.7941 4.7078 -2.0807 0.9794
-1.2074 4.6086 -2.0763 0.9794
-2.7167 3.8645 -2.0587 0.9796
-3.3453 3.3083 -2.0505 0.9797
-3.8646 2.6529 -2.0429 0.9798
-1.9080 0.4772 -0.8571 0.9915
-1.9300 -0.3923 -0.8583 0.9914
-1.8741 -0.5585 -0.8523 0.9915
-4.3106 -1.7156 -2.0219 0.9800
-4.1412 -2.0926 -2.0222 0.9800
-3.4461 -3.1168 -2.0251 0.9799
-2.8441 -3.6852 -2.0288 0.9799
-1.7764 -4.3227 -2.0368 0.9798
-0.9851 -4.5843 -2.0435 0.9797
-0.1573 -4.7039 -2.0512 0.9797
0.2625 -4.7086 -2.0553 0.9796
3.0078 -3.7228 -2.0859 0.9793
3.3340 -3.4473 -2.0901 0.9793
4.1495 -2.4577 -2.1018 0.9792
4.3589 -2.0821 -2.1053 0.9791
4.8365 -0.4322 -2.1162 0.9790
4.5025 0.8112 -2.1177 0.9800
4.4138 1.2091 -2.1183 0.9800
4.2892 1.5973 -2.1186 0.9800
3.9368 2.3318 -2.1179 0.9800
3.7120 2.6718 -2.1170 0.9800
3.4574 2.9897 -2.1158 0.9801
3.1751 3.2830 -2.1141 0.9801
2.5375 3.7862 -2.1098 0.9801
1.8212 4.1651 -2.1042 0.9802
1.4410 4.3042 -2.1010 0.9802
0.2514 4.5086 -2.0902 0.9803
-0.5499 4.4645 -2.0822 0.9804
-0.9432 4.3892 -2.0781 0.9804
-3.2842 2.9704 -2.0498 0.9807
-3.5294 2.6617 -2.0462 0.9807
-3.7461 2.3331 -2.0428 0.9807
-1.5257 0.6072 -0.7601 0.9928
-1.5924 0.4746 -0.7692 0.9927
-1.6165 -0.4043 -0.7713 0.9927
-3.9881 -1.7970 -2.0248 0.9809
-3.8131 -2.1452 -2.0252 0.9809
-3.6083 -2.4770 -2.0259 0.9809
-3.1158 -3.0813 -2.0284 0.9809
-2.5249 -3.5917 -2.0323 0.9808
-1.8527 -3.9924 -2.0373 0.9808
-1.1188 -4.2704 -2.0434 0.9807
0.8387 -4.3754 -2.0622 0.9806
1.2272 -4.2919 -2.0663 0.9805
1.6076 -4.1740 -2.0704 0.9805
1.9767 -4.0225 -2.0746 0.9804
2.3316 -3.8383 -2.0788 0.9804
3.2818 -3.1039 -2.0909 0.9803
3.5514 -2.8045 -2.0947 0.9803
3.7934 -2.4815 -2.0982 0.9802
4.5668 0.2036 -2.1160 0.9801
4.5332 0.6097 -2.1172 0.9800
4.4627 1.0111 -2.1181 0.9800
4.3559 1.4046 -2.1185 0.9800
4.2137 1.7868 -2.1186 0.9800
4.0373 2.1544 -2.1183 0.9800
2.3649 3.8932 -2.1085 0.9801
1.6326 4.2390 -2.1027 0.9802
1.2469 4.3606 -2.0994 0.9802
0.4524 4.4970 -2.0921 0.9803
-0.3508 4.4890 -2.0842 0.9803
-0.7475 4.4312 -2.0801 0.9804
-2.2289 3.8606 -2.0635 0.9805
-2.5587 3.6397 -2.0594 0.9806
-2.8669 3.3910 -2.0555 0.9806
-1.5621 0.5424 -0.7654 0.9927
-1.6373 -0.3328 -0.7734 0.9927
-1.5924 -0.4746 -0.7692 0.9927
-3.4953 -2.6359 -2.0264 0.9809
-3.2488 -2.9384 -2.0277 0.9809
-2.9767 -3.2184 -2.0293 0.9809
-2.6810 -3.4738 -2.0312 0.9808
-1.3069 -4.2130 -2.0418 0.9807
-0.9282 -4.3196 -2.0451 0.9807
-0.5410 -4.3926 -2.0486 0.9807
-0.1482 -4.4313 -2.0523 0.9806
0.2473 -4.4352 -2.0562 0.9806
0.6423 -4.4041 -2.0601 0.9806
1.0338 -4.3380 -2.0642 0.9805
1.7938 -4.1024 -2.0725 0.9805
2.1561 -3.9344 -2.0767 0.9804
3.1373 -3.2440 -2.0889 0.9803
3.6760 -2.6458 -2.0965 0.9802
3.9034 -2.3120 -2.1000 0.9802
4.1000 -1.9584 -2.1032 0.9802
4.3943 -1.2037 -2.1090 0.9801
4.5478 -0.4064 -2.1135 0.9801
4.0422 1.5053 -2.1158 0.9810
3.7102 2.1976 -2.1152 0.9810
3.2586 2.8178 -2.1132 0.9810
2.9927 3.0944 -2.1116 0.9810
2.7030 3.3455 -2.1097 0.9810
2.3920 3.5691 -2.1075 0.9810
1.7170 3.9269 -2.1023 0.9811
1.3587 4.0583 -2.0993 0.9811
0.2371 4.2523 -2.0891 0.9812
-0.1421 4.2489 -2.0854 0.9812
-0.5187 4.2117 -2.0815 0.9813
-1.2525 4.0377 -2.0737 0.9813
-1.6039 3.9028 -2.0697 0.9814
-1.9412 3.7374 -2.0658 0.9814
-2.2619 3.5432 -2.0619 0.9814
-2.5635 3.3217 -2.0582 0.9815
-1.3200 0.3934 -0.6756 0.9939
-1.3047 0.2652 -0.6531 0.9941
-1.3536 0.0302 -0.6641 0.9940
-1.3513 -0.0905 -0.6643 0.9940
-1.3257 -0.2085 -0.6583 0.9940
-1.2865 -0.5797 -0.6922 0.9937
-3.4092 -2.3403 -2.0284 0.9817
-2.9437 -2.9110 -2.0308 0.9817
-2.6751 -3.1641 -2.0324 0.9817
-2.3851 -3.3929 -2.0344 0.9817
-2.0760 -3.5957 -2.0366 0.9817
-1.0565 -4.0328 -2.0449 0.9816
1.5170 -3.9389 -2.0705 0.9814
1.8651 -3.7954 -2.0744 0.9813
2.8173 -3.1856 -2.0860 0.9812
3.0951 -2.9274 -2.0897 0.9812
3.3491 -2.6448 -2.0933 0.9812
3.7768 -2.0153 -2.0999 0.9811
3.9467 -1.6735 -2.1028 0.9811
4.3012 -0.1918 -2.1119 0.9810
4.3042 0.1919 -2.1134 0.9810
4.1051 1.3237 -2.1158 0.9810
3.9711 1.6839 -2.1158 0.9810
3.8049 2.0304 -2.1155 0.9810
3.6080 2.3602 -2.1148 0.9810
3.3819 2.6707 -2.1138 0.9810
2.8506 3.2233 -2.1107 0.9810
2.2293 3.6700 -2.1063 0.9811
-0.3309 4.2345 -2.0835 0.9813
-1.0724 4.0934 -2.0757 0.9813
-1.7744 3.8238 -2.0678 0.9814
-2.1037 3.6438 -2.0639 0.9814
-2.4152 3.4357 -2.0600 0.9815
-3.2201 2.6615 -2.0492 0.9816
-3.4387 2.3605 -2.0459 0.9816
-3.6297 2.0420 -2.0429 0.9816
-1.3536 -0.0302 -0.6641 0.9940
-1.3200 -0.3934 -0.6756 0.9939
-1.3059 -0.5198 -0.6895 0.9938
-3.5094 -2.1856 -2.0280 0.9817
-3.3023 -2.4904 -2.0288 0.9817
-2.8122 -3.0405 -2.0315 0.9817
-2.2328 -3.4977 -2.0355 0.9817
-1.5812 -3.8476 -2.0405 0.9816
-1.2342 -3.9787 -2.0434 0.9816
-0.8765 -4.0790 -2.0465 0.9816
-0.5108 -4.1475 -2.0498 0.9816
0.6063 -4.1571 -2.0607 0.9815
1.6926 -3.8711 -2.0724 0.9814
2.0343 -3.7121 -2.0764 0.9813
3.2252 -2.7890 -2.0915 0.9812
3.4664 -2.4950 -2.0950 0.9812
3.6805 -2.1800 -2.0983 0.9811
3.8656 -1.8464 -2.1014 0.9811
4.1424 -1.1347 -2.1068 0.9810
4.2315 -0.7623 -2.1091 0.9810
4.2866 -0.3831 -2.1110 0.9810
4.0076 0.7220 -2.1125 0.9818
3.9285 1.0761 -2.1131 0.9818
3.5040 2.0754 -2.1127 0.9818
3.3041 2.3781 -2.1119 0.9818
2.8266 2.9227 -2.1093 0.9818
2.2595 3.3714 -2.1055 0.9819
1.9483 3.5552 -2.1032 0.9819
1.2838 3.8344 -2.0977 0.9819
0.9360 3.9277 -2.0947 0.9820
0.2241 4.0187 -2.0881 0.9820
-2.4247 3.1418 -2.0588 0.9823
-3.3474 2.0848 -2.0458 0.9824
-1.0665 0.5389 -0.6199 0.9946
-1.1070 0.4406 -0.6181 0.9946
-1.1266 0.3358 -0.6099 0.9947
-1.1332 0.2303 -0.5999 0.9948
-1.1785 0.0263 -0.6115 0.9947
-1.1517 -0.1811 -0.6048 0.9948
-1.1198 -0.3889 -0.6150 0.9947
-3.0185 -2.4949 -2.0316 0.9825
-1.9647 -3.4029 -2.0385 0.9824
-0.9997 -3.8157 -2.0463 0.9824
-0.6571 -3.8953 -2.0494 0.9824
0.7487 -3.9057 -2.0631 0.9822
1.0953 -3.8303 -2.0667 0.9822
1.4344 -3.7244 -2.0705 0.9822
1.7634 -3.5884 -2.0742 0.9821
2.0795 -3.4233 -2.0779 0.9821
2.3801 -3.2303 -2.0816 0.9821
3.1648 -2.4992 -2.0920 0.9820
3.3798 -2.2110 -2.0952 0.9820
4.0625 -0.1812 -2.1096 0.9818
4.0652 0.1813 -2.1110 0.9818
3.9720 0.8999 -2.1128 0.9818
3.7504 1.5903 -2.1133 0.9818
3.5934 1.9175 -2.1130 0.9818
3.4075 2.2291 -2.1124 0.9818
3.1941 2.5224 -2.1114 0.9818
2.6925 3.0445 -2.1085 0.9819
2.4087 3.2691 -2.1066 0.9819
2.1059 3.4669 -2.1044 0.9819
1.7869 3.6363 -2.1019 0.9819
1.1109 3.8850 -2.0962 0.9820
0.4032 4.0080 -2.0898 0.9820
0.0448 4.0213 -2.0863 0.9820
-0.6666 3.9518 -2.0791 0.9821
-1.0139 3.8699 -2.0754 0.9821
-1.6779 3.6158 -2.0679 0.9822
-2.2843 3.2495 -2.0606 0.9823
-3.4345 1.9322 -2.0444 0.9824
-1.1198 0.3889 -0.6150 0.9947
-1.1517 0.1811 -0.6048 0.9948
-1.1739 0.0786 -0.6103 0.9947
-1.1649 -0.1303 -0.6081 0.9947
-1.1332 -0.2303 -0.5999 0.9948
-1.1070 -0.4406 -0.6181 0.9946
-1.0665 -0.5390 -0.6199 0.9946
-3.1259 -2.3573 -2.0311 0.9825
-2.3970 -3.1059 -2.0354 0.9825
-2.1132 -3.3102 -2.0374 0.9825
-1.4963 -3.6410 -2.0421 0.9824
0.2208 -3.9603 -2.0577 0.9823
0.5734 -3.9317 -2.0613 0.9823
0.9227 -3.8719 -2.0649 0.9822
1.6003 -3.6601 -2.0723 0.9822
1.9232 -3.5094 -2.0761 0.9821
2.7966 -2.8917 -2.0869 0.9820
3.0479 -2.6356 -2.0904 0.9820
3.7977 -1.4143 -2.1023 0.9819
3.9130 -1.0719 -2.1048 0.9819
2.0429 -0.0000 -1.1189 0.9907
2.0004 0.5479 -1.1360 0.9906
1.9714 0.7342 -1.1522 0.9905
3.3154 1.9637 -2.1105 0.9826
3.1263 2.2502 -2.1097 0.9826
2.1383 3.1905 -2.1036 0.9826
1.5353 3.5113 -2.0989 0.9827
1.2151 3.6294 -2.0963 0.9827
0.5508 3.7766 -2.0903 0.9827
0.2122 3.8048 -2.0871 0.9828
-0.1271 3.8025 -2.0838 0.9828
-0.4643 3.7699 -2.0804 0.9828
-0.7967 3.7074 -2.0769 0.9829
-2.2973 2.9767 -2.0594 0.9830
-2.5491 2.7560 -2.0561 0.9830
-2.7800 2.5143 -2.0530 0.9831
-3.1726 1.9759 -2.0471 0.9831
-0.9364 0.4732 -0.5746 0.9952
-0.9825 0.2928 -0.5615 0.9953
-1.0000 0.2033 -0.5589 0.9954
-1.0293 0.1152 -0.5673 0.9953
-1.0376 -0.0695 -0.5696 0.9953
-1.0166 -0.1599 -0.5637 0.9953
-0.9847 -0.2463 -0.5559 0.9954
-0.9756 -0.3388 -0.5656 0.9953
-3.0598 -2.1004 -2.0327 0.9832
-2.8620 -2.3655 -2.0336 0.9832
-2.4004 -2.8392 -2.0363 0.9832
-1.8624 -3.2258 -2.0401 0.9832
-1.5697 -3.3826 -2.0424 0.9831
-1.2639 -3.5131 -2.0449 0.9831
0.0418 -3.7550 -2.0567 0.9830
0.7093 -3.7001 -2.0635 0.9830
1.6701 -3.3986 -2.0740 0.9829
2.2538 -3.0589 -2.0810 0.9828
2.5212 -2.8508 -2.0844 0.9828
2.7693 -2.6192 -2.0877 0.9828
2.9960 -2.3659 -2.0909 0.9827
3.1993 -2.0929 -2.0939 0.9827
3.3775 -1.8023 -2.0968 0.9827
1.9895 -0.6415 -1.1449 0.9905
2.0041 0.4541 -1.1255 0.9907
3.4000 1.8143 -2.1107 0.9826
3.0223 2.3867 -2.1092 0.9826
2.5479 2.8809 -2.1065 0.9826
2.2794 3.0936 -2.1046 0.9826
1.3765 3.5740 -2.0976 0.9827
1.0515 3.6774 -2.0948 0.9827
0.7190 3.7511 -2.0919 0.9827
0.3817 3.7945 -2.0887 0.9828
0.0424 3.8074 -2.0855 0.9828
-0.2962 3.7900 -2.0821 0.9828
-0.6313 3.7423 -2.0786 0.9828
-1.2804 3.5590 -2.0716 0.9829
-1.5894 3.4251 -2.0681 0.9829
-1.8848 3.2645 -2.0646 0.9830
-2.6672 2.6377 -2.0545 0.9830
-2.8870 2.3862 -2.0514 0.9831
-0.9240 0.5198 -0.5806 0.9952
-0.9756 0.3387 -0.5656 0.9953
-1.0166 0.1599 -0.5637 0.9953
-1.0376 0.0695 -0.5696 0.9953
-1.0415 -0.0232 -0.5706 0.9953
-0.9825 -0.2928 -0.5615 0.9953
-0.9638 -0.3836 -0.5681 0.9953
-0.9364 -0.4732 -0.5746 0.9952
-3.1497 -1.9617 -2.0323 0.9832
-2.9638 -2.2351 -2.0331 0.9832
-2.0033 -3.1381 -2.0391 0.9832
-1.7178 -3.3074 -2.0412 0.9831
-0.7860 -3.6576 -2.0490 0.9831
-0.4580 -3.7184 -2.0520 0.9831
0.8741 -3.6679 -2.0652 0.9830
1.5157 -3.4666 -2.0722 0.9829
1.8214 -3.3236 -2.0758 0.9829
2.3898 -2.9579 -2.0827 0.9828
2.6478 -2.7378 -2.0861 0.9828
2.8855 -2.4952 -2.0893 0.9828
3.1007 -2.2318 -2.0924 0.9827
3.2917 -1.9497 -2.0954 0.9827
2.0004 -0.5480 -1.1360 0.9906
1.8754 0.0000 -1.0828 0.9914
1.8426 0.3320 -1.0810 0.9914
1.8267 0.5004 -1.0935 0.9913
3.1420 1.8610 -2.1084 0.9833
1.7479 3.1894 -2.0998 0.9833
0.5223 3.5809 -2.0893 0.9834
-0.1206 3.6061 -2.0831 0.9835
-0.4404 3.5754 -2.0799 0.9835
-0.7556 3.5165 -2.0766 0.9835
-1.3627 3.3160 -2.0699 0.9836
-1.6498 3.1765 -2.0665 0.9836
-2.1800 2.8247 -2.0600 0.9837
-2.8363 2.1390 -2.0510 0.9837
-0.8491 0.5288 -0.5776 0.9954
-0.8760 0.4427 -0.5667 0.9955
-0.8932 0.3555 -0.5550 0.9956
-0.9120 0.1854 -0.5373 0.9957
-0.9306 0.0207 -0.5374 0.9957
-0.9273 -0.0621 -0.5366 0.9957
-0.8984 -0.3119 -0.5490 0.9956
-0.8858 -0.3991 -0.5609 0.9955
-0.8638 -0.4860 -0.5722 0.9954
-2.9054 -1.9944 -2.0346 0.9839
-2.7175 -2.2461 -2.0355 0.9838
-2.5082 -2.4804 -2.0366 0.9838
-2.2791 -2.6957 -2.0381 0.9838
-2.0318 -2.8902 -2.0397 0.9838
-1.7681 -3.0625 -2.0417 0.9838
-1.4901 -3.2111 -2.0438 0.9838
-1.1998 -3.3348 -2.0462 0.9838
-0.5910 -3.5038 -2.0515 0.9837
0.3572 -3.5511 -2.0606 0.9837
0.9843 -3.4424 -2.0671 0.9836
1.2889 -3.3466 -2.0705 0.9836
1.5842 -3.2238 -2.0738 0.9835
1.8678 -3.0749 -2.0772 0.9835
3.0333 -1.9843 -2.0927 0.9834
1.8108 -0.5839 -1.0985 0.9913
1.8316 -0.4150 -1.0843 0.9914
1.8592 -0.2500 -1.0831 0.9914
1.8755 -0.0836 -1.0839 0.9914
1.8755 0.0836 -1.0839 0.9914
1.8316 0.4150 -1.0843 0.9914
1.8108 0.5839 -1.0985 0.9913
2.8643 2.2619 -2.1072 0.9833
2.6502 2.5065 -2.1060 0.9833
2.4149 2.7306 -2.1046 0.9833
1.8892 3.1100 -2.1009 0.9833
0.9969 3.4865 -2.0936 0.9834
-0.2809 3.5943 -2.0815 0.9835
-0.5987 3.5495 -2.0782 0.9835
-1.2147 3.3762 -2.0715 0.9836
-1.7882 3.0973 -2.0649 0.9836
-2.3019 2.7227 -2.0584 0.9837
-2.7401 2.2648 -2.0524 0.9837
-0.8638 0.4860 -0.5722 0.9954
-0.8858 0.3991 -0.5609 0.9955
-0.8983 0.3119 -0.5490 0.9956
-0.9189 0.1445 -0.5370 0.9957
-0.9273 0.0621 -0.5366 0.9957
-0.9306 -0.0207 -0.5374 0.9957
-0.9237 -0.1033 -0.5366 0.9957
-0.9120 -0.1854 -0.5373 0.9957
-0.9012 -0.2686 -0.5429 0.9957
-0.8932 -0.3555 -0.5550 0.9956
-0.8491 -0.5289 -0.5776 0.9954
-2.8142 -2.1223 -2.0350 0.9839
-2.6154 -2.3655 -2.0360 0.9838
-1.0507 -3.3871 -2.0474 0.9838
0.8293 -3.4800 -2.0655 0.9836
1.4379 -3.2885 -2.0722 0.9836
1.7276 -3.1525 -2.0755 0.9835
2.0046 -2.9910 -2.0788 0.9835
2.2664 -2.8051 -2.0821 0.9835
2.5109 -2.5963 -2.0853 0.9835
2.7360 -2.3659 -2.0883 0.9834
2.9399 -2.1160 -2.0913 0.9834
3.1207 -1.8484 -2.0941 0.9834
1.7869 -0.6654 -1.1009 0.9912
1.8426 -0.3320 -1.0810 0.9914
1.8700 -0.1671 -1.0839 0.9914
