ply
format ascii 1.0
element vertex 512
property float32 x
property float32 y
property float32 z
property float32 I
end_header
19.1092 0.0000 -5.8776 0.9231
18.8064 3.3881 -5.8776 0.9231
18.4302 5.0486 -5.8776 0.9231
17.9077 6.6689 -5.8776 0.9231
17.2431 8.2363 -5.8776 0.9231
16.4416 9.7384 -5.8776 0.9231
15.5096 11.1631 -5.8776 0.9231
14.4544 12.4992 -5.8776 0.9231
12.9401 13.3800 -5.7252 0.9251
11.6979 14.4786 -5.7252 0.9251
-14.8614 11.2075 -5.7252 0.9251
-17.0553 8.6184 -5.8776 0.9231
-18.3132 5.4579 -5.8776 0.9231
-18.7263 3.8063 -5.8776 0.9231
-18.9907 2.1244 -5.8776 0.9231
-19.1044 0.4257 -5.8776 0.9231
-19.0665 -1.2763 -5.8776 0.9231
-18.5381 -4.6367 -5.8776 0.9231
-17.8789 -6.2082 -5.8213 0.9239
-16.9706 -7.6466 -5.7252 0.9251
18.1536 -4.1131 -5.7252 0.9251
18.4476 -2.4810 -5.7252 0.9251
19.0902 -0.8513 -5.8776 0.9231
18.6368 4.2226 -5.8776 0.9231
16.8591 8.9963 -5.8776 0.9231
15.9914 10.4611 -5.8776 0.9231
13.8833 13.1307 -5.8776 0.9231
-15.3459 10.5344 -5.7252 0.9251
-16.6489 9.3665 -5.8756 0.9232
-18.8772 2.9683 -5.8776 0.9231
-19.0665 1.2763 -5.8776 0.9231
-19.1044 -0.4257 -5.8776 0.9231
-18.9907 -2.1244 -5.8776 0.9231
-18.7263 -3.8063 -5.8776 0.9231
-18.3132 -5.4579 -5.8776 0.9231
18.7416 -1.6748 -5.7875 0.9243
17.6819 0.0000 -5.8776 0.9282
17.6118 1.5738 -5.8776 0.9282
17.4018 3.1351 -5.8776 0.9282
16.5702 6.1708 -5.8776 0.9282
15.2136 9.0110 -5.8776 0.9282
14.3512 10.3293 -5.8776 0.9282
12.2832 12.7007 -5.8732 0.9282
10.8242 13.3972 -5.7252 0.9300
-12.7738 11.5532 -5.7252 0.9300
-13.7514 10.3704 -5.7252 0.9300
-15.0049 9.3452 -5.8760 0.9282
-17.3276 3.5220 -5.8776 0.9282
-17.5723 1.9658 -5.8776 0.9282
-17.4673 -2.7466 -5.8776 0.9282
-16.7012 -5.7993 -5.8767 0.9282
17.6644 -0.7877 -5.8776 0.9282
17.5242 2.3568 -5.8776 0.9282
17.2449 3.9072 -5.8776 0.9282
15.5999 8.3243 -5.8776 0.9282
14.7971 9.6798 -5.8776 0.9282
13.8768 10.9584 -5.8776 0.9282
11.4102 12.9017 -5.7252 0.9300
10.2166 13.8661 -5.7252 0.9300
-13.2758 10.9727 -5.7252 0.9300
-16.1210 7.2638 -5.8776 0.9282
-16.7036 5.8001 -5.8776 0.9282
-17.1535 4.2904 -5.8776 0.9282
-17.4673 2.7466 -5.8776 0.9282
-17.6424 1.1810 -5.8776 0.9282
-17.6775 -0.3939 -5.8776 0.9282
-17.3276 -3.5220 -5.8776 0.9282
-16.0026 -6.3689 -5.7252 0.9300
16.9506 -3.0538 -5.7252 0.9300
17.6118 -1.5738 -5.8776 0.9282
15.8519 4.3423 -5.8776 0.9326
15.4025 5.7359 -5.8776 0.9326
14.8308 7.0841 -5.8776 0.9326
14.1414 8.3760 -5.8776 0.9326
10.0613 12.4531 -5.7252 0.9343
-12.8863 9.7180 -5.7718 0.9337
-14.6693 7.4127 -5.8776 0.9326
-15.2708 6.0777 -5.8776 0.9326
-16.1065 3.2738 -5.8776 0.9326
-16.3340 1.8272 -5.8776 0.9326
-16.4318 0.3662 -5.8776 0.9326
-16.3991 -1.0978 -5.8776 0.9326
-16.2363 -2.5530 -5.8776 0.9326
-15.9447 -3.9880 -5.8776 0.9326
-14.5964 -6.5768 -5.7252 0.9343
-13.9531 -7.8499 -5.7252 0.9343
16.2892 -2.1907 -5.8776 0.9326
16.4195 -0.7322 -5.8776 0.9326
16.4195 0.7322 -5.8776 0.9326
16.2892 2.1907 -5.8776 0.9326
16.0296 3.6318 -5.8776 0.9326
14.5005 7.7377 -5.8776 0.9326
10.7292 12.1317 -5.7916 0.9335
9.4966 12.8889 -5.7252 0.9343
-11.3834 11.2573 -5.7252 0.9343
-12.3402 10.1995 -5.7252 0.9343
-15.9447 3.9880 -5.8776 0.9326
-16.2363 2.5530 -5.8776 0.9326
-16.4318 -0.3662 -5.8776 0.9326
-16.3340 -1.8272 -5.8776 0.9326
-15.2567 -6.0720 -5.8721 0.9326
-14.2889 -7.2205 -5.7252 0.9343
15.0031 -5.5872 -5.7252 0.9343
15.4408 -4.2297 -5.7252 0.9343
16.3706 -1.4629 -5.8776 0.9326
15.3374 0.0000 -5.8776 0.9364
15.2765 1.3651 -5.8776 0.9364
14.7925 4.0521 -5.8776 0.9364
14.3731 5.3526 -5.8776 0.9364
13.1963 7.8162 -5.8776 0.9364
12.4483 8.9597 -5.8776 0.9364
-10.1442 10.9678 -5.7252 0.9380
-11.0801 10.0213 -5.7252 0.9380
-13.0189 8.1083 -5.8776 0.9364
-13.6889 6.9173 -5.8776 0.9364
-14.2503 5.6715 -5.8776 0.9364
-15.0301 3.0550 -5.8776 0.9364
-15.2423 1.7051 -5.8776 0.9364
-15.3032 -1.0244 -5.8776 0.9364
-14.8791 -3.7215 -5.8776 0.9364
-14.4888 -5.0310 -5.8776 0.9364
-13.0206 -7.3253 -5.7252 0.9380
14.2188 -4.5850 -5.7252 0.9380
14.9255 -3.3817 -5.8647 0.9365
15.2006 -2.0443 -5.8776 0.9364
15.2006 2.0443 -5.8776 0.9364
14.9583 3.3891 -5.8776 0.9364
14.5973 4.7070 -5.8776 0.9364
13.5314 7.2206 -5.8776 0.9364
12.8351 8.3963 -5.8776 0.9364
12.0368 9.5054 -5.8776 0.9364
11.1430 10.5390 -5.8776 0.9364
10.1574 11.4852 -5.8757 0.9364
8.8619 12.0275 -5.7252 0.9380
7.7563 12.7686 -5.7252 0.9380
-9.6455 11.4088 -5.7252 0.9380
-12.6448 8.6802 -5.8776 0.9364
-13.3672 7.5203 -5.8776 0.9364
-14.4888 5.0311 -5.8776 0.9364
-15.3336 -0.3417 -5.8776 0.9364
-14.2503 -5.6715 -5.8776 0.9364
14.4089 -3.9470 -5.7252 0.9380
15.2765 -1.3651 -5.8776 0.9364
14.3609 0.0000 -5.8776 0.9398
14.1334 2.5463 -5.8776 0.9398
13.8507 3.7941 -5.8776 0.9398
13.4580 5.0118 -5.8776 0.9398
12.9585 6.1898 -5.8776 0.9398
12.3562 7.3186 -5.8776 0.9398
11.6557 8.3893 -5.8776 0.9398
9.9836 10.3230 -5.8776 0.9398
6.7226 12.2673 -5.7252 0.9413
-7.5270 11.7909 -5.7252 0.9413
-10.6394 9.6228 -5.8713 0.9399
-12.8174 6.4769 -5.8776 0.9398
-13.3430 5.3104 -5.8776 0.9398
-13.7627 4.1017 -5.8776 0.9398
-2.1261 0.2378 -0.8756 0.9908
-2.1345 -0.3356 -0.8843 0.9907
-2.1308 -0.5329 -0.8989 0.9906
-12.1916 -6.8589 -5.7252 0.9413
14.0060 -3.1733 -5.8776 0.9398
14.2328 -1.9141 -5.8776 0.9398
14.3467 -0.6397 -5.8776 0.9398
14.2328 1.9141 -5.8776 0.9398
13.6679 4.4073 -5.8776 0.9398
13.2214 5.6063 -5.8776 0.9398
12.6699 6.7609 -5.8776 0.9398
10.4336 9.8680 -5.8776 0.9398
9.5139 10.7575 -5.8776 0.9398
8.2977 11.2618 -5.7252 0.9413
6.1695 12.5546 -5.7252 0.9413
-8.0448 11.4439 -5.7252 0.9413
-9.9464 9.8362 -5.7252 0.9413
-11.0694 9.1491 -5.8776 0.9398
-11.8398 8.1275 -5.8776 0.9398
-2.1308 0.5329 -0.8989 0.9906
-2.1345 0.3356 -0.8843 0.9907
-2.1302 0.1426 -0.8738 0.9908
-2.1365 -0.4343 -0.8923 0.9906
-11.8740 -7.3952 -5.7252 0.9413
13.8327 -3.7892 -5.8700 0.9399
13.4863 0.0000 -5.8776 0.9429
13.4328 1.2004 -5.8776 0.9429
13.2727 2.3912 -5.8776 0.9429
13.0072 3.5630 -5.8776 0.9429
10.2012 8.8213 -5.8776 0.9429
6.3132 11.5202 -5.7252 0.9443
5.2628 12.0364 -5.7252 0.9443
-1.8741 0.5585 -0.8523 0.9915
-1.9433 0.2174 -0.8522 0.9915
-1.9470 0.0434 -0.8487 0.9915
-1.9397 -0.3050 -0.8557 0.9915
-1.9080 -0.4772 -0.8571 0.9915
-1.8290 -0.6351 -0.8438 0.9916
-12.2958 -5.5402 -5.8776 0.9429
-10.8304 -7.4346 -5.7252 0.9443
12.0943 -5.1284 -5.7252 0.9443
13.1530 -2.9801 -5.8776 0.9429
13.3660 -1.7976 -5.8776 0.9429
13.4730 -0.6008 -5.8776 0.9429
13.3660 1.7976 -5.8776 0.9429
13.1530 2.9801 -5.8776 0.9429
12.4162 5.2649 -5.8776 0.9429
9.7981 9.2670 -5.8776 0.9429
7.9930 10.8482 -5.8726 0.9429
6.8202 11.2275 -5.7252 0.9443
5.7938 11.7900 -5.7252 0.9443
-6.5683 11.3767 -5.7252 0.9443
-9.5830 9.4768 -5.8737 0.9429
-1.8290 0.6351 -0.8438 0.9916
-1.9080 0.4772 -0.8571 0.9915
-1.9397 0.3050 -0.8557 0.9915
-1.9470 -0.0434 -0.8487 0.9915
-1.9300 -0.3923 -0.8583 0.9914
-1.8741 -0.5585 -0.8523 0.9915
-12.5304 -4.9870 -5.8776 0.9429
-12.0255 -6.0767 -5.8720 0.9429
-10.4885 -7.9097 -5.7252 0.9443
11.3028 -6.6947 -5.7252 0.9443
11.8538 -5.6621 -5.7252 0.9443
12.3107 -4.5846 -5.7252 0.9443
12.6977 0.0000 -5.8776 0.9456
12.6473 1.1302 -5.8776 0.9456
12.4965 2.2514 -5.8776 0.9456
12.2465 3.3547 -5.8776 0.9456
10.9251 6.4710 -5.8776 0.9456
8.8273 9.1274 -5.8776 0.9456
5.9441 10.8465 -5.7252 0.9469
4.9551 11.3325 -5.7252 0.9469
2.8673 12.0315 -5.7252 0.9469
-3.6645 11.8131 -5.7252 0.9469
-6.6553 10.4253 -5.7252 0.9469
-9.4173 8.5174 -5.8776 0.9456
-10.1380 7.6454 -5.8776 0.9456
-10.7782 6.7128 -5.8776 0.9456
-11.3329 5.7268 -5.8776 0.9456
-1.5257 0.6072 -0.7601 0.9928
-1.5924 0.4746 -0.7692 0.9927
-1.6373 0.3328 -0.7734 0.9927
-1.6521 -0.2598 -0.7741 0.9927
-1.6165 -0.4043 -0.7713 0.9927
-9.5336 -7.8797 -5.7252 0.9469
11.3870 -4.8285 -5.7252 0.9469
12.0849 -3.8969 -5.8776 0.9456
12.3838 -2.8058 -5.8776 0.9456
12.6851 -0.5656 -5.8776 0.9456
12.6851 0.5656 -5.8776 0.9456
12.5844 1.6925 -5.8776 0.9456
12.3838 2.8058 -5.8776 0.9456
11.6901 4.9570 -5.8776 0.9456
9.2252 8.7251 -5.8776 0.9456
7.5320 10.2225 -5.8776 0.9456
6.4220 10.5721 -5.7258 0.9469
4.4453 11.5420 -5.7252 0.9469
3.4004 11.8919 -5.7252 0.9469
-5.2063 11.2193 -5.7252 0.9469
-6.1842 10.7114 -5.7252 0.9469
-8.1877 9.6845 -5.8702 0.9456
-9.7874 8.0895 -5.8776 0.9456
-10.4685 7.1862 -5.8776 0.9456
-11.0666 6.2260 -5.8776 0.9456
-1.6165 0.4043 -0.7713 0.9927
-1.6521 0.2598 -0.7741 0.9927
-1.6675 -0.1865 -0.7767 0.9926
-1.6373 -0.3328 -0.7734 0.9927
-1.5257 -0.6072 -0.7601 0.9928
-11.3329 -5.7268 -5.8776 0.9456
-10.4988 -6.5387 -5.7252 0.9469
-9.8751 -7.4472 -5.7252 0.9469
10.6418 -6.3032 -5.7252 0.9469
11.1606 -5.3310 -5.7252 0.9469
12.6473 -1.1302 -5.8776 0.9456
11.9822 0.0000 -5.8776 0.9480
11.2289 4.1817 -5.8776 0.9480
10.3095 6.1064 -5.8776 0.9480
9.7251 6.9997 -5.8776 0.9480
9.0635 7.8375 -5.8776 0.9480
8.3300 8.6131 -5.8776 0.9480
5.6810 10.3665 -5.7985 0.9487
3.7055 11.0677 -5.7252 0.9493
-0.3900 11.6650 -5.7252 0.9493
-6.2803 9.8379 -5.7252 0.9493
-7.3159 9.4795 -5.8737 0.9480
-8.1360 8.7966 -5.8776 0.9480
-10.6944 5.4041 -5.8776 0.9480
-1.3059 0.5197 -0.6895 0.9938
-1.3200 0.3934 -0.6756 0.9939
-1.3047 0.2652 -0.6531 0.9941
-1.3419 0.1501 -0.6624 0.9940
-1.3536 0.0302 -0.6641 0.9940
-1.3257 -0.2085 -0.6583 0.9940
-1.3171 -0.4573 -0.6839 0.9938
-9.6225 -6.6055 -5.7252 0.9493
-8.9964 -7.4357 -5.7252 0.9493
-8.2989 -8.2069 -5.7252 0.9493
9.1598 -7.2335 -5.7252 0.9493
10.2972 -5.4948 -5.7252 0.9493
11.8753 -1.5971 -5.8776 0.9480
11.9704 0.5338 -5.8776 0.9480
11.8753 1.5971 -5.8776 0.9480
11.6861 2.6477 -5.8776 0.9480
11.4040 3.6773 -5.8776 0.9480
11.0315 4.6777 -5.8776 0.9480
10.5713 5.6410 -5.8776 0.9480
7.9380 8.9756 -5.8776 0.9480
5.1476 10.4751 -5.7252 0.9493
4.1948 10.8917 -5.7252 0.9493
-7.7361 9.1503 -5.8776 0.9480
-9.2359 7.6337 -5.8776 0.9480
-10.4430 5.8752 -5.8776 0.9480
-1.2865 0.5797 -0.6922 0.9937
-1.3149 0.3289 -0.6649 0.9940
-1.3513 0.0905 -0.6643 0.9940
-1.3419 -0.1501 -0.6624 0.9940
-10.6944 -5.4041 -5.8776 0.9480
-9.9838 -6.2180 -5.7695 0.9489
-9.3187 -7.0276 -5.7252 0.9493
-8.6562 -7.8291 -5.7252 0.9493
9.4730 -6.8182 -5.7252 0.9493
10.5318 -5.0306 -5.7252 0.9493
11.2282 -4.1814 -5.8772 0.9480
11.5565 -3.1657 -5.8776 0.9480
11.7924 -2.1245 -5.8776 0.9480
11.9347 -1.0665 -5.8776 0.9480
11.2847 1.0084 -5.8776 0.9502
11.1501 2.0088 -5.8776 0.9502
10.6173 3.9539 -5.8776 0.9502
10.2232 4.8832 -5.8776 0.9502
7.8763 8.1440 -5.8776 0.9502
7.1201 8.8127 -5.8776 0.9502
6.3075 9.4115 -5.8776 0.9502
5.4434 9.9329 -5.8760 0.9502
4.4257 10.1218 -5.7310 0.9514
0.6144 11.0187 -5.7252 0.9515
-4.1948 10.2075 -5.7252 0.9515
-5.0867 9.7937 -5.7252 0.9515
-6.0912 9.5416 -5.8726 0.9503
-7.6929 8.3175 -5.8776 0.9502
-8.4026 7.5998 -5.8776 0.9502
-9.0457 6.8217 -5.8776 0.9502
-1.0665 0.5389 -0.6199 0.9946
-1.1070 0.4406 -0.6181 0.9946
-1.1266 0.3358 -0.6099 0.9947
-1.1517 -0.1811 -0.6048 0.9948
-1.1275 -0.2820 -0.6029 0.9948
-1.0898 -0.4910 -0.6201 0.9946
-9.8742 -5.5552 -5.8776 0.9502
-8.5064 -7.0307 -5.7252 0.9515
-7.8469 -7.7599 -5.7252 0.9515
8.0178 -7.5832 -5.7252 0.9515
9.2353 -6.0415 -5.7252 0.9515
9.7364 -5.1955 -5.7252 0.9515
10.4294 -4.4225 -5.8769 0.9502
10.7829 -3.4770 -5.8776 0.9502
11.0496 -2.5035 -5.8776 0.9502
11.2285 -1.5101 -5.8776 0.9502
10.4306 4.4230 -5.8776 0.9502
9.9956 5.3338 -5.8776 0.9502
8.8915 7.0215 -5.8776 0.9502
6.7205 9.1211 -5.8776 0.9502
5.8820 9.6831 -5.8776 0.9502
3.9664 10.2985 -5.7252 0.9515
2.0776 10.8385 -5.7252 0.9515
1.1046 10.9804 -5.7252 0.9515
-0.8597 11.0023 -5.7252 0.9515
-1.8356 10.8821 -5.7252 0.9515
-2.7969 10.6756 -5.7252 0.9515
-3.7360 10.3843 -5.7252 0.9515
-4.6454 10.0105 -5.7252 0.9515
-6.5153 9.2681 -5.8773 0.9502
-8.0558 7.9665 -5.8776 0.9502
-9.8742 5.5552 -5.8776 0.9502
-1.0898 0.4910 -0.6201 0.9946
-1.1198 0.3889 -0.6150 0.9947
-1.1517 0.1811 -0.6048 0.9948
-1.1739 0.0786 -0.6103 0.9947
-1.1070 -0.4406 -0.6181 0.9946
-1.0665 -0.5389 -0.6199 0.9946
-9.6104 -5.9854 -5.8736 0.9503
-8.8112 -6.6448 -5.7252 0.9515
-8.1848 -7.4027 -5.7252 0.9515
9.4953 -5.6241 -5.7252 0.9515
10.2108 -4.8773 -5.8704 0.9503
10.6173 -3.9539 -5.8776 0.9502
11.1501 -2.0088 -5.8776 0.9502
11.2847 -1.0084 -5.8776 0.9502
2.0429 0.0000 -1.1189 0.9907
1.9715 0.7342 -1.1522 0.9905
9.6833 4.6253 -5.8776 0.9522
8.7098 6.2689 -5.8776 0.9522
7.4603 7.7139 -5.8776 0.9522
5.9744 8.9144 -5.8776 0.9522
5.1573 9.4108 -5.8776 0.9522
4.2966 9.8266 -5.8741 0.9523
2.4232 10.1683 -5.7252 0.9534
-1.2778 10.3747 -5.7252 0.9534
-3.0970 9.9837 -5.7252 0.9534
-4.9425 9.5161 -5.8731 0.9523
-0.9364 0.4732 -0.5746 0.9952
-0.9825 0.2928 -0.5615 0.9953
-1.0000 0.2033 -0.5589 0.9954
-1.0415 0.0232 -0.5706 0.9953
-1.0166 -0.1599 -0.5637 0.9953
-0.9847 -0.2463 -0.5559 0.9954
-0.9240 -0.5198 -0.5806 0.9952
-7.4325 -7.3501 -5.7252 0.9534
7.5944 -7.1827 -5.7252 0.9534
8.7476 -5.7224 -5.7252 0.9534
9.4566 -5.0462 -5.8707 0.9523
1.9407 -0.8229 -1.1546 0.9904
2.0226 -0.2720 -1.1178 0.9907
2.0434 0.0911 -1.1203 0.9907
2.0226 0.2720 -1.1178 0.9907
2.0042 0.4541 -1.1255 0.9907
1.9895 0.6415 -1.1449 0.9905
1.9407 0.8229 -1.1546 0.9904
9.4677 5.0521 -5.8776 0.9522
8.9804 5.8747 -5.8776 0.9522
6.3656 8.6395 -5.8776 0.9522
5.5714 9.1717 -5.8776 0.9522
3.8509 9.9986 -5.8684 0.9523
2.8744 10.0524 -5.7264 0.9534
1.9679 10.2662 -5.7252 0.9534
1.0463 10.4006 -5.7252 0.9534
0.1164 10.4524 -5.7252 0.9534
-0.8143 10.4213 -5.7252 0.9534
-1.7387 10.3074 -5.7252 0.9534
-4.5021 9.7019 -5.8580 0.9524
-6.1715 8.7791 -5.8776 0.9522
-6.9284 8.1950 -5.8776 0.9522
-7.6303 7.5458 -5.8776 0.9522
-0.9240 0.5198 -0.5806 0.9952
-0.9756 0.3388 -0.5656 0.9953
-1.0293 -0.1151 -0.5673 0.9953
-1.0000 -0.2033 -0.5589 0.9954
-0.9638 -0.3836 -0.5681 0.9953
-9.1091 -5.6732 -5.8776 0.9522
-8.3458 -6.2939 -5.7252 0.9534
-7.7525 -7.0117 -5.7252 0.9534
-7.0977 -7.6739 -5.7252 0.9534
-6.3865 -8.2752 -5.7252 0.9534
7.2669 -7.5139 -5.7252 0.9534
7.9068 -6.8373 -5.7252 0.9534
9.6819 -4.6247 -5.8767 0.9522
1.8426 0.3320 -1.0810 0.9914
1.8267 0.5004 -1.0935 0.9913
8.2626 5.9471 -5.8776 0.9541
7.7005 6.6589 -5.8776 0.9541
7.0772 7.3178 -5.8776 0.9541
4.8924 8.9276 -5.8776 0.9541
3.2303 9.6483 -5.8743 0.9541
2.3399 9.8186 -5.8275 0.9544
1.4311 9.8125 -5.7252 0.9552
-0.3314 9.9108 -5.7252 0.9552
-3.0092 9.7007 -5.8640 0.9542
-3.8678 9.4118 -5.8748 0.9541
-5.4778 8.5809 -5.8776 0.9541
-8.1280 6.1297 -5.8776 0.9541
-0.8491 0.5288 -0.5776 0.9954
-0.8760 0.4427 -0.5667 0.9955
-0.8932 0.3555 -0.5550 0.9956
-0.9012 0.2686 -0.5429 0.9957
-0.9120 0.1854 -0.5373 0.9957
-0.9237 0.1033 -0.5366 0.9957
-0.9306 0.0207 -0.5374 0.9957
-0.9189 -0.1445 -0.5370 0.9957
-0.9030 -0.2259 -0.5374 0.9957
-0.8984 -0.3119 -0.5490 0.9956
-0.8858 -0.3991 -0.5609 0.9955
-0.8638 -0.4859 -0.5722 0.9954
-7.6435 -6.3175 -5.7252 0.9552
-7.0508 -6.9727 -5.7252 0.9552
-6.4022 -7.5726 -5.7252 0.9552
7.2044 -6.8139 -5.7252 0.9552
8.2984 -5.4286 -5.7252 0.9552
1.6861 -0.8997 -1.1034 0.9912
1.7564 -0.7448 -1.1014 0.9912
1.8316 -0.4150 -1.0843 0.9914
1.8755 0.0836 -1.0839 0.9914
1.6860 0.8997 -1.1034 0.9912
7.3962 6.9953 -5.8776 0.9541
6.0387 8.1958 -5.8776 0.9541
5.2853 8.7008 -5.8776 0.9541
4.4899 9.1367 -5.8776 0.9541
3.6589 9.5000 -5.8776 0.9541
2.7958 9.7775 -5.8713 0.9541
1.8768 9.7913 -5.7559 0.9550
0.1105 9.9157 -5.7252 0.9552
-0.7725 9.8862 -5.7252 0.9552
-1.6494 9.7782 -5.7252 0.9552
-2.5447 9.7131 -5.7971 0.9547
-5.8546 8.3283 -5.8776 0.9541
-6.5727 7.7742 -5.8776 0.9541
-7.2385 7.1583 -5.8776 0.9541
-8.3930 5.7615 -5.8776 0.9541
-0.8638 0.4860 -0.5722 0.9954
-0.8858 0.3991 -0.5609 0.9955
-0.8984 0.3119 -0.5490 0.9956
-0.9237 -0.1033 -0.5366 0.9957
-0.8932 -0.3555 -0.5550 0.9956
-0.8760 -0.4426 -0.5667 0.9955
-0.8491 -0.5288 -0.5776 0.9954
-7.3544 -6.6517 -5.7252 0.9552
-6.0585 -7.8503 -5.7252 0.9552
-5.3358 -8.3584 -5.7252 0.9552
7.5008 -6.4862 -5.7252 0.9552
8.0483 -5.7928 -5.7252 0.9552
8.7494 -5.1823 -5.8711 0.9541
1.7194 -0.8213 -1.1001 0.9912
1.7869 -0.6654 -1.1009 0.9912
1.8426 -0.3320 -1.0810 0.9914
