ply
format ascii 1.0
element vertex 894
property float32 x
property float32 y
property float32 z
property float32 I
end_header
18.3626 0.0000 -3.8815 0.9277
17.7102 4.8513 -3.8815 0.9277
17.2081 6.4084 -3.8815 0.9277
15.7993 9.3579 -3.8815 0.9277
13.8897 12.0109 -3.8815 0.9277
12.7410 13.1740 -3.8740 0.9278
11.0870 13.7225 -3.7291 0.9304
-13.0840 11.8338 -3.7291 0.9304
-14.0853 10.6222 -3.7291 0.9304
-16.3890 8.2817 -3.8815 0.9277
-17.0611 6.7902 -3.8815 0.9277
-18.3581 0.4091 -3.8815 0.9277
-17.8139 -4.4556 -3.8815 0.9277
17.4843 -2.3514 -3.7291 0.9304
18.3444 -0.8180 -3.8815 0.9277
17.9087 4.0576 -3.8815 0.9277
11.6873 13.2150 -3.7291 0.9304
10.4647 14.2028 -3.7291 0.9304
-14.5445 9.9843 -3.7291 0.9304
-16.0038 9.0036 -3.8815 0.9277
-16.7417 7.5434 -3.8815 0.9277
-17.8139 4.4556 -3.8815 0.9277
-18.3216 1.2265 -3.8815 0.9277
-18.3581 -0.4091 -3.8815 0.9277
-18.2488 -2.0414 -3.8815 0.9277
-17.9947 -3.6576 -3.8815 0.9277
-16.3912 -6.5235 -3.7291 0.9304
-15.7455 -7.9566 -3.7291 0.9304
18.2725 -1.6328 -3.8778 0.9277
16.5154 0.0000 -3.8815 0.9344
16.2537 2.9283 -3.8815 0.9344
15.9286 4.3633 -3.8815 0.9344
15.4770 5.7637 -3.8815 0.9344
14.9026 7.1184 -3.8815 0.9344
13.4044 9.6479 -3.8815 0.9344
12.4924 10.8026 -3.8815 0.9344
9.9716 12.3420 -3.7291 0.9369
8.8336 13.1806 -3.7291 0.9369
-10.7737 11.6484 -3.7291 0.9369
-11.7677 10.6433 -3.7291 0.9369
-14.0188 8.7310 -3.8815 0.9344
-15.3448 6.1071 -3.8815 0.9344
-15.8274 4.7171 -3.8815 0.9344
-16.5113 0.3679 -3.8815 0.9344
-16.3149 -2.5654 -3.8815 0.9344
-16.0218 -4.0073 -3.8815 0.9344
-15.6016 -5.4175 -3.8815 0.9344
-14.4663 -6.5182 -3.7291 0.9369
-13.8287 -7.7799 -3.7291 0.9369
15.4747 -3.5061 -3.7291 0.9369
16.3680 -2.2013 -3.8815 0.9344
16.4990 0.7357 -3.8815 0.9344
16.3680 2.2013 -3.8815 0.9344
16.1071 3.6494 -3.8815 0.9344
15.2049 6.4474 -3.8815 0.9344
13.8208 9.0412 -3.8815 0.9344
12.9613 10.2354 -3.8815 0.9344
11.9988 11.3484 -3.8815 0.9344
10.7262 12.1283 -3.8053 0.9356
9.4119 12.7740 -3.7291 0.9369
-12.2302 10.1085 -3.7291 0.9369
-13.6104 9.3431 -3.8799 0.9344
-15.6016 5.4175 -3.8815 0.9344
-16.3149 2.5654 -3.8815 0.9344
-16.5113 -0.3679 -3.8815 0.9344
-16.4130 -1.8361 -3.8815 0.9344
-15.3214 -6.0978 -3.8756 0.9345
15.3032 -4.1920 -3.7291 0.9369
16.1095 -2.9023 -3.8471 0.9350
14.9912 0.0000 -3.8815 0.9399
14.9317 1.3343 -3.8815 0.9399
14.4586 3.9606 -3.8815 0.9399
14.0487 5.2318 -3.8815 0.9399
13.5273 6.4614 -3.8815 0.9399
12.8985 7.6398 -3.8815 0.9399
11.3395 9.8057 -3.8815 0.9399
9.2873 11.4950 -3.8263 0.9408
8.0183 11.9642 -3.7291 0.9422
6.9216 12.6304 -3.7291 0.9422
-8.7995 11.4019 -3.7291 0.9422
-12.7251 7.9252 -3.8815 0.9399
-13.3799 6.7612 -3.8815 0.9399
-13.9286 5.5435 -3.8815 0.9399
-14.6908 2.9861 -3.8815 0.9399
-14.8983 1.6666 -3.8815 0.9399
-14.9875 0.3340 -3.8815 0.9399
-14.8093 -2.3287 -3.8815 0.9399
-14.1618 -4.9175 -3.8815 0.9399
-13.6441 -6.1477 -3.8747 0.9400
-12.5525 -7.0619 -3.7291 0.9422
-11.8741 -8.1511 -3.7291 0.9422
13.7076 -4.4201 -3.7291 0.9422
14.9763 -0.6678 -3.8815 0.9399
14.8575 1.9981 -3.8815 0.9399
14.2678 4.6008 -3.8815 0.9399
13.8017 5.8524 -3.8815 0.9399
13.2260 7.0576 -3.8815 0.9399
12.5453 8.2068 -3.8815 0.9399
10.8915 10.3011 -3.8815 0.9399
7.4774 12.3095 -3.7291 0.9422
-8.2829 11.7826 -3.7291 0.9422
-10.2408 10.1273 -3.7291 0.9422
-11.5406 9.5386 -3.8766 0.9400
-12.3594 8.4842 -3.8815 0.9399
-13.0655 7.3505 -3.8815 0.9399
-13.6679 6.1584 -3.8815 0.9399
-14.1617 4.9175 -3.8815 0.9399
-14.5432 3.6375 -3.8815 0.9399
-14.9577 1.0013 -3.8815 0.9399
-14.8983 -1.6666 -3.8815 0.9399
-14.3668 -4.2817 -3.8815 0.9399
-13.9286 -5.5435 -3.8815 0.9399
-12.2254 -7.6141 -3.7291 0.9422
13.4938 2.4310 -3.8815 0.9446
11.7970 6.9874 -3.8815 0.9446
9.5318 9.8558 -3.8815 0.9446
6.3306 11.5518 -3.7291 0.9467
-7.0880 11.1031 -3.7291 0.9467
-8.9927 9.7228 -3.7493 0.9464
-10.1688 9.1971 -3.8815 0.9446
-10.9470 8.2556 -3.8815 0.9446
-11.6384 7.2485 -3.8815 0.9446
-13.1399 3.9161 -3.8815 0.9446
-13.4363 2.7310 -3.8815 0.9446
-13.7076 0.3055 -3.8815 0.9446
-13.6804 -0.9158 -3.8815 0.9446
-13.3013 -3.3269 -3.8815 0.9446
-12.9524 -4.4976 -3.8815 0.9446
-12.5007 -5.6325 -3.8815 0.9446
-11.4806 -6.4588 -3.7291 0.9467
11.6216 -6.2015 -3.7291 0.9467
12.8425 -4.1412 -3.8200 0.9454
13.5887 -1.8275 -3.8815 0.9446
13.6974 -0.6108 -3.8815 0.9446
13.0494 4.2079 -3.8815 0.9446
12.6231 5.3526 -3.8815 0.9446
11.4740 7.5059 -3.8815 0.9446
10.7604 8.4974 -3.8815 0.9446
8.1183 11.0182 -3.8744 0.9447
5.8097 11.8223 -3.7291 0.9467
4.7344 12.2925 -3.7291 0.9467
-6.5863 11.4079 -3.7291 0.9467
-7.5756 10.7764 -3.7291 0.9467
-10.5684 8.7350 -3.8815 0.9446
-11.3039 7.7597 -3.8815 0.9446
-11.9497 6.7228 -3.8815 0.9446
-12.9524 4.4975 -3.8815 0.9446
-13.3013 3.3269 -3.8815 0.9446
-13.5446 2.1298 -3.8815 0.9446
-13.6804 0.9158 -3.8815 0.9446
-13.7076 -0.3055 -3.8815 0.9446
-13.1399 -3.9161 -3.8815 0.9446
-12.2148 -6.1724 -3.8743 0.9447
11.8863 -5.6776 -3.7291 0.9467
13.4938 -2.4310 -3.8815 0.9446
12.5694 1.1232 -3.8815 0.9486
12.4196 2.2375 -3.8815 0.9486
12.1711 3.3340 -3.8815 0.9486
11.3872 5.4392 -3.8815 0.9486
10.2424 7.3720 -3.8815 0.9486
9.5456 8.2544 -3.8815 0.9486
7.9308 9.8161 -3.8815 0.9486
7.0187 10.4726 -3.8776 0.9486
4.8571 11.1086 -3.7291 0.9505
2.8106 11.7938 -3.7291 0.9505
-2.5472 11.8535 -3.7291 0.9505
-4.6085 11.2140 -3.7291 0.9505
-6.5237 10.2193 -3.7291 0.9505
-11.2632 5.6915 -3.8815 0.9486
-11.7250 4.6665 -3.8815 0.9486
-12.5413 1.4030 -3.8815 0.9486
-12.2424 -3.0620 -3.8815 0.9486
-11.5055 -5.1841 -3.8815 0.9486
-9.3452 -7.7240 -3.7291 0.9505
10.1459 -6.6372 -3.7291 0.9505
12.0105 -3.8729 -3.8815 0.9486
12.6070 -0.5622 -3.8815 0.9486
12.6070 0.5622 -3.8815 0.9486
12.5069 1.6820 -3.8815 0.9486
11.6182 4.9265 -3.8815 0.9486
11.1336 5.9410 -3.8815 0.9486
9.9038 7.8210 -3.8815 0.9486
8.3602 9.4530 -3.8815 0.9486
5.3472 10.8812 -3.7291 0.9505
2.2824 11.9073 -3.7291 0.9505
-3.0727 11.7282 -3.7291 0.9505
-4.1043 11.4082 -3.7291 0.9505
-6.0620 10.4997 -3.7291 0.9505
-9.7271 8.0397 -3.8815 0.9486
-10.4041 7.1420 -3.8815 0.9486
-10.9984 6.1876 -3.8815 0.9486
-11.5055 5.1841 -3.8815 0.9486
-12.4664 1.9602 -3.8815 0.9486
-12.6164 -0.2811 -3.8815 0.9486
-12.5413 -1.4029 -3.8815 0.9486
-12.0938 -3.6043 -3.8815 0.9486
-9.6800 -7.3000 -3.7291 0.9505
9.8402 -7.0826 -3.7291 0.9505
10.4315 -6.1786 -3.7291 0.9505
10.9401 -5.2256 -3.7291 0.9505
11.8059 -4.3966 -3.8749 0.9486
12.4196 -2.2375 -3.8815 0.9486
12.5694 -1.1232 -3.8815 0.9486
11.6306 1.0393 -3.8815 0.9520
11.2621 3.0850 -3.8815 0.9520
10.5367 5.0329 -3.8815 0.9520
9.4774 6.8214 -3.8815 0.9520
8.8326 7.6379 -3.8815 0.9520
8.1178 8.3937 -3.8815 0.9520
7.3384 9.0829 -3.8815 0.9520
3.5617 10.6381 -3.7291 0.9538
2.6007 10.9129 -3.7291 0.9538
0.6246 11.2011 -3.7291 0.9538
-0.3749 11.2122 -3.7291 0.9538
-3.3238 10.7148 -3.7291 0.9538
-7.9287 8.5725 -3.8815 0.9520
-8.6603 7.8327 -3.8815 0.9520
-9.3230 7.0308 -3.8815 0.9520
-10.4219 5.2664 -3.8815 0.9520
-10.8493 4.3179 -3.8815 0.9520
-11.4430 2.3259 -3.8815 0.9520
-11.6046 1.2982 -3.8815 0.9520
-11.5352 -1.8138 -3.8815 0.9520
-10.6462 -4.7969 -3.8815 0.9520
-8.6472 -7.1471 -3.7291 0.9538
-7.9767 -7.8884 -3.7291 0.9538
8.8043 -6.9527 -3.7291 0.9538
9.8975 -5.2815 -3.7291 0.9538
11.1135 -3.5836 -3.8815 0.9520
11.3883 -2.5803 -3.8815 0.9520
11.6654 -0.5202 -3.8815 0.9520
11.6654 0.5202 -3.8815 0.9520
9.1641 7.2368 -3.8815 0.9520
6.9265 9.4008 -3.8815 0.9520
6.0623 9.9800 -3.8815 0.9520
5.0249 10.2254 -3.7872 0.9531
4.0320 10.4689 -3.7291 0.9538
3.0842 10.7862 -3.7291 0.9538
0.1250 11.2178 -3.7291 0.9538
-4.7223 10.1762 -3.7291 0.9538
-6.7069 9.5406 -3.8766 0.9520
-7.5390 8.9172 -3.8815 0.9520
-8.3027 8.2108 -3.8815 0.9520
-9.6270 6.6086 -3.8815 0.9520
-10.1770 5.7255 -3.8815 0.9520
-10.6462 4.7969 -3.8815 0.9520
-11.0309 3.8303 -3.8815 0.9520
-11.3280 2.8333 -3.8815 0.9520
-11.5352 1.8138 -3.8815 0.9520
-11.6046 -1.2982 -3.8815 0.9520
-11.1906 -3.3351 -3.8815 0.9520
-10.4219 -5.2664 -3.8815 0.9520
-9.8940 -6.1620 -3.8745 0.9521
-8.9570 -6.7548 -3.7291 0.9538
-8.3202 -7.5252 -3.7291 0.9538
8.4858 -7.3380 -3.7291 0.9538
9.1053 -6.5536 -3.7291 0.9538
10.9428 -4.0752 -3.8815 0.9520
11.2621 -3.0850 -3.8815 0.9520
11.4920 -2.0704 -3.8815 0.9520
11.6306 -1.0393 -3.8815 0.9520
10.8541 0.0000 -3.8815 0.9549
10.8110 0.9661 -3.8815 0.9549
10.6821 1.9245 -3.8815 0.9549
10.4684 2.8676 -3.8815 0.9549
9.7941 4.6783 -3.8815 0.9549
9.3389 5.5314 -3.8815 0.9549
8.2102 7.0996 -3.8815 0.9549
3.3301 9.9466 -3.7510 0.9564
-1.2747 10.3497 -3.7291 0.9567
-4.9949 9.6169 -3.8753 0.9550
-5.8404 9.1488 -3.8815 0.9549
-7.3700 7.9683 -3.8815 0.9549
-8.6660 6.5354 -3.8815 0.9549
-9.6875 4.8953 -3.8815 0.9549
-10.4019 3.1001 -3.8815 0.9549
-10.8298 -0.7250 -3.8815 0.9549
-10.2535 -3.5604 -3.8815 0.9549
-9.8959 -4.4589 -3.8815 0.9549
-8.0378 -6.6434 -3.7291 0.9567
-7.4146 -7.3325 -3.7291 0.9567
-6.7325 -7.9633 -3.7291 0.9567
8.1838 -6.4627 -3.7291 0.9567
8.7265 -5.7087 -3.7291 0.9567
10.5858 -2.3984 -3.8815 0.9549
10.7572 -1.4467 -3.8815 0.9549
10.8433 -0.4835 -3.8815 0.9549
9.9928 4.2373 -3.8815 0.9549
9.0832 5.9419 -3.8815 0.9549
7.1906 8.1305 -3.8815 0.9549
5.6351 9.2767 -3.8815 0.9549
4.7864 9.7400 -3.8809 0.9549
-1.7345 10.2827 -3.7291 0.9567
-2.6428 10.0875 -3.7291 0.9567
-3.5301 9.8122 -3.7291 0.9567
-5.4236 9.3940 -3.8791 0.9550
-6.2421 8.8796 -3.8815 0.9549
-8.3663 6.9149 -3.8815 0.9549
-10.8298 0.7250 -3.8815 0.9549
-10.6366 -2.1620 -3.8815 0.9549
-10.4019 -3.1001 -3.8815 0.9549
-10.0847 -4.0136 -3.8815 0.9549
-9.2133 -5.7381 -3.8815 0.9549
-8.3258 -6.2788 -3.7291 0.9567
7.8878 -6.8208 -3.7291 0.9567
8.4636 -6.0917 -3.7291 0.9567
8.9722 -5.3142 -3.7291 0.9567
10.1716 -3.7880 -3.8815 0.9549
10.6821 -1.9245 -3.8815 0.9549
10.0885 0.9015 -3.8815 0.9575
9.9682 1.7959 -3.8815 0.9575
9.7688 2.6760 -3.8815 0.9575
9.4919 3.5348 -3.8815 0.9575
9.1396 4.3656 -3.8815 0.9575
8.7147 5.1617 -3.8815 0.9575
7.6615 6.6251 -3.8815 0.9575
7.0414 7.2807 -3.8815 0.9575
6.3654 7.8786 -3.8815 0.9575
4.8677 8.8824 -3.8815 0.9575
2.3384 9.8121 -3.8655 0.9577
1.4233 9.7591 -3.7794 0.9586
0.5427 9.7329 -3.7356 0.9591
-1.1974 9.7219 -3.7537 0.9589
-2.0870 9.7121 -3.8068 0.9583
-2.9956 9.6568 -3.8746 0.9576
-3.8481 9.3638 -3.8796 0.9576
-4.6686 8.9886 -3.8815 0.9575
-5.4501 8.5374 -3.8815 0.9575
-6.1883 8.0184 -3.8815 0.9575
-7.5120 6.7942 -3.8815 0.9575
-8.5976 5.3546 -3.8815 0.9575
-9.9257 2.0175 -3.8815 0.9575
-10.1061 -0.6765 -3.8815 0.9575
-10.0057 -1.5733 -3.8815 0.9575
-9.8260 -2.4576 -3.8815 0.9575
-9.5683 -3.3225 -3.8815 0.9575
-9.2346 -4.1609 -3.8815 0.9575
-7.5298 -6.2235 -3.7436 0.9590
-5.5963 -7.9608 -3.7291 0.9592
5.7722 -7.8341 -3.7291 0.9592
7.6369 -6.0308 -3.7291 0.9592
8.2296 -5.3835 -3.7686 0.9587
8.9353 -4.7680 -3.8812 0.9575
9.6399 -3.1085 -3.8815 0.9575
10.1186 -0.4512 -3.8815 0.9575
10.0383 1.3500 -3.8815 0.9575
9.8783 2.2381 -3.8815 0.9575
9.3250 3.9541 -3.8815 0.9575
8.9360 4.7684 -3.8815 0.9575
8.4761 5.5448 -3.8815 0.9575
7.9490 6.2772 -3.8815 0.9575
7.3587 6.9598 -3.8815 0.9575
6.0081 8.1543 -3.8815 0.9575
5.2585 8.6567 -3.8815 0.9575
4.4671 9.0904 -3.8815 0.9575
3.6403 9.4519 -3.8815 0.9575
2.7807 9.7248 -3.8761 0.9576
0.1084 9.7330 -3.7301 0.9592
-0.7599 9.7247 -3.7381 0.9591
-1.6392 9.7176 -3.7766 0.9587
-2.5426 9.7050 -3.8447 0.9579
-3.4248 9.5194 -3.8769 0.9576
-4.2635 9.1876 -3.8815 0.9575
-5.0643 8.7717 -3.8815 0.9575
-6.5394 7.7348 -3.8815 0.9575
-9.5683 3.3225 -3.8815 0.9575
-10.1061 0.6765 -3.8815 0.9575
-9.4108 -3.7454 -3.8815 0.9575
-8.5976 -5.3546 -3.8815 0.9575
-8.0749 -6.0895 -3.8757 0.9576
-7.2170 -6.5274 -3.7291 0.9592
-6.6074 -7.1439 -3.7291 0.9592
-5.2361 -8.2022 -3.7291 0.9592
6.7649 -6.9949 -3.7291 0.9592
7.8979 -5.6846 -3.7291 0.9592
8.7016 -5.1540 -3.8756 0.9576
9.7688 -2.6759 -3.8815 0.9575
10.0885 -0.9015 -3.8815 0.9575
9.4838 -0.0000 -3.8815 0.9598
9.4462 0.8441 -3.8815 0.9598
9.3336 1.6815 -3.8815 0.9598
8.1599 4.8331 -3.8815 0.9598
7.6973 5.5402 -3.8815 0.9598
7.1737 6.2033 -3.8815 0.9598
1.3682 9.3807 -3.8799 0.9599
-0.3166 9.4694 -3.8778 0.9599
-3.6049 8.7720 -3.8815 0.9598
-4.3713 8.4163 -3.8815 0.9598
-5.1031 7.9938 -3.8815 0.9598
-6.4396 6.9624 -3.8815 0.9598
-7.5720 5.7103 -3.8815 0.9598
-8.4645 4.2773 -3.8815 0.9598
-2.1285 0.0474 -0.8714 0.9908
-2.1302 -0.1426 -0.8738 0.9908
-2.1345 -0.3356 -0.8843 0.9907
-2.1308 -0.5329 -0.8989 0.9906
-8.9591 -3.1109 -3.8815 0.9598
-8.6466 -3.8960 -3.8815 0.9598
-8.2656 -4.6501 -3.8815 0.9598
-7.8189 -5.3674 -3.8815 0.9598
-5.8826 -6.9580 -3.7291 0.9614
-5.2400 -7.4540 -3.7291 0.9614
-3.8353 -8.2649 -3.7291 0.9614
6.6197 -6.2609 -3.7291 0.9614
7.1507 -5.6468 -3.7291 0.9614
7.9289 -5.1869 -3.8778 0.9599
8.3671 -4.4648 -3.8815 0.9598
8.7313 -3.7024 -3.8815 0.9598
9.4744 -0.4225 -3.8815 0.9598
9.3992 1.2641 -3.8815 0.9598
9.2494 2.0956 -3.8815 0.9598
9.0262 2.9106 -3.8815 0.9598
8.3671 4.4648 -3.8815 0.9598
7.9365 5.1918 -3.8815 0.9598
7.4429 5.8776 -3.8815 0.9598
6.2829 7.1041 -3.8815 0.9598
4.1827 8.5116 -3.8815 0.9598
2.6073 9.1184 -3.8815 0.9598
1.7854 9.3143 -3.8815 0.9598
0.9486 9.4296 -3.8788 0.9599
0.1055 9.4740 -3.8777 0.9599
-0.7382 9.4469 -3.8782 0.9599
-3.2105 8.9239 -3.8815 0.9598
-4.7419 8.2132 -3.8815 0.9598
-5.4541 7.7586 -3.8815 0.9598
-7.3101 6.0420 -3.8815 0.9598
-8.6466 3.8960 -3.8815 0.9598
-2.1285 -0.0474 -0.8714 0.9908
-2.1261 -0.2378 -0.8756 0.9908
-8.8116 -3.5069 -3.8815 0.9598
-8.4645 -4.2773 -3.8815 0.9598
-8.0502 -5.0137 -3.8815 0.9598
-7.5720 -5.7103 -3.8815 0.9598
-6.1867 -6.6890 -3.7291 0.9614
-4.9027 -7.6800 -3.7291 0.9614
-4.1997 -8.0859 -3.7291 0.9614
4.3788 -7.9903 -3.7291 0.9614
5.7261 -7.0873 -3.7291 0.9614
8.5577 -4.0877 -3.8815 0.9598
8.8876 -3.3098 -3.8815 0.9598
9.1469 -2.5056 -3.8815 0.9598
9.4462 -0.8441 -3.8815 0.9598
8.9063 0.0000 -3.8815 0.9619
8.8709 0.7927 -3.8815 0.9619
8.7651 1.5791 -3.8815 0.9619
8.3463 3.1082 -3.8815 0.9619
8.0365 3.8387 -3.8815 0.9619
6.7368 5.8255 -3.8815 0.9619
6.1916 6.4020 -3.8815 0.9619
5.5972 6.9277 -3.8815 0.9619
4.9584 7.3984 -3.8815 0.9619
4.2802 7.8103 -3.8815 0.9619
3.5680 8.1603 -3.8815 0.9619
2.8276 8.4455 -3.8815 0.9619
2.0647 8.6636 -3.8815 0.9619
0.4958 8.8924 -3.8815 0.9619
-1.0887 8.8395 -3.8815 0.9619
-2.6387 8.5064 -3.8815 0.9619
-3.3853 8.2378 -3.8815 0.9619
-6.0474 6.5384 -3.8815 0.9619
-6.6053 5.9742 -3.8815 0.9619
-7.1109 5.3626 -3.8815 0.9619
-7.5599 4.7084 -3.8815 0.9619
-7.9490 4.0168 -3.8815 0.9619
-1.9433 0.2174 -0.8522 0.9915
-1.9479 -0.1304 -0.8508 0.9915
-1.9397 -0.3050 -0.8557 0.9915
-1.9080 -0.4772 -0.8571 0.9915
-7.7622 -4.3669 -3.8815 0.9619
-6.2742 -6.2047 -3.8457 0.9622
-4.9209 -7.0000 -3.7291 0.9634
-4.2783 -7.4102 -3.7291 0.9634
-3.6018 -7.7616 -3.7291 0.9634
-2.8966 -8.0514 -3.7291 0.9634
3.7738 -7.6794 -3.7291 0.9634
7.4532 -4.8756 -3.8815 0.9619
7.8575 -4.1929 -3.8815 0.9619
8.6861 1.9680 -3.8815 0.9619
6.9896 5.5196 -3.8815 0.9619
4.6239 7.6119 -3.8815 0.9619
3.9280 7.9933 -3.8815 0.9619
3.2010 8.3111 -3.8815 0.9619
2.4485 8.5631 -3.8815 0.9619
1.6767 8.7470 -3.8815 0.9619
-2.2572 8.6155 -3.8815 0.9619
-3.7489 8.0788 -3.8815 0.9619
-5.1220 7.2861 -3.8815 0.9619
-5.7501 6.8013 -3.8815 0.9619
-6.8649 5.6740 -3.8815 0.9619
-7.3427 5.0405 -3.8815 0.9619
-8.1200 3.6587 -3.8815 0.9619
-1.8290 0.6351 -0.8438 0.9916
-1.9397 0.3050 -0.8557 0.9915
-1.9479 0.1304 -0.8508 0.9915
-1.9433 -0.2174 -0.8522 0.9915
-8.2750 -3.2933 -3.8815 0.9619
-7.1109 -5.3626 -3.8815 0.9619
-6.5990 -5.9685 -3.8778 0.9619
-4.6041 -7.2123 -3.7291 0.9634
-3.2524 -7.9143 -3.7291 0.9634
-1.7977 -8.3656 -3.7291 0.9634
1.9836 -8.3235 -3.7291 0.9634
3.4279 -7.8399 -3.7291 0.9634
5.3774 -6.6557 -3.7291 0.9634
6.5711 -5.6822 -3.7860 0.9628
7.2254 -5.2005 -3.8798 0.9619
8.3463 -3.1082 -3.8815 0.9619
8.5898 -2.3530 -3.8815 0.9619
8.7651 -1.5791 -3.8815 0.9619
7.2148 4.2734 -3.8815 0.9637
6.3429 5.4849 -3.8815 0.9637
5.8295 6.0277 -3.8815 0.9637
5.2699 6.5226 -3.8815 0.9637
2.6622 7.9516 -3.8815 0.9637
0.4668 8.3724 -3.8815 0.9637
-0.2802 8.3808 -3.8815 0.9637
-1.7617 8.1983 -3.8815 0.9637
-2.4844 8.0090 -3.8815 0.9637
-3.8651 7.4416 -3.8815 0.9637
-4.5121 7.0680 -3.8815 0.9637
-5.6938 6.1560 -3.8815 0.9637
-6.6950 5.0490 -3.8815 0.9637
-7.1179 4.4330 -3.8815 0.9637
-1.5924 0.4746 -0.7692 0.9927
-1.6373 0.3328 -0.7734 0.9927
-1.6738 -0.1120 -0.7765 0.9926
-1.6521 -0.2598 -0.7741 0.9927
-1.6165 -0.4043 -0.7713 0.9927
-7.3083 -4.1116 -3.8815 0.9637
-5.2577 -6.2188 -3.7695 0.9647
-4.6331 -6.5907 -3.7291 0.9651
-4.0281 -6.9769 -3.7291 0.9651
-3.3911 -7.3077 -3.7291 0.9651
-2.7273 -7.5805 -3.7291 0.9651
-1.3400 -7.9440 -3.7291 0.9651
-0.6276 -8.0317 -3.7291 0.9651
0.0897 -8.0557 -3.7291 0.9651
0.8064 -8.0158 -3.7291 0.9651
2.8955 -7.5179 -3.7291 0.9651
3.5531 -7.2303 -3.7291 0.9651
4.1825 -6.8854 -3.7291 0.9651
6.5809 -5.1969 -3.8815 0.9637
7.3980 -3.9477 -3.8815 0.9637
7.7201 -3.2736 -3.8815 0.9637
7.9808 -2.5735 -3.8815 0.9637
8.1782 -1.8529 -3.8815 0.9637
7.7201 3.2736 -3.8815 0.9637
7.0173 4.5905 -3.8815 0.9637
6.5809 5.1969 -3.8815 0.9637
5.5552 6.2814 -3.8815 0.9637
3.6983 7.5258 -3.8815 0.9637
1.5786 8.2355 -3.8815 0.9637
-0.6533 8.3600 -3.8815 0.9637
-2.1252 8.1117 -3.8815 0.9637
-3.5297 7.6064 -3.8815 0.9637
-4.1927 7.2620 -3.8815 0.9637
-5.4139 6.4036 -3.8815 0.9637
-5.9623 5.8963 -3.8815 0.9637
-6.4635 5.3422 -3.8815 0.9637
-6.9133 4.7457 -3.8815 0.9637
-7.6452 3.4448 -3.8815 0.9637
-1.5621 0.5424 -0.7654 0.9927
-1.6521 0.2598 -0.7741 0.9927
-1.6675 -0.1865 -0.7767 0.9926
-1.6373 -0.3328 -0.7734 0.9927
-1.5924 -0.4746 -0.7692 0.9927
-1.5257 -0.6072 -0.7601 0.9928
-7.4842 -3.7819 -3.8815 0.9637
-6.6950 -5.0490 -3.8815 0.9637
-6.2191 -5.6248 -3.8815 0.9637
-5.6839 -6.1454 -3.8748 0.9638
-4.3349 -6.7905 -3.7291 0.9651
-3.7133 -7.1494 -3.7291 0.9651
-3.0622 -7.4515 -3.7291 0.9651
-2.3869 -7.6945 -3.7291 0.9651
2.5577 -7.6394 -3.7291 0.9651
3.2275 -7.3814 -3.7291 0.9651
4.4851 -6.6923 -3.7291 0.9651
6.3365 -5.4794 -3.8776 0.9637
7.2148 -4.2734 -3.8815 0.9637
7.5666 -3.6142 -3.8815 0.9637
7.8582 -2.9264 -3.8815 0.9637
8.0875 -2.2154 -3.8815 0.9637
8.2526 -1.4868 -3.8815 0.9637
7.9130 0.0000 -3.8815 0.9654
7.7876 1.4030 -3.8815 0.9654
7.6318 2.0906 -3.8815 0.9654
7.1402 3.4106 -3.8815 0.9654
6.4224 4.6225 -3.8815 0.9654
5.9855 5.1758 -3.8815 0.9654
4.9729 6.1551 -3.8815 0.9654
2.5122 7.5036 -3.8815 0.9654
1.1420 7.8301 -3.8815 0.9654
0.4405 7.9007 -3.8815 0.9654
-0.2644 7.9085 -3.8815 0.9654
-2.3444 7.5577 -3.8815 0.9654
-4.2578 6.6698 -3.8815 0.9654
-4.8346 6.2643 -3.8815 0.9654
-5.3729 5.8092 -3.8815 0.9654
-5.8686 5.3079 -3.8815 0.9654
-6.3178 4.7645 -3.8815 0.9654
-6.7168 4.1833 -3.8815 0.9654
-1.3536 0.0302 -0.6641 0.9940
-1.3513 -0.0905 -0.6643 0.9940
-1.3149 -0.3289 -0.6649 0.9940
-1.3171 -0.4573 -0.6839 0.9938
-1.2865 -0.5797 -0.6922 0.9937
-5.1025 -6.0352 -3.8767 0.9654
-4.3778 -6.2276 -3.7340 0.9667
-3.8011 -6.5838 -3.7291 0.9667
-2.5736 -7.1534 -3.7291 0.9667
-1.2645 -7.4964 -3.7291 0.9667
0.0847 -7.6018 -3.7291 0.9667
1.4312 -7.4664 -3.7291 0.9667
2.0900 -7.3093 -3.7291 0.9667
3.9469 -6.4975 -3.7291 0.9667
4.5095 -6.1204 -3.7291 0.9667
5.1943 -5.8733 -3.8461 0.9657
5.7465 -5.4350 -3.8799 0.9654
6.2101 -4.9041 -3.8815 0.9654
6.6219 -4.3319 -3.8815 0.9654
7.5311 -2.4285 -3.8815 0.9654
7.8424 -1.0547 -3.8815 0.9654
5.7490 5.4373 -3.8815 0.9654
5.2422 5.9274 -3.8815 0.9654
4.6938 6.3705 -3.8815 0.9654
4.1082 6.7630 -3.8815 0.9654
-2.0054 7.6546 -3.8815 0.9654
-2.6788 7.4458 -3.8815 0.9654
-3.3308 7.1778 -3.8815 0.9654
-4.5507 6.4735 -3.8815 0.9654
-5.1088 6.0427 -3.8815 0.9654
-5.6264 5.5641 -3.8815 0.9654
-6.5238 4.4783 -3.8815 0.9654
-1.2865 0.5797 -0.6922 0.9937
-1.3257 0.2085 -0.6583 0.9940
-1.3047 -0.2652 -0.6531 0.9941
-1.3200 -0.3934 -0.6756 0.9939
-1.3059 -0.5198 -0.6895 0.9938
-7.0625 -3.5688 -3.8815 0.9654
-6.7168 -4.1833 -3.8815 0.9654
-3.5041 -6.7466 -3.7291 0.9667
-2.2524 -7.2610 -3.7291 0.9667
1.0972 -7.5227 -3.7291 0.9667
1.7624 -7.3952 -3.7291 0.9667
2.4136 -7.2090 -3.7291 0.9667
3.0456 -6.9655 -3.7291 0.9667
4.7981 -5.9386 -3.7450 0.9666
5.9855 -5.1758 -3.8815 0.9654
6.4224 -4.6226 -3.8815 0.9654
6.8083 -4.0326 -3.8815 0.9654
7.1402 -3.4106 -3.8815 0.9654
7.4154 -2.7615 -3.8815 0.9654
7.6318 -2.0906 -3.8815 0.9654
7.8816 -0.7043 -3.8815 0.9654
7.4820 -0.0000 -3.8815 0.9668
6.7513 3.2248 -3.8815 0.9668
6.4375 3.8129 -3.8815 0.9668
6.0726 4.3708 -3.8815 0.9668
5.6595 4.8939 -3.8815 0.9668
3.5957 6.5613 -3.8815 0.9668
2.9974 6.8553 -3.8815 0.9668
2.3754 7.0949 -3.8815 0.9668
0.4165 7.4704 -3.8815 0.9668
-0.9146 7.4259 -3.8815 0.9668
-1.5719 7.3150 -3.8815 0.9668
-2.8440 6.9204 -3.8815 0.9668
-3.4486 6.6398 -3.8815 0.9668
-4.0259 6.3065 -3.8815 0.9668
-5.0803 5.4928 -3.8815 0.9668
-6.3510 3.9554 -3.8815 0.9668
-1.1070 0.4406 -0.6181 0.9946
-1.1266 0.3358 -0.6099 0.9947
-1.1649 0.1303 -0.6081 0.9947
-1.1739 -0.0786 -0.6103 0.9947
-1.1517 -0.1811 -0.6048 0.9948
-1.1275 -0.2820 -0.6029 0.9948
-1.0898 -0.4910 -0.6201 0.9946
-6.5209 -3.6686 -3.8815 0.9668
-6.1685 -4.2344 -3.8815 0.9668
-5.7671 -4.7666 -3.8815 0.9668
-4.2961 -6.1112 -3.8754 0.9669
-3.5968 -6.2298 -3.7318 0.9681
-3.0258 -6.5204 -3.7291 0.9681
-1.1956 -7.0881 -3.7291 0.9681
0.0801 -7.1878 -3.7291 0.9681
0.7195 -7.1521 -3.7291 0.9681
1.3532 -7.0597 -3.7291 0.9681
2.5835 -6.7079 -3.7291 0.9681
3.1703 -6.4513 -3.7291 0.9681
5.4358 -5.1412 -3.8815 0.9668
5.8719 -4.6369 -3.8815 0.9668
6.2613 -4.0959 -3.8815 0.9668
7.1209 -2.2962 -3.8815 0.9668
7.4152 -0.9973 -3.8815 0.9668
7.4745 -0.3333 -3.8815 0.9668
7.4745 0.3333 -3.8815 0.9668
7.4152 0.9972 -3.8815 0.9668
7.1209 2.2962 -3.8815 0.9668
6.6010 3.5224 -3.8815 0.9668
5.8719 4.6370 -3.8815 0.9668
3.2998 6.7150 -3.8815 0.9668
2.6891 6.9820 -3.8815 0.9668
2.0570 7.1937 -3.8815 0.9668
0.7489 7.4444 -3.8815 0.9668
0.0833 7.4815 -3.8815 0.9668
-1.2445 7.3778 -3.8815 0.9668
-2.5329 7.0402 -3.8815 0.9668
-3.1494 6.7868 -3.8815 0.9668
-3.7410 6.4796 -3.8815 0.9668
-4.3029 6.1209 -3.8815 0.9668
-5.3199 5.2610 -3.8815 0.9668
-5.7671 4.7666 -3.8815 0.9668
-6.1685 4.2344 -3.8815 0.9668
-1.0898 0.4910 -0.6201 0.9946
-1.1198 0.3889 -0.6150 0.9947
-1.1517 0.1811 -0.6048 0.9948
-1.1739 0.0786 -0.6103 0.9947
-1.1785 -0.0263 -0.6115 0.9947
-1.1649 -0.1303 -0.6081 0.9947
-6.3510 -3.9554 -3.8815 0.9668
-5.9737 -4.5050 -3.8815 0.9668
-5.0803 -5.4928 -3.8815 0.9668
-4.5679 -5.9188 -3.8786 0.9669
-3.9638 -6.2092 -3.8216 0.9673
-2.1297 -6.8655 -3.7291 0.9681
-1.5102 -7.0278 -3.7291 0.9681
-0.2402 -7.1842 -3.7291 0.9681
0.4002 -7.1771 -3.7291 0.9681
3.4545 -6.3037 -3.7291 0.9681
5.2014 -5.3782 -3.8815 0.9668
6.4375 -3.8130 -3.8815 0.9668
7.0116 -2.6111 -3.8815 0.9668
7.4523 -0.6659 -3.8815 0.9668
2.0004 0.5480 -1.1360 0.9906
6.3948 3.0545 -3.8815 0.9682
6.0975 3.6116 -3.8815 0.9682
5.7519 4.1400 -3.8815 0.9682
4.9267 5.0942 -3.8815 0.9682
4.4538 5.5125 -3.8815 0.9682
2.2499 6.7202 -3.8815 0.9682
1.0228 7.0127 -3.8815 0.9682
-2.0997 6.7687 -3.8815 0.9682
-2.6938 6.5549 -3.8815 0.9682
-3.2665 6.2892 -3.8815 0.9682
-3.8133 5.9735 -3.8815 0.9682
-5.6582 4.2671 -3.8815 0.9682
-0.9364 0.4732 -0.5746 0.9952
-0.9638 0.3836 -0.5681 0.9953
-1.0000 0.2033 -0.5589 0.9954
-1.0293 0.1151 -0.5673 0.9953
-0.9847 -0.2463 -0.5559 0.9954
-0.9472 -0.4268 -0.5690 0.9953
-5.8427 -4.0108 -3.8815 0.9682
-5.4625 -4.5149 -3.8815 0.9682
-5.0390 -4.9832 -3.8815 0.9682
-4.0748 -5.7965 -3.8807 0.9682
-3.5376 -6.1273 -3.8751 0.9682
-2.8870 -6.2213 -3.7564 0.9692
-2.3049 -6.4066 -3.7291 0.9694
-1.7255 -6.5863 -3.7291 0.9694
-0.5304 -6.7879 -3.7291 0.9694
0.6815 -6.7744 -3.7291 0.9694
1.2818 -6.6869 -3.7291 0.9694
3.0061 -6.1172 -3.7331 0.9694
4.6949 -5.3086 -3.8815 0.9682
5.9306 -3.8796 -3.8815 0.9682
6.2524 -3.3364 -3.8815 0.9682
1.9407 -0.8229 -1.1546 0.9904
1.9895 -0.6415 -1.1449 0.9905
2.0041 -0.4541 -1.1255 0.9907
2.0226 -0.2720 -1.1178 0.9907
2.0434 -0.0911 -1.1203 0.9907
2.0226 0.2720 -1.1178 0.9907
2.0041 0.4541 -1.1255 0.9907
1.9895 0.6415 -1.1449 0.9905
1.9407 0.8229 -1.1546 0.9904
5.5618 4.3921 -3.8815 0.9682
4.2038 5.7054 -3.8815 0.9682
3.6793 6.0569 -3.8815 0.9682
3.1256 6.3604 -3.8815 0.9682
0.7094 7.0513 -3.8815 0.9682
0.0789 7.0864 -3.8815 0.9682
-0.5521 7.0653 -3.8815 0.9682
-1.1788 6.9881 -3.8815 0.9682
-2.9831 6.4284 -3.8815 0.9682
-3.5434 6.1374 -3.8815 0.9682
-4.5755 5.4119 -3.8815 0.9682
-5.8427 4.0108 -3.8815 0.9682
-0.9240 0.5198 -0.5806 0.9952
-0.9756 0.3388 -0.5656 0.9953
-0.9847 0.2463 -0.5559 0.9954
-1.0166 0.1599 -0.5637 0.9953
-1.0376 0.0695 -0.5696 0.9953
-1.0293 -0.1151 -0.5673 0.9953
-0.9825 -0.2928 -0.5615 0.9953
-0.9638 -0.3836 -0.5681 0.9953
-0.9364 -0.4732 -0.5746 0.9952
-6.0156 -3.7465 -3.8815 0.9682
-5.6582 -4.2671 -3.8815 0.9682
-4.8120 -5.2027 -3.8815 0.9682
-4.3298 -5.6103 -3.8815 0.9682
-3.8097 -5.9678 -3.8778 0.9682
-2.5880 -6.2976 -3.7291 0.9694
-1.4304 -6.6566 -3.7291 0.9694
-0.2275 -6.8048 -3.7291 0.9694
0.3791 -6.7980 -3.7291 0.9694
0.9826 -6.7373 -3.7291 0.9694
3.3299 -6.0763 -3.7950 0.9689
3.9399 -5.8788 -3.8761 0.9682
5.7519 -4.1400 -3.8815 0.9682
6.0975 -3.6116 -3.8815 0.9682
2.0036 -0.3610 -1.1150 0.9908
1.8700 0.1671 -1.0839 0.9914
1.8426 0.3320 -1.0810 0.9914
1.8267 0.5004 -1.0935 0.9913
1.7869 0.6655 -1.1009 0.9912
1.7194 0.8213 -1.1001 0.9912
5.7844 3.4261 -3.8815 0.9694
5.4565 3.9274 -3.8815 0.9694
4.6737 4.8326 -3.8815 0.9694
4.2251 5.2294 -3.8815 0.9694
3.7429 5.5847 -3.8815 0.9694
2.6933 6.1599 -3.8815 0.9694
1.5585 6.5398 -3.8815 0.9694
0.9703 6.6526 -3.8815 0.9694
0.3743 6.7125 -3.8815 0.9694
-0.2246 6.7192 -3.8815 0.9694
-1.4124 6.5729 -3.8815 0.9694
-3.0988 5.9662 -3.8815 0.9694
-4.1075 5.3223 -3.8815 0.9694
-4.9861 4.5097 -3.8815 0.9694
-5.3677 4.0480 -3.8815 0.9694
-0.9120 0.1854 -0.5373 0.9957
-0.9237 0.1033 -0.5366 0.9957
-0.9273 -0.0621 -0.5366 0.9957
-0.8858 -0.3991 -0.5609 0.9955
-0.8638 -0.4859 -0.5722 0.9954
-4.7803 -4.7273 -3.8815 0.9694
-2.8257 -6.0893 -3.8757 0.9695
-2.2346 -6.2112 -3.8110 0.9700
-1.6369 -6.2481 -3.7291 0.9706
-0.5032 -6.4394 -3.7291 0.9706
2.3656 -6.1422 -3.8001 0.9701
3.9879 -5.4124 -3.8815 0.9694
4.4538 -5.0360 -3.8815 0.9694
4.8844 -4.6196 -3.8815 0.9694
5.6261 -3.6804 -3.8815 0.9694
1.8108 -0.5839 -1.0985 0.9913
1.8755 -0.0836 -1.0839 0.9914
1.8755 0.0836 -1.0839 0.9914
1.8592 0.2500 -1.0831 0.9914
1.8316 0.4150 -1.0843 0.9914
1.8108 0.5839 -1.0985 0.9913
1.7564 0.7448 -1.1014 0.9912
1.6860 0.8997 -1.1034 0.9912
5.6261 3.6804 -3.8815 0.9694
3.4904 5.7459 -3.8815 0.9694
2.4163 6.2737 -3.8815 0.9694
1.8483 6.4639 -3.8815 0.9694
-1.7038 6.5035 -3.8815 0.9694
-2.8299 6.0983 -3.8815 0.9694
-4.3405 5.1340 -3.8815 0.9694
-5.1820 4.2831 -3.8815 0.9694
-5.5427 3.8048 -3.8815 0.9694
-0.8638 0.4860 -0.5722 0.9954
-0.8858 0.3991 -0.5609 0.9955
-0.8983 0.3119 -0.5490 0.9956
-0.9030 0.2259 -0.5374 0.9957
-0.9306 -0.0207 -0.5374 0.9957
-0.9120 -0.1854 -0.5373 0.9957
-0.8932 -0.3555 -0.5550 0.9956
-0.8760 -0.4426 -0.5667 0.9955
-5.3677 -4.0480 -3.8815 0.9694
-4.9861 -4.5096 -3.8815 0.9694
-4.5649 -4.9355 -3.8815 0.9694
-4.1075 -5.3222 -3.8815 0.9694
-3.0959 -5.9607 -3.8779 0.9695
-2.5480 -6.2002 -3.8702 0.9695
-0.7895 -6.4105 -3.7291 0.9706
0.3596 -6.4490 -3.7291 0.9706
0.9322 -6.3914 -3.7291 0.9706
1.4973 -6.2830 -3.7291 0.9706
2.6729 -6.1132 -3.8521 0.9697
3.2271 -5.8888 -3.8769 0.9695
3.7427 -5.5845 -3.8813 0.9694
4.2251 -5.2294 -3.8815 0.9694
4.6737 -4.8326 -3.8815 0.9694
5.0853 -4.3975 -3.8815 0.9694
5.4565 -3.9274 -3.8815 0.9694
5.7844 -3.4261 -3.8815 0.9694
1.7869 -0.6654 -1.1009 0.9912
1.8426 -0.3320 -1.0810 0.9914
1.8700 -0.1671 -1.0839 0.9914
