ply
format ascii 1.0
element vertex 1351
property float32 x
property float32 y
property float32 z
property float32 I
end_header
-15.5125 11.6985 -1.8653 0.9249
-18.0366 -6.2630 -1.8330 0.9261
-17.4386 -7.8574 -1.8363 0.9260
-17.2733 9.7178 -1.9027 0.9234
19.0830 0.0000 -2.2668 0.9260
17.1570 8.1952 -2.2586 0.9263
10.9180 13.5134 -2.0636 0.9324
-12.8901 9.7209 -1.9178 0.9370
-16.1958 4.8269 -2.0075 0.9342
-16.7424 1.8729 -2.0012 0.9344
17.2221 -3.9020 -2.0976 0.9313
19.0685 0.8503 -2.2673 0.9260
18.9183 2.5443 -2.2675 0.9260
17.5217 7.4298 -2.2607 0.9262
16.7569 8.9417 -2.2561 0.9263
14.8245 11.7068 -2.2438 0.9267
13.6771 12.9357 -2.2362 0.9270
11.5327 13.0403 -2.0679 0.9323
-12.2538 10.1280 -1.8884 0.9380
-14.8232 8.3394 -2.0203 0.9338
-15.4622 6.9670 -2.0145 0.9340
-15.9817 5.5495 -2.0096 0.9341
-16.8009 1.1247 -2.0002 0.9344
-16.8234 -0.3749 -1.9989 0.9345
-16.7203 -1.8704 -1.9985 0.9345
-16.1409 -4.8105 -2.0006 0.9344
-15.5771 -6.1995 -1.9915 0.9347
-13.9946 -7.0718 -1.8625 0.9388
-13.3380 -8.3070 -1.8665 0.9387
17.0140 -4.6606 -2.0955 0.9314
18.7180 -1.6727 -2.2323 0.9271
15.7686 1.4091 -2.2431 0.9380
15.5780 2.8065 -2.2428 0.9381
14.8091 5.5150 -2.2391 0.9382
13.5511 8.0263 -2.2316 0.9384
11.8547 10.2511 -2.2206 0.9386
10.8626 11.2318 -2.2139 0.9388
-7.3150 11.4588 -1.9262 0.9466
-8.2727 10.7193 -1.9185 0.9468
-9.1594 9.9030 -1.9113 0.9470
-12.8119 6.4741 -2.0339 0.9437
-13.6999 4.0830 -2.0255 0.9439
-14.2434 0.3174 -2.0186 0.9441
-14.0698 -2.2124 -2.0180 0.9441
-13.0066 -5.8605 -2.0213 0.9440
-10.9669 -7.5283 -1.8848 0.9477
13.4374 -5.6980 -2.0680 0.9427
15.8065 -0.7048 -2.2418 0.9381
15.6897 2.1101 -2.2431 0.9380
15.4336 3.4968 -2.2422 0.9381
13.9090 7.4221 -2.2338 0.9383
11.3697 10.7533 -2.2174 0.9387
10.3171 11.6658 -2.2066 0.9390
8.5599 11.6176 -2.0447 0.9434
7.4638 12.2871 -2.0370 0.9436
-9.8264 9.7175 -1.9581 0.9457
-11.1434 9.2103 -2.0484 0.9433
-11.8823 8.1567 -2.0421 0.9434
-13.0723 5.8901 -2.0315 0.9437
-13.5166 4.6935 -2.0273 0.9438
-14.2197 0.9519 -2.0193 0.9441
-14.2402 -0.3173 -2.0182 0.9441
-13.9597 -2.8374 -2.0184 0.9441
-13.6606 -4.0713 -2.0197 0.9440
-12.2924 -6.2116 -1.9514 0.9459
-11.2796 -7.0250 -1.8828 0.9477
-10.6326 -8.0184 -1.8869 0.9476
13.6935 -5.0995 -2.0704 0.9427
15.5302 -2.7979 -2.2359 0.9382
13.5076 0.0000 -2.2252 0.9467
13.4572 1.2025 -2.2258 0.9467
13.0221 3.5671 -2.2243 0.9467
12.6417 4.7078 -2.2223 0.9468
12.1572 5.8070 -2.2195 0.9468
11.5735 6.8550 -2.2160 0.9469
9.2880 9.6037 -2.2010 0.9473
5.9051 10.7755 -2.0242 0.9514
3.8730 11.5680 -2.0097 0.9517
-1.4619 11.8695 -1.9701 0.9527
-2.5024 11.6452 -1.9622 0.9529
-5.4266 10.4481 -1.9395 0.9534
-7.4931 9.7090 -2.0204 0.9515
-8.5234 9.2154 -2.0679 0.9504
-9.2816 8.3947 -2.0617 0.9505
-9.9640 7.5143 -2.0559 0.9507
-11.5176 4.5839 -2.0421 0.9510
-11.8604 3.5348 -2.0388 0.9511
-12.1120 2.4619 -2.0361 0.9511
-12.3083 -0.8239 -2.0322 0.9512
-12.1867 -1.9163 -2.0323 0.9512
-11.2720 -5.0789 -2.0367 0.9511
-10.7639 -6.0557 -2.0346 0.9512
10.3855 -6.7939 -2.0445 0.9509
11.4792 -4.8676 -2.0541 0.9507
12.7655 -4.1163 -2.2096 0.9471
13.3729 -1.7985 -2.2229 0.9468
13.4907 -0.6016 -2.2247 0.9467
13.1721 2.9844 -2.2250 0.9467
12.8452 4.1421 -2.2234 0.9468
12.4122 5.2632 -2.2210 0.9468
11.2461 7.3569 -2.2139 0.9470
9.7194 9.1926 -2.2039 0.9472
7.8790 10.6935 -2.1882 0.9476
6.4172 10.5641 -2.0363 0.9511
5.4099 11.0087 -2.0207 0.9515
4.3927 11.4053 -2.0134 0.9517
-4.0084 11.1415 -1.9506 0.9531
-4.9651 10.6995 -1.9432 0.9533
-5.8759 10.1773 -1.9360 0.9535
-8.0963 9.5763 -2.0659 0.9504
-8.9116 8.8129 -2.0647 0.9505
-11.9977 3.0008 -2.0374 0.9511
-12.3155 0.8244 -2.0334 0.9512
-12.3341 -0.2749 -2.0324 0.9512
-12.0910 -2.4576 -2.0326 0.9512
-11.8309 -3.5260 -2.0337 0.9512
-11.4805 -4.5691 -2.0356 0.9511
-11.0418 -5.5797 -2.0381 0.9511
-9.9830 -6.2174 -1.9375 0.9534
10.6916 -6.3327 -2.0471 0.9509
11.2391 -5.3685 -2.0519 0.9508
11.9263 -4.4414 -2.0965 0.9497
11.7699 0.0000 -2.2123 0.9532
11.7256 1.0478 -2.2127 0.9532
11.3475 3.1084 -2.2115 0.9532
10.5967 5.0616 -2.2073 0.9533
8.8380 7.6425 -2.1962 0.9536
8.1045 8.3800 -2.1912 0.9537
7.3083 9.0456 -2.1858 0.9538
6.4567 9.6341 -2.1799 0.9539
5.5463 10.1206 -2.1692 0.9541
4.4203 10.1095 -2.0739 0.9561
3.3866 10.1151 -2.0050 0.9575
1.5290 10.4839 -1.9914 0.9578
-0.3515 10.5144 -1.9774 0.9581
-5.9698 9.3516 -2.0854 0.9558
-8.1647 7.3846 -2.0692 0.9562
-8.7680 6.6123 -2.0642 0.9563
-10.1432 4.0369 -2.0520 0.9565
-10.4472 3.1136 -2.0490 0.9566
-10.8118 1.2095 -2.0449 0.9567
-10.8704 0.2422 -2.0437 0.9567
-10.7387 -1.6886 -2.0433 0.9567
-10.5494 -2.6386 -2.0440 0.9567
-8.9746 -6.1607 -2.0461 0.9567
-7.8283 -6.4703 -1.9090 0.9595
-7.2361 -7.1560 -1.9129 0.9594
-5.8808 -8.3656 -1.9221 0.9592
8.4773 -6.6944 -2.0303 0.9570
9.0614 -5.9277 -2.0352 0.9569
9.5739 -5.1088 -2.0397 0.9568
11.4568 -2.5958 -2.2080 0.9533
11.6541 -1.5673 -2.2102 0.9533
11.7599 0.5244 -2.2126 0.9532
11.4778 2.6005 -2.2121 0.9532
11.1939 3.6096 -2.2107 0.9533
10.8180 4.5872 -2.2086 0.9533
10.3539 5.5250 -2.2059 0.9534
9.1791 7.2486 -2.1984 0.9535
7.7138 8.7221 -2.1886 0.9537
6.0125 9.8980 -2.1768 0.9540
5.0187 10.2128 -2.1389 0.9547
1.9980 10.4233 -1.9948 0.9577
1.0586 10.5231 -1.9879 0.9579
0.1174 10.5383 -1.9809 0.9580
-0.8181 10.4697 -1.9739 0.9582
-1.7405 10.3187 -1.9669 0.9583
-2.6428 10.0873 -1.9600 0.9584
-4.5080 9.7144 -2.0130 0.9573
-5.5449 9.6040 -2.0844 0.9559
-6.3758 9.0697 -2.0838 0.9559
-7.1367 8.4413 -2.0777 0.9560
-9.0436 6.2081 -2.0618 0.9563
-9.5401 5.3672 -2.0575 0.9564
-10.5690 2.6435 -2.0478 0.9566
-10.7515 1.6906 -2.0457 0.9567
-10.8026 -1.2085 -2.0431 0.9567
-10.6542 -2.1656 -2.0435 0.9567
-6.9179 -7.4795 -1.9150 0.9594
-6.2397 -8.0849 -1.9196 0.9593
8.1600 -7.0563 -2.0277 0.9570
8.7780 -6.3180 -2.0328 0.9569
9.3269 -5.5243 -2.0375 0.9568
10.4182 0.0000 -2.2022 0.9583
10.0448 2.7516 -2.2015 0.9583
9.7533 3.6322 -2.2000 0.9583
9.3822 4.4815 -2.1978 0.9584
8.9350 5.2922 -2.1951 0.9584
8.4159 6.0574 -2.1918 0.9585
7.8296 6.7705 -2.1880 0.9586
7.1816 7.4257 -2.1836 0.9586
5.7248 8.5421 -2.1736 0.9588
4.9291 8.9945 -2.1680 0.9589
4.0978 9.3719 -2.1621 0.9590
3.2330 9.6564 -2.1525 0.9592
1.4222 9.7515 -2.0831 0.9605
-0.3247 9.7124 -2.0542 0.9610
-1.1957 9.7087 -2.0677 0.9608
-2.9508 9.5124 -2.1052 0.9601
-3.7821 9.2033 -2.1033 0.9601
-5.3231 8.3385 -2.0911 0.9604
-6.0278 7.8105 -2.0855 0.9605
-8.7104 4.4016 -2.0629 0.9609
-9.0537 3.6033 -2.0598 0.9609
-9.3265 2.7796 -2.0571 0.9610
-9.5270 1.9365 -2.0550 0.9610
-9.7070 0.2163 -2.0524 0.9611
-9.6854 -0.6484 -2.0519 0.9611
-8.8657 -3.9947 -2.0555 0.9610
-8.4843 -4.7732 -2.0577 0.9610
-5.2441 -7.4597 -1.9275 0.9634
4.9190 -8.0977 -2.0027 0.9620
10.1433 -2.2982 -2.1984 0.9584
10.4058 -0.4640 -2.2018 0.9583
10.3270 1.3889 -2.2026 0.9583
6.8364 7.7300 -2.1813 0.9587
5.3319 8.7775 -2.1709 0.9589
4.5175 9.1927 -2.1651 0.9590
-2.5254 9.6395 -2.1064 0.9601
-4.1821 9.0123 -2.1001 0.9602
-4.9533 8.5794 -2.0941 0.9603
-8.0680 5.5384 -2.0686 0.9608
-8.5129 4.7893 -2.0647 0.9609
-9.1990 3.1942 -2.0584 0.9610
-9.5998 1.5095 -2.0541 0.9610
-9.6898 0.6487 -2.0528 0.9611
-9.6467 -1.0792 -2.0518 0.9611
-9.3083 -2.7741 -2.0531 0.9611
-9.0308 -3.5942 -2.0546 0.9610
-8.2686 -5.1497 -2.0591 0.9610
-6.8747 -6.2178 -1.9594 0.9628
-6.1713 -6.6723 -1.9212 0.9635
-5.5648 -7.2105 -1.9253 0.9634
-4.9124 -7.6951 -1.9298 0.9634
5.2824 -7.8818 -2.0056 0.9620
6.6317 -6.8572 -2.0164 0.9617
7.7789 -5.5989 -2.0259 0.9616
8.8349 -5.2329 -2.1705 0.9589
9.3527 -4.4674 -2.1909 0.9585
9.7284 -3.6229 -2.1944 0.9584
10.2406 -1.8449 -2.1995 0.9584
9.3358 0.0000 -2.1941 0.9624
9.3003 0.8311 -2.1945 0.9624
9.0015 2.4658 -2.1935 0.9624
8.4092 4.0167 -2.1902 0.9624
8.0094 4.7440 -2.1878 0.9625
7.0209 6.0712 -2.1814 0.9626
5.1370 7.6649 -2.1686 0.9628
3.6790 8.4141 -2.1583 0.9630
2.9080 8.6858 -2.1527 0.9631
2.1177 8.8864 -2.1470 0.9632
0.5058 9.0706 -2.1351 0.9634
-1.1042 8.9656 -2.1230 0.9636
-1.8925 8.8068 -2.1170 0.9637
-4.1181 7.9288 -2.0998 0.9640
-6.0225 6.5114 -2.0845 0.9642
-6.5640 5.9368 -2.0801 0.9643
-7.0524 5.3185 -2.0760 0.9644
-7.8571 3.9704 -2.0690 0.9645
-8.5969 1.7474 -2.0618 0.9646
-8.7122 0.9746 -2.0604 0.9646
-8.7604 0.1952 -2.0594 0.9646
-8.7411 -0.5851 -2.0590 0.9646
-8.6546 -1.3609 -2.0590 0.9646
-8.0000 -3.6046 -2.0622 0.9646
-7.6550 -4.3066 -2.0643 0.9646
-6.7881 -5.6105 -2.0698 0.9645
-6.2505 -6.1812 -2.0660 0.9645
-3.4757 -7.4900 -1.9406 0.9666
-2.8022 -7.7889 -1.9454 0.9666
0.8399 -8.3492 -1.9722 0.9661
1.5842 -8.2648 -1.9778 0.9660
2.3201 -8.1139 -1.9834 0.9659
3.0415 -7.8971 -1.9889 0.9658
4.4172 -7.2717 -1.9996 0.9656
6.2263 -5.8888 -2.0141 0.9654
7.0786 -5.5899 -2.1198 0.9636
8.1923 -4.3715 -2.1823 0.9626
8.5618 -3.6305 -2.1857 0.9625
8.8624 -2.8577 -2.1885 0.9625
9.0911 -2.0598 -2.1908 0.9624
9.3249 -0.4158 -2.1937 0.9624
9.2539 1.2445 -2.1945 0.9624
9.1043 2.0628 -2.1940 0.9624
8.8803 2.8635 -2.1929 0.9624
8.2176 4.3850 -2.1891 0.9625
7.2903 5.7571 -2.1832 0.9625
6.1322 6.9337 -2.1755 0.9627
5.4793 7.4366 -2.1710 0.9628
4.7850 7.8772 -2.1661 0.9628
4.0552 8.2521 -2.1610 0.9629
3.2963 8.5588 -2.1555 0.9630
2.5149 8.7951 -2.1499 0.9631
1.7174 8.9597 -2.1441 0.9632
0.9106 9.0518 -2.1381 0.9633
0.1011 9.0713 -2.1321 0.9634
-2.2797 8.7015 -2.1141 0.9637
-3.7658 8.1150 -2.1026 0.9639
-4.4615 7.7275 -2.0971 0.9640
-5.1187 7.2815 -2.0919 0.9641
-5.7329 6.7809 -2.0869 0.9642
-6.2997 6.2299 -2.0823 0.9642
-6.8151 5.6328 -2.0780 0.9643
-7.2757 4.9945 -2.0741 0.9644
-8.0204 3.6138 -2.0675 0.9645
-8.2996 2.8820 -2.0649 0.9645
-8.5143 2.1296 -2.0627 0.9646
-8.6630 1.3622 -2.0610 0.9646
-8.7447 0.5854 -2.0598 0.9646
-8.7063 -0.9739 -2.0589 0.9646
-8.5863 -1.7452 -2.0593 0.9646
-8.4003 -2.5035 -2.0601 0.9646
-8.1493 -3.2433 -2.0614 0.9646
-7.4599 -4.6461 -2.0655 0.9645
-5.7473 -6.2139 -1.9893 0.9658
-5.0170 -6.5007 -1.9299 0.9668
-4.4278 -6.9360 -1.9340 0.9668
-1.7459 -8.1246 -1.9531 0.9664
-0.2792 -8.3512 -1.9638 0.9662
1.2128 -8.3153 -1.9750 0.9661
1.9536 -8.1976 -1.9806 0.9660
4.0835 -7.4515 -1.9970 0.9657
6.5761 -5.6865 -2.0432 0.9649
8.3854 -4.0054 -2.1841 0.9625
8.7209 -3.2477 -2.1871 0.9625
8.9859 -2.4615 -2.1897 0.9624
9.1778 -1.6535 -2.1917 0.9624
9.2949 -0.8306 -2.1932 0.9624
8.4487 0.0000 -2.1875 0.9657
7.9110 2.9461 -2.1857 0.9657
7.6114 3.6357 -2.1840 0.9657
6.8310 4.9166 -2.1792 0.9658
5.8333 6.0316 -2.1726 0.9659
5.2639 6.5152 -2.1687 0.9660
4.0091 7.3156 -2.1599 0.9661
3.3346 7.6264 -2.1551 0.9662
1.9204 8.0584 -2.1449 0.9664
0.4589 8.2298 -2.1341 0.9665
-0.2747 8.2168 -2.1287 0.9666
-1.7184 7.9966 -2.1177 0.9668
-2.4172 7.7922 -2.1124 0.9669
-3.0934 7.5274 -2.1071 0.9669
-3.7421 7.2048 -2.1021 0.9670
-4.9378 6.3981 -2.0925 0.9672
-6.8092 4.2408 -2.0770 0.9674
-7.6588 2.2826 -2.0692 0.9675
-7.9303 0.8871 -2.0661 0.9676
-7.9745 0.1777 -2.0653 0.9676
-7.9571 -0.5327 -2.0648 0.9676
-7.8783 -1.2388 -2.0649 0.9676
-7.7388 -1.9356 -2.0654 0.9676
-7.5393 -2.6180 -2.0664 0.9676
-6.5976 -4.5290 -2.0720 0.9675
-6.1764 -5.1049 -2.0747 0.9674
-5.7060 -5.6428 -2.0778 0.9674
-4.3723 -6.2197 -1.9685 0.9691
-3.7452 -6.4868 -1.9394 0.9695
-3.1596 -6.8089 -1.9435 0.9695
-2.5468 -7.0789 -1.9479 0.9694
-1.9111 -7.2946 -1.9524 0.9693
-1.2573 -7.4538 -1.9572 0.9692
1.4376 -7.5000 -1.9772 0.9689
2.1049 -7.3612 -1.9823 0.9689
4.0044 -6.5922 -1.9971 0.9686
5.2069 -5.8876 -2.0350 0.9680
7.0249 -4.5955 -2.1735 0.9659
8.0222 -2.5868 -2.1824 0.9658
8.2284 -1.8643 -2.1845 0.9657
8.4390 -0.3763 -2.1872 0.9657
8.2393 1.8668 -2.1874 0.9657
8.0369 2.5916 -2.1864 0.9657
7.7691 3.2944 -2.1849 0.9657
7.4384 3.9692 -2.1830 0.9658
5.5540 6.2800 -2.1707 0.9660
4.9637 6.7367 -2.1666 0.9660
4.3356 7.1373 -2.1622 0.9661
3.6752 7.4787 -2.1575 0.9662
2.9881 7.7585 -2.1526 0.9662
2.2803 7.9746 -2.1475 0.9663
1.5576 8.1259 -2.1423 0.9664
0.8261 8.2116 -2.1369 0.9665
-0.6397 8.1858 -2.1259 0.9666
-1.3622 8.0756 -2.1205 0.9667
-2.7584 7.6672 -2.1097 0.9669
-4.0546 7.0227 -2.0996 0.9670
-4.6530 6.6189 -2.0948 0.9671
-6.1987 5.1233 -2.0822 0.9673
-6.6187 4.5435 -2.0786 0.9674
-7.2983 3.2885 -2.0726 0.9675
-7.9601 0.5329 -2.0656 0.9676
-7.9735 -0.1777 -2.0650 0.9676
-7.9254 -0.8866 -2.0648 0.9676
-7.8161 -1.5887 -2.0651 0.9676
-7.6465 -2.2789 -2.0659 0.9676
-7.4176 -2.9521 -2.0671 0.9676
-7.1311 -3.6035 -2.0687 0.9675
-6.7889 -4.2281 -2.0708 0.9675
-6.3933 -4.8214 -2.0733 0.9675
-5.4473 -5.8896 -2.0772 0.9674
-2.2315 -7.1937 -1.9501 0.9694
-1.5862 -7.3814 -1.9548 0.9693
-0.9252 -7.5118 -1.9596 0.9692
-0.2535 -7.5834 -1.9646 0.9691
0.4235 -7.5953 -1.9696 0.9691
1.1007 -7.5469 -1.9747 0.9690
2.4338 -7.2693 -1.9848 0.9688
3.0788 -7.0415 -1.9898 0.9687
4.2991 -6.4147 -1.9994 0.9686
4.8639 -6.0202 -2.0039 0.9685
8.3066 -1.4965 -2.1853 0.9657
8.4120 -0.7517 -2.1867 0.9657
7.6782 0.6861 -2.1823 0.9685
6.9448 3.3173 -2.1788 0.9685
6.2340 4.4869 -2.1744 0.9686
5.8023 5.0175 -2.1716 0.9686
4.8058 5.9482 -2.1648 0.9687
3.6615 6.6814 -2.1568 0.9688
2.4088 7.1947 -2.1479 0.9690
1.0901 7.4742 -2.1383 0.9691
0.4195 7.5241 -2.1333 0.9692
-3.4256 6.5955 -2.1040 0.9696
-4.5219 5.8592 -2.0952 0.9697
-5.8777 4.4326 -2.0841 0.9699
-6.2396 3.8861 -2.0810 0.9699
-6.5520 3.3109 -2.0782 0.9699
-7.1731 1.4580 -2.0722 0.9700
-7.2951 -0.4884 -2.0698 0.9701
-6.9116 -2.4000 -2.0712 0.9700
-6.6748 -3.0075 -2.0726 0.9700
-6.0470 -4.1510 -2.0764 0.9700
-4.7549 -5.6241 -2.0849 0.9698
-4.2333 -6.0220 -2.0839 0.9699
-1.7494 -6.6774 -1.9541 0.9717
-0.5402 -6.9129 -1.9629 0.9716
1.3146 -6.8580 -1.9768 0.9714
1.9243 -6.7296 -1.9815 0.9713
2.5214 -6.5467 -1.9860 0.9713
3.1011 -6.3106 -1.9905 0.9712
3.6783 -6.0553 -2.0057 0.9710
5.0393 -5.6980 -2.1534 0.9689
6.0040 -4.7413 -2.1658 0.9687
7.3201 -2.3604 -2.1773 0.9685
7.6343 -1.0267 -2.1807 0.9685
7.5167 1.7031 -2.1819 0.9685
7.3323 2.3644 -2.1810 0.9685
7.0884 3.0057 -2.1796 0.9685
6.0241 4.7572 -2.1730 0.9686
5.5691 5.2672 -2.1700 0.9686
5.0703 5.7330 -2.1666 0.9687
4.5321 6.1511 -2.1629 0.9687
2.7299 7.0879 -2.1502 0.9689
2.0836 7.2869 -2.1455 0.9690
1.4236 7.4267 -2.1407 0.9691
0.7552 7.5067 -2.1358 0.9691
-0.5850 7.4864 -2.1258 0.9693
-2.5244 7.0166 -2.1110 0.9695
-3.1318 6.7489 -2.1063 0.9695
-3.7120 6.4295 -2.1017 0.9696
-4.2607 6.0609 -2.0973 0.9697
-5.6790 4.6938 -2.0857 0.9698
-6.0647 4.1632 -2.0825 0.9699
-6.6890 3.0139 -2.0770 0.9700
-6.9234 2.4040 -2.0748 0.9700
-7.1037 1.7767 -2.0729 0.9700
-7.2287 1.1367 -2.0715 0.9700
-7.3101 -0.1629 -2.0699 0.9701
-7.2660 -0.8128 -2.0698 0.9701
-7.1658 -1.4565 -2.0701 0.9701
-7.0100 -2.0892 -2.0707 0.9700
-6.2226 -3.8755 -2.0753 0.9700
-5.8594 -4.4188 -2.0776 0.9700
-5.4499 -4.9291 -2.0802 0.9699
-4.9968 -5.4025 -2.0833 0.9699
-4.5004 -5.8313 -2.0853 0.9698
-2.6154 -6.3643 -1.9479 0.9718
-1.4518 -6.7561 -1.9563 0.9717
-0.2320 -6.9381 -1.9652 0.9716
1.6207 -6.8007 -1.9791 0.9714
3.3829 -6.1730 -1.9927 0.9712
4.0321 -6.0163 -2.0503 0.9703
4.7691 -5.9028 -2.1483 0.9689
6.5977 -3.9078 -2.1708 0.9686
6.9286 -3.3095 -2.1737 0.9686
7.4214 -2.0329 -2.1783 0.9685
7.5787 -1.3654 -2.1800 0.9685
7.0789 0.0000 -2.1773 0.9708
7.0517 0.6301 -2.1776 0.9708
6.3790 3.0470 -2.1744 0.9708
5.7270 4.1220 -2.1703 0.9709
4.8929 5.0593 -2.1648 0.9710
4.4166 5.4665 -2.1616 0.9710
3.9061 5.8283 -2.1580 0.9711
3.3659 6.1421 -2.1542 0.9711
2.8007 6.4053 -2.1502 0.9712
2.2151 6.6162 -2.1460 0.9712
-1.4472 6.7350 -2.1188 0.9716
-2.0366 6.5654 -2.1143 0.9716
-2.6074 6.3448 -2.1099 0.9717
-3.6763 5.7589 -2.1015 0.9718
-4.1665 5.3987 -2.0975 0.9719
-6.0409 3.0526 -2.0818 0.9721
-6.7049 0.7501 -2.0751 0.9722
-6.7282 -0.4504 -2.0741 0.9722
-6.5433 -1.6366 -2.0746 0.9722
-6.1555 -2.7735 -2.0766 0.9721
-5.8887 -3.3129 -2.0782 0.9721
-5.2186 -4.3133 -2.0824 0.9721
-4.8201 -4.7667 -2.0851 0.9720
-4.3829 -5.1841 -2.0880 0.9720
-3.4014 -5.8914 -2.0924 0.9719
-2.8623 -6.1681 -2.0915 0.9719
-1.0597 -6.2821 -1.9595 0.9737
-0.4974 -6.3649 -1.9637 0.9736
0.0713 -6.3976 -1.9679 0.9736
1.7704 -6.1915 -1.9807 0.9734
2.3675 -6.1472 -2.0261 0.9728
4.6421 -5.2489 -2.1552 0.9711
5.5175 -4.3571 -2.1624 0.9710
6.2199 -3.3190 -2.1684 0.9709
6.7241 -2.1682 -2.1730 0.9709
6.8959 -1.5624 -2.1748 0.9708
7.0709 -0.3153 -2.1770 0.9708
7.0725 0.3154 -2.1775 0.9708
7.0165 0.9436 -2.1776 0.9708
6.9035 1.5641 -2.1772 0.9708
6.7344 2.1716 -2.1764 0.9708
6.5107 2.7608 -2.1751 0.9708
5.1170 4.8396 -2.1663 0.9710
4.6593 5.2683 -2.1632 0.9710
4.1653 5.6533 -2.1598 0.9710
3.0861 6.2801 -2.1523 0.9711
1.9163 6.7015 -2.1439 0.9713
0.6948 6.9062 -2.1349 0.9714
-0.5384 6.8901 -2.1257 0.9715
-1.1470 6.8001 -2.1211 0.9716
-1.7440 6.6567 -2.1165 0.9716
-2.3246 6.4613 -2.1121 0.9717
-2.8845 6.2159 -2.1077 0.9717
-3.4195 5.9227 -2.1035 0.9718
-3.9255 5.5841 -2.0995 0.9718
-4.8363 4.7827 -2.0921 0.9719
-6.5508 1.6385 -2.0770 0.9721
-6.6665 1.0482 -2.0757 0.9722
-6.7013 -0.7497 -2.0740 0.9722
-6.6088 -1.3433 -2.0743 0.9722
-6.4650 -1.9268 -2.0749 0.9722
-6.0280 -3.0461 -2.0773 0.9721
-5.7378 -3.5735 -2.0791 0.9721
-5.4025 -4.0742 -2.0812 0.9721
-5.0244 -4.5443 -2.0837 0.9720
-4.6061 -4.9801 -2.0865 0.9720
-4.1507 -5.3783 -2.0896 0.9720
-3.1347 -6.0354 -2.0918 0.9719
-2.5499 -6.2048 -2.0633 0.9723
-1.9285 -6.2169 -2.0021 0.9731
-1.3387 -6.2298 -1.9599 0.9737
-0.7796 -6.3297 -1.9616 0.9737
0.3566 -6.3950 -1.9700 0.9736
0.9264 -6.3516 -1.9743 0.9735
4.8755 -5.0413 -2.1571 0.9711
5.3137 -4.5950 -2.1607 0.9710
5.7104 -4.1101 -2.1640 0.9710
6.5381 0.0000 -2.1733 0.9728
6.5129 0.5820 -2.1735 0.9728
6.4348 1.1593 -2.1734 0.9728
6.3045 1.7270 -2.1728 0.9728
5.8922 2.8145 -2.1706 0.9729
5.6140 3.3252 -2.1689 0.9729
4.9254 4.2591 -2.1645 0.9729
4.0814 5.0516 -2.1588 0.9730
3.1113 5.6774 -2.1520 0.9731
2.5892 5.9216 -2.1483 0.9731
2.0481 6.1174 -2.1444 0.9732
1.4927 6.2636 -2.1404 0.9732
0.3571 6.4040 -2.1320 0.9733
-0.7809 6.3403 -2.1235 0.9734
-1.8852 6.0772 -2.1151 0.9735
-2.9216 5.6251 -2.1070 0.9736
-5.8220 2.3171 -2.0829 0.9739
-6.0001 1.7882 -2.0812 0.9740
-6.1314 1.2463 -2.0798 0.9740
-6.2149 0.6953 -2.0788 0.9740
-6.2367 -0.4175 -2.0778 0.9740
-5.9083 -2.0516 -2.0790 0.9740
-3.6223 -5.1528 -2.0937 0.9738
-3.1542 -5.4632 -2.0970 0.9738
-2.6598 -5.7318 -2.1004 0.9737
-1.6025 -6.1166 -2.1018 0.9737
-1.0461 -6.2018 -2.0907 0.9738
-0.4850 -6.2066 -2.0694 0.9741
0.6237 -6.1999 -2.0713 0.9741
1.1857 -6.1855 -2.0935 0.9738
1.7580 -6.1482 -2.1256 0.9734
3.3508 -5.5162 -2.1454 0.9732
3.8353 -5.2054 -2.1492 0.9731
4.2907 -4.8516 -2.1529 0.9731
5.7464 -3.0664 -2.1651 0.9729
6.0029 -2.5455 -2.1674 0.9729
6.2113 -2.0029 -2.1694 0.9729
6.3696 -1.4432 -2.1709 0.9728
6.4764 -0.8710 -2.1722 0.9728
6.5307 -0.2912 -2.1730 0.9728
6.4804 0.8715 -2.1735 0.9728
6.2201 2.0057 -2.1724 0.9728
6.0137 2.5500 -2.1713 0.9728
4.3054 4.8682 -2.1603 0.9730
3.8495 5.2245 -2.1572 0.9730
3.3639 5.5377 -2.1538 0.9731
2.3207 6.0256 -2.1464 0.9731
0.6426 6.3880 -2.1341 0.9733
0.0714 6.4071 -2.1299 0.9734
-0.4982 6.3752 -2.1256 0.9734
-1.0615 6.2930 -2.1214 0.9735
-1.6142 6.1612 -2.1171 0.9735
-2.1519 5.9814 -2.1130 0.9736
-2.6706 5.7551 -2.1090 0.9736
-3.1664 5.4844 -2.1051 0.9737
-3.6355 5.1716 -2.1013 0.9737
-4.0745 4.8194 -2.0978 0.9737
-4.4802 4.4306 -2.0945 0.9738
-5.7157 2.5754 -2.0839 0.9739
-5.9169 2.0546 -2.0820 0.9739
-6.0717 1.5186 -2.0804 0.9740
-6.2495 -0.1393 -2.0779 0.9740
-6.2119 -0.6949 -2.0777 0.9740
-5.9926 -1.7860 -2.0786 0.9740
-5.8125 -2.3133 -2.0795 0.9740
-5.3177 -3.3119 -2.0824 0.9739
-3.8454 -4.9827 -2.0922 0.9738
-2.9101 -5.6029 -2.0987 0.9737
-2.4021 -5.8452 -2.1007 0.9737
-1.8728 -6.0374 -2.1012 0.9737
0.3459 -6.2041 -2.0655 0.9741
0.9035 -6.1950 -2.0810 0.9740
1.4709 -6.1723 -2.1092 0.9736
2.5738 -5.8865 -2.1356 0.9733
3.0983 -5.6537 -2.1430 0.9732
3.5965 -5.3663 -2.1473 0.9731
4.0669 -5.0337 -2.1511 0.9731
4.5062 -4.6594 -2.1547 0.9730
4.9106 -4.2464 -2.1580 0.9730
5.2766 -3.7979 -2.1610 0.9730
6.1133 -2.2766 -2.1684 0.9729
6.4295 -1.1583 -2.1716 0.9728
6.5102 -0.5817 -2.1726 0.9728
6.0675 0.0000 -2.1698 0.9746
6.0441 0.5401 -2.1700 0.9746
5.6826 2.1163 -2.1685 0.9746
5.4686 2.6122 -2.1673 0.9746
4.9110 3.5347 -2.1638 0.9746
4.1973 4.3400 -2.1591 0.9747
3.7895 4.6903 -2.1563 0.9747
3.3523 5.0019 -2.1533 0.9747
2.4048 5.4999 -2.1466 0.9748
1.9025 5.6826 -2.1430 0.9749
-0.1988 5.9460 -2.1275 0.9750
-2.7173 5.2318 -2.1082 0.9753
-3.1668 4.9608 -2.1047 0.9753
-3.5900 4.6517 -2.1013 0.9753
-3.9837 4.3072 -2.0981 0.9754
-4.3451 3.9299 -2.0951 0.9754
-4.6715 3.5230 -2.0924 0.9755
-5.2105 2.6330 -2.0877 0.9755
-5.4192 2.1568 -2.0858 0.9755
-5.5853 1.6646 -2.0842 0.9755
-5.7078 1.1602 -2.0829 0.9756
-5.8186 0.1297 -2.0813 0.9756
-5.6465 -1.4123 -2.0814 0.9756
-5.5002 -1.9099 -2.0821 0.9756
-5.3111 -2.3931 -2.0832 0.9756
-4.8097 -3.3017 -2.0862 0.9755
-4.5010 -3.7202 -2.0882 0.9755
-4.1566 -4.1105 -2.0905 0.9755
-3.7788 -4.4696 -2.0930 0.9754
-2.9346 -5.0829 -2.0989 0.9754
-2.4744 -5.3321 -2.1021 0.9753
-1.9932 -5.5402 -2.1056 0.9753
-1.4947 -5.7054 -2.1091 0.9753
-0.9822 -5.8227 -2.1116 0.9752
0.0660 -5.9215 -2.1177 0.9752
1.1196 -5.8407 -2.1267 0.9751
2.1471 -5.5749 -2.1364 0.9749
3.1125 -5.1239 -2.1439 0.9749
3.9846 -4.5054 -2.1509 0.9748
4.3763 -4.1390 -2.1541 0.9747
4.7338 -3.7382 -2.1570 0.9747
5.0541 -3.3062 -2.1597 0.9747
5.3343 -2.8465 -2.1622 0.9746
5.5720 -2.3627 -2.1643 0.9746
5.9116 -1.3394 -2.1676 0.9746
6.0105 -0.8083 -2.1687 0.9746
6.0619 0.2703 -2.1699 0.9746
5.9172 1.3407 -2.1697 0.9746
5.3450 2.8522 -2.1665 0.9746
4.7463 3.7481 -2.1627 0.9746
3.1238 5.1425 -2.1517 0.9748
2.6496 5.3917 -2.1483 0.9748
1.6461 5.7567 -2.1411 0.9749
-0.4630 5.9257 -2.1255 0.9751
-0.9868 5.8501 -2.1216 0.9751
-1.5008 5.7284 -2.1177 0.9752
-2.0010 5.5620 -2.1138 0.9752
-2.4837 5.3523 -2.1101 0.9752
-2.9452 5.1012 -2.1064 0.9753
-3.3819 4.8109 -2.1030 0.9753
-3.7907 4.4837 -2.0997 0.9754
-4.1686 4.1225 -2.0966 0.9754
-4.5128 3.7300 -2.0937 0.9754
-4.8209 3.3094 -2.0911 0.9755
-5.0906 2.8639 -2.0888 0.9755
-5.5077 1.9125 -2.0849 0.9755
-5.6521 1.4137 -2.0835 0.9756
-5.7524 0.9045 -2.0824 0.9756
-5.8078 0.3888 -2.0816 0.9756
-5.8181 -0.1296 -2.0811 0.9756
-5.7031 -1.1592 -2.0812 0.9756
-5.4110 -2.1535 -2.0826 0.9756
-4.9499 -3.0828 -2.0854 0.9755
-4.6600 -3.5142 -2.0872 0.9755
-4.3331 -3.9191 -2.0893 0.9755
-3.9717 -4.2941 -2.0917 0.9755
-3.5783 -4.6365 -2.0944 0.9754
-2.7073 -5.2125 -2.1005 0.9754
-2.2362 -5.4414 -2.1038 0.9753
-0.7222 -5.8640 -2.1128 0.9752
0.3300 -5.9182 -2.1197 0.9751
0.8573 -5.8778 -2.1242 0.9751
1.3804 -5.7922 -2.1293 0.9750
2.3955 -5.4787 -2.1383 0.9749
2.8787 -5.2530 -2.1421 0.9749
4.1845 -4.3267 -2.1525 0.9748
4.5595 -3.9428 -2.1556 0.9747
4.8988 -3.5259 -2.1584 0.9747
5.1994 -3.0796 -2.1610 0.9747
5.6742 -2.1131 -2.1653 0.9746
6.0418 -0.5399 -2.1692 0.9746
5.6321 0.5033 -2.1669 0.9761
5.5646 1.0025 -2.1668 0.9761
5.2955 1.9721 -2.1655 0.9761
5.0963 2.4343 -2.1644 0.9761
4.2617 3.6852 -2.1591 0.9762
3.9125 4.0455 -2.1567 0.9762
2.6941 4.9162 -2.1483 0.9763
1.7744 5.2997 -2.1417 0.9763
1.2935 5.4277 -2.1383 0.9764
0.3096 5.5522 -2.1310 0.9765
-0.6774 5.5000 -2.1236 0.9765
-2.0956 5.0994 -2.1128 0.9767
-3.7206 4.0227 -2.0998 0.9768
-4.0585 3.6707 -2.0971 0.9768
-4.6342 2.8862 -2.0922 0.9769
-4.8679 2.4599 -2.0901 0.9769
-5.4063 0.6048 -2.0847 0.9770
-5.4371 0.1212 -2.0841 0.9770
-5.4256 -0.3632 -2.0838 0.9770
-5.2763 -1.3197 -2.0842 0.9770
-4.7468 -2.6705 -2.0872 0.9769
-4.4937 -3.0847 -2.0888 0.9769
-4.2050 -3.4755 -2.0906 0.9769
-3.1481 -4.4782 -2.0977 0.9768
-2.7407 -4.7470 -2.1006 0.9768
-1.3955 -5.3267 -2.1102 0.9767
0.0617 -5.5340 -2.1209 0.9766
0.5549 -5.5162 -2.1246 0.9765
1.0455 -5.4543 -2.1283 0.9765
1.5295 -5.3489 -2.1319 0.9765
2.0029 -5.2004 -2.1356 0.9764
2.9027 -4.7785 -2.1426 0.9763
3.3217 -4.5082 -2.1459 0.9763
4.0800 -3.8589 -2.1521 0.9762
4.7111 -3.0819 -2.1574 0.9762
4.9719 -2.6531 -2.1596 0.9761
5.1931 -2.2021 -2.1616 0.9761
5.3727 -1.7325 -2.1633 0.9761
5.6010 -0.7533 -2.1657 0.9761
5.6477 -0.2518 -2.1665 0.9761
5.3792 1.7346 -2.1659 0.9761
5.2012 2.2055 -2.1650 0.9761
4.9812 2.6581 -2.1637 0.9761
4.7214 3.0886 -2.1621 0.9761
4.0911 3.8694 -2.1579 0.9762
3.7263 4.2133 -2.1555 0.9762
3.3323 4.5226 -2.1528 0.9762
2.9125 4.7947 -2.1499 0.9763
2.0103 5.2195 -2.1434 0.9763
1.5353 5.3692 -2.1400 0.9764
0.5571 5.5377 -2.1329 0.9764
-1.8679 5.1920 -2.1145 0.9766
-3.5402 4.1873 -2.1013 0.9768
-3.8935 3.8503 -2.0984 0.9768
-4.2153 3.4841 -2.0957 0.9768
-4.5035 3.0914 -2.0933 0.9769
-4.7558 2.6755 -2.0911 0.9769
-5.1460 1.7869 -2.0875 0.9769
-5.2812 1.3209 -2.0862 0.9770
-5.4270 0.3633 -2.0844 0.9770
-5.4367 -0.1211 -2.0839 0.9770
-5.3292 -1.0832 -2.0840 0.9770
-4.6248 -2.8803 -2.0879 0.9769
-4.3537 -3.2833 -2.0896 0.9769
-3.7101 -4.0113 -2.0939 0.9769
-3.3423 -4.3307 -2.0964 0.9768
-2.9474 -4.6171 -2.0991 0.9768
-2.5283 -4.8679 -2.1021 0.9768
-1.1578 -5.3880 -2.1119 0.9767
0.3084 -5.5306 -2.1227 0.9766
0.8008 -5.4907 -2.1264 0.9765
1.2886 -5.4071 -2.1301 0.9765
2.6848 -4.8992 -2.1409 0.9764
4.2506 -3.6757 -2.1535 0.9762
4.5665 -3.2868 -2.1561 0.9762
4.8463 -2.8705 -2.1585 0.9762
5.0876 -2.4301 -2.1607 0.9761
5.2882 -1.9693 -2.1625 0.9761
5.4464 -1.4919 -2.1640 0.9761
5.5607 -1.0018 -2.1653 0.9761
5.2037 0.9375 -2.1640 0.9774
5.0986 1.3967 -2.1636 0.9774
4.9523 1.8443 -2.1628 0.9774
4.7662 2.2766 -2.1618 0.9774
4.5418 2.6901 -2.1604 0.9774
3.6599 3.7843 -2.1547 0.9775
3.3048 4.0905 -2.1523 0.9775
1.6605 4.9597 -2.1406 0.9776
1.2107 5.0801 -2.1374 0.9777
0.2898 5.1977 -2.1306 0.9778
-1.5324 4.9399 -2.1168 0.9779
-1.9629 4.7764 -2.1135 0.9779
-3.1411 4.0701 -2.1042 0.9780
-3.4863 3.7693 -2.1014 0.9781
-4.0896 3.0841 -2.0964 0.9781
-4.3434 2.7051 -2.0942 0.9781
-2.1365 0.4343 -0.8923 0.9906
-2.1285 0.0474 -0.8714 0.9908
-2.1302 -0.1426 -0.8738 0.9908
-2.1308 -0.5329 -0.8989 0.9906
-4.8180 -1.6730 -2.0874 0.9782
-4.2121 -2.8914 -2.0910 0.9782
-3.9413 -3.2576 -2.0927 0.9781
-3.6392 -3.5989 -2.0947 0.9781
-3.3080 -3.9127 -2.0970 0.9781
-2.9500 -4.1965 -2.0994 0.9781
-1.7436 -4.8463 -2.1079 0.9780
-0.4031 -5.1585 -2.1177 0.9779
0.5196 -5.1650 -2.1246 0.9778
0.9788 -5.1065 -2.1280 0.9778
2.3042 -4.6889 -2.1382 0.9777
2.7165 -4.4719 -2.1415 0.9776
3.8171 -3.6102 -2.1503 0.9775
4.4068 -2.8828 -2.1552 0.9775
4.6505 -2.4816 -2.1574 0.9775
5.1521 -1.1673 -2.1621 0.9774
5.2824 0.2355 -2.1641 0.9774
5.2406 0.7048 -2.1641 0.9774
5.0305 1.6221 -2.1633 0.9774
4.8641 2.0626 -2.1624 0.9774
4.6586 2.4859 -2.1611 0.9774
4.4158 2.8887 -2.1596 0.9775
4.1377 3.2675 -2.1578 0.9775
3.8268 3.6194 -2.1558 0.9775
1.8812 4.8845 -2.1422 0.9776
0.5215 5.1838 -2.1323 0.9777
-0.4046 5.1773 -2.1254 0.9778
-0.8624 5.1124 -2.1220 0.9778
-2.1720 4.6806 -2.1119 0.9779
-2.5761 4.4620 -2.1087 0.9780
-3.6484 3.6080 -2.1001 0.9781
-4.6589 2.0992 -2.0914 0.9782
-2.1308 0.5330 -0.8989 0.9906
-2.1345 0.3356 -0.8843 0.9907
-2.1285 -0.0474 -0.8714 0.9908
-2.1261 -0.2378 -0.8756 0.9908
-2.1365 -0.4343 -0.8923 0.9906
-4.8869 -1.4565 -2.0870 0.9782
-4.5553 -2.3019 -2.0889 0.9782
-4.3351 -2.6999 -2.0902 0.9782
-4.0807 -3.0774 -2.0918 0.9782
-3.7940 -3.4315 -2.0937 0.9781
-1.9563 -4.7604 -2.1064 0.9780
-0.6320 -5.1313 -2.1160 0.9779
-0.1730 -5.1755 -2.1194 0.9779
0.2888 -5.1788 -2.1228 0.9778
0.7498 -5.1409 -2.1263 0.9778
1.2063 -5.0620 -2.1298 0.9778
1.6547 -4.9425 -2.1332 0.9777
2.0914 -4.7831 -2.1366 0.9777
3.6502 -3.7743 -2.1489 0.9776
3.9766 -3.4387 -2.1516 0.9775
4.2718 -3.0746 -2.1541 0.9775
4.5332 -2.6850 -2.1563 0.9775
4.9459 -1.8419 -2.1600 0.9774
5.0936 -1.3953 -2.1615 0.9774
5.2003 -0.9369 -2.1626 0.9774
4.9597 0.0000 -2.1615 0.9786
4.9404 0.4415 -2.1617 0.9786
4.8813 0.8794 -2.1616 0.9786
4.7827 1.3101 -2.1612 0.9786
4.6456 1.7300 -2.1605 0.9786
4.2608 2.5237 -2.1582 0.9786
4.0164 2.8908 -2.1567 0.9786
3.7400 3.2341 -2.1549 0.9787
3.1011 3.8383 -2.1505 0.9787
2.7440 4.0944 -2.1481 0.9787
1.9696 4.5045 -2.1426 0.9788
0.7065 4.8440 -2.1334 0.9789
0.2721 4.8804 -2.1302 0.9789
-0.1631 4.8777 -2.1270 0.9789
-1.0222 4.7570 -2.1205 0.9790
-1.8439 4.4869 -2.1142 0.9791
-2.2328 4.2988 -2.1111 0.9791
-2.9516 3.8245 -2.1054 0.9791
-3.8437 2.8987 -2.0981 0.9792
-4.0824 2.5426 -2.0960 0.9792
-4.2888 2.1672 -2.0942 0.9793
-4.4613 1.7756 -2.0926 0.9793
-1.9470 0.0434 -0.8487 0.9915
-1.9397 -0.3050 -0.8557 0.9915
-4.3733 -1.9705 -2.0905 0.9793
-3.4205 -3.3826 -2.0965 0.9792
-2.7724 -3.9437 -2.1009 0.9792
-1.6382 -4.5533 -2.1089 0.9791
-1.2281 -4.6876 -2.1119 0.9791
-0.8072 -4.7852 -2.1150 0.9790
0.4880 -4.8504 -2.1246 0.9790
0.9191 -4.7951 -2.1278 0.9789
2.1630 -4.4016 -2.1374 0.9788
2.5498 -4.1975 -2.1404 0.9788
2.9172 -3.9593 -2.1433 0.9788
3.2623 -3.6887 -2.1461 0.9787
3.5820 -3.3878 -2.1487 0.9787
4.3632 -2.3283 -2.1553 0.9787
4.5567 -1.9322 -2.1571 0.9786
4.7139 -1.5200 -2.1586 0.9786
4.8332 -1.0951 -2.1598 0.9786
4.9551 0.2209 -2.1617 0.9786
4.9158 0.6611 -2.1617 0.9786
4.8369 1.0959 -2.1614 0.9786
4.5630 1.9349 -2.1600 0.9786
4.1427 2.7100 -2.1575 0.9786
3.8820 3.0656 -2.1558 0.9786
3.5906 3.3959 -2.1539 0.9787
2.5574 4.2100 -2.1468 0.9787
2.1697 4.4152 -2.1440 0.9788
1.3488 4.7170 -2.1381 0.9788
0.4896 4.8671 -2.1319 0.9789
0.0544 4.8839 -2.1286 0.9789
-0.3799 4.8619 -2.1254 0.9789
-1.2322 4.7032 -2.1189 0.9790
-1.6434 4.5680 -2.1157 0.9790
-2.0405 4.3971 -2.1126 0.9791
-2.7801 3.9547 -2.1068 0.9791
-3.1170 3.6868 -2.1041 0.9792
-3.4287 3.3907 -2.1015 0.9792
-3.9670 2.7232 -2.0970 0.9792
-1.9397 0.3050 -0.8557 0.9915
-1.9300 -0.3923 -0.8583 0.9914
-1.8741 -0.5585 -0.8523 0.9915
-3.5661 -3.2254 -2.0956 0.9792
-3.2680 -3.5333 -2.0976 0.9792
-2.5954 -4.0657 -2.1022 0.9792
-2.2260 -4.2858 -2.1048 0.9791
-1.8381 -4.4728 -2.1075 0.9791
-1.4347 -4.6250 -2.1104 0.9791
-1.0188 -4.7411 -2.1134 0.9791
0.2712 -4.8636 -2.1229 0.9790
0.7041 -4.8276 -2.1262 0.9789
1.9633 -4.4903 -2.1358 0.9788
2.7361 -4.0826 -2.1419 0.9788
3.0927 -3.8279 -2.1447 0.9788
3.4255 -3.5419 -2.1474 0.9787
3.7315 -3.2268 -2.1500 0.9787
4.0082 -2.8849 -2.1523 0.9787
4.6400 -1.7279 -2.1578 0.9786
4.6649 0.0000 -2.1593 0.9796
4.6468 0.4152 -2.1595 0.9796
4.5912 0.8271 -2.1594 0.9796
4.4985 1.2323 -2.1590 0.9797
4.3696 1.6273 -2.1583 0.9797
4.2056 2.0089 -2.1574 0.9797
4.0079 2.3739 -2.1562 0.9797
3.7782 2.7194 -2.1548 0.9797
2.5819 3.8524 -2.1467 0.9798
1.8535 4.2390 -2.1415 0.9798
1.4669 4.3815 -2.1388 0.9798
1.0697 4.4886 -2.1359 0.9799
0.2562 4.5942 -2.1299 0.9799
-0.1535 4.5922 -2.1269 0.9800
-1.3555 4.3697 -2.1177 0.9800
-2.4518 3.8407 -2.1092 0.9801
-3.3675 3.0457 -2.1017 0.9802
-1.5257 0.6072 -0.7601 0.9928
-1.5924 0.4746 -0.7692 0.9927
-1.6373 0.3328 -0.7734 0.9927
-1.6675 0.1865 -0.7767 0.9926
-1.6716 0.0373 -0.7739 0.9927
-1.6738 -0.1120 -0.7765 0.9926
-1.6165 -0.4043 -0.7713 0.9927
-1.5621 -0.5424 -0.7654 0.9927
-4.1214 -1.8570 -2.0924 0.9803
-3.7311 -2.5613 -2.0948 0.9802
-3.4909 -2.8853 -2.0964 0.9802
-3.2230 -3.1872 -2.0981 0.9802
-2.6119 -3.7155 -2.1023 0.9802
-2.2734 -3.9377 -2.1047 0.9802
-1.9162 -4.1293 -2.1072 0.9801
-1.5430 -4.2889 -2.1098 0.9801
-0.3565 -4.5628 -2.1185 0.9800
0.4594 -4.5668 -2.1246 0.9800
0.8653 -4.5143 -2.1276 0.9799
1.2655 -4.4257 -2.1307 0.9799
2.3996 -3.9504 -2.1395 0.9798
3.0697 -3.4709 -2.1448 0.9798
3.8899 -2.5447 -2.1516 0.9797
4.6236 0.6218 -2.1595 0.9796
4.5494 1.0308 -2.1592 0.9796
4.4385 1.4312 -2.1587 0.9797
4.2919 1.8199 -2.1579 0.9797
4.1109 2.1936 -2.1568 0.9797
3.6519 2.8839 -2.1539 0.9797
3.0772 3.4795 -2.1501 0.9797
2.7525 3.7357 -2.1479 0.9798
2.4063 3.9614 -2.1455 0.9798
1.2694 4.4395 -2.1373 0.9799
0.0512 4.5978 -2.1284 0.9799
-0.3577 4.5775 -2.1253 0.9800
-1.1603 4.4288 -2.1192 0.9800
-2.2798 3.9486 -2.1105 0.9801
-2.9364 3.4732 -2.1053 0.9802
-4.1268 1.8594 -2.0952 0.9802
-1.5621 0.5424 -0.7654 0.9927
-1.6738 0.1120 -0.7765 0.9926
-1.6716 -0.0372 -0.7739 0.9927
-1.6675 -0.1865 -0.7767 0.9926
-1.6373 -0.3328 -0.7734 0.9927
-1.5924 -0.4746 -0.7692 0.9927
-1.5257 -0.6072 -0.7601 0.9928
-4.0356 -2.0392 -2.0930 0.9803
-3.8402 -2.3917 -2.0941 0.9803
-2.7734 -3.5936 -2.1012 0.9802
-2.4452 -3.8303 -2.1035 0.9802
-2.0970 -4.0374 -2.1059 0.9801
-1.3513 -4.3562 -2.1112 0.9801
-0.5591 -4.5392 -2.1170 0.9800
-0.1530 -4.5774 -2.1200 0.9800
0.2553 -4.5794 -2.1230 0.9800
2.2198 -4.0506 -2.1381 0.9798
2.5749 -3.8420 -2.1409 0.9798
2.9103 -3.6021 -2.1435 0.9798
3.2231 -3.3327 -2.1461 0.9798
3.7709 -2.7142 -2.1506 0.9797
4.0012 -2.3699 -2.1526 0.9797
4.1997 -2.0060 -2.1544 0.9797
4.3646 -1.6254 -2.1559 0.9797
4.5885 -0.8267 -2.1581 0.9797
4.3809 0.3915 -2.1575 0.9806
4.1197 1.5342 -2.1564 0.9806
1.3838 4.1331 -2.1380 0.9808
1.0091 4.2344 -2.1352 0.9808
0.2417 4.3348 -2.1296 0.9808
-0.5293 4.2973 -2.1238 0.9809
-0.9084 4.2274 -2.1210 0.9809
-1.2793 4.1242 -2.1181 0.9809
-1.6392 3.9887 -2.1153 0.9810
-1.9851 3.8221 -2.1126 0.9810
-2.3146 3.6258 -2.1100 0.9810
-2.6250 3.4014 -2.1075 0.9810
-2.9141 3.1507 -2.1052 0.9811
-3.4197 2.5790 -2.1010 0.9811
-3.8165 1.9286 -2.0976 0.9811
-1.3059 0.5197 -0.6895 0.9938
-1.3200 0.3934 -0.6756 0.9939
-1.3419 0.1501 -0.6624 0.9940
-1.3513 -0.0905 -0.6643 0.9940
-1.3257 -0.2085 -0.6583 0.9940
-1.3171 -0.4573 -0.6839 0.9938
-3.5236 -2.4188 -2.0965 0.9811
-3.2967 -2.7248 -2.0979 0.9811
-3.0435 -3.0098 -2.0996 0.9811
-1.8091 -3.8985 -2.1082 0.9810
-0.3365 -4.3064 -2.1188 0.9809
0.0482 -4.3251 -2.1217 0.9809
1.5630 -4.0582 -2.1332 0.9808
2.2635 -3.7263 -2.1386 0.9808
2.5893 -3.5143 -2.1412 0.9807
3.4369 -2.7140 -2.1481 0.9807
3.6681 -2.3996 -2.1501 0.9807
3.8703 -2.0653 -2.1519 0.9806
4.0417 -1.7138 -2.1534 0.9806
4.3939 0.1959 -2.1575 0.9806
3.4434 2.7193 -2.1523 0.9806
3.1852 3.0126 -2.1506 0.9807
2.9019 3.2812 -2.1486 0.9807
2.5958 3.5230 -2.1465 0.9807
0.8190 4.2724 -2.1339 0.9808
0.0483 4.3383 -2.1282 0.9809
-0.3375 4.3195 -2.1253 0.9809
-1.8141 3.9092 -2.1140 0.9810
-2.7724 3.2792 -2.1063 0.9811
-3.0500 3.0162 -2.1041 0.9811
-3.3030 2.7300 -2.1020 0.9811
-3.5297 2.4230 -2.1001 0.9811
-3.7282 2.0975 -2.0983 0.9811
-1.3171 0.4573 -0.6839 0.9938
-1.3149 0.3289 -0.6649 0.9940
-1.3257 0.2084 -0.6583 0.9940
-1.3513 0.0905 -0.6643 0.9940
-1.3536 -0.0302 -0.6641 0.9940
-1.3047 -0.2652 -0.6531 0.9941
-1.3059 -0.5197 -0.6895 0.9938
-3.4135 -2.5743 -2.0972 0.9811
-3.1732 -2.8700 -2.0988 0.9811
-2.6188 -3.3932 -2.1025 0.9811
-2.3087 -3.6165 -2.1046 0.9811
-1.6346 -3.9775 -2.1094 0.9810
-1.2756 -4.1122 -2.1120 0.9810
-0.5277 -4.2843 -2.1174 0.9810
-0.1444 -4.3200 -2.1202 0.9809
0.6255 -4.2888 -2.1260 0.9809
1.0061 -4.2218 -2.1289 0.9808
2.0940 -3.8210 -2.1373 0.9808
2.7449 -3.3974 -2.1425 0.9807
3.0398 -3.1431 -2.1449 0.9807
3.5560 -2.5595 -2.1491 0.9807
3.7730 -2.2347 -2.1510 0.9807
3.9599 -1.8915 -2.1527 0.9806
4.1153 -1.5325 -2.1541 0.9806
4.3261 -0.7794 -2.1562 0.9806
4.3797 -0.3914 -2.1569 0.9806
4.0893 0.7367 -2.1556 0.9815
3.8922 1.4495 -2.1547 0.9815
3.7463 1.7894 -2.1538 0.9815
3.5704 2.1147 -2.1528 0.9815
3.3659 2.4227 -2.1515 0.9815
3.1348 2.7107 -2.1500 0.9815
2.8788 2.9766 -2.1482 0.9815
2.6001 3.2182 -2.1463 0.9815
2.3011 3.4335 -2.1443 0.9815
1.9843 3.6210 -2.1421 0.9816
1.6524 3.7790 -2.1397 0.9816
0.5931 4.0667 -2.1320 0.9817
-0.5004 4.0633 -2.1239 0.9817
-0.8590 3.9975 -2.1211 0.9817
-1.2099 3.9002 -2.1185 0.9818
-2.7568 2.9806 -2.1062 0.9819
-3.2354 2.4400 -2.1023 0.9819
-3.4369 2.1405 -2.1005 0.9819
-1.0665 0.5389 -0.6199 0.9946
-1.1333 0.2303 -0.5999 0.9948
-1.1649 0.1303 -0.6081 0.9947
-1.1198 -0.3889 -0.6150 0.9947
-1.0898 -0.4910 -0.6201 0.9946
-3.3341 -2.2887 -2.0980 0.9819
-2.0305 -3.5170 -2.1068 0.9819
-1.7113 -3.6877 -2.1090 0.9818
-1.3778 -3.8297 -2.1114 0.9818
-1.0327 -3.9418 -2.1139 0.9818
0.7720 -4.0272 -2.1273 0.9817
1.4775 -3.8363 -2.1327 0.9816
2.4473 -3.3214 -2.1403 0.9816
2.7361 -3.0938 -2.1426 0.9816
3.2477 -2.5647 -2.1468 0.9815
3.4661 -2.2674 -2.1487 0.9815
3.8187 -1.6193 -2.1518 0.9815
3.9499 -1.2737 -2.1530 0.9815
4.1505 -0.1851 -2.1554 0.9815
4.1182 0.5538 -2.1557 0.9814
4.0521 0.9181 -2.1554 0.9815
3.9535 1.2748 -2.1550 0.9815
3.6620 1.9541 -2.1533 0.9815
3.4716 2.2710 -2.1521 0.9815
3.2536 2.5693 -2.1507 0.9815
2.7421 3.1006 -2.1473 0.9815
2.1448 3.5308 -2.1432 0.9816
1.4815 3.8467 -2.1385 0.9816
1.1319 3.9586 -2.1360 0.9816
0.4111 4.0865 -2.1307 0.9817
0.0457 4.1016 -2.1280 0.9817
-0.6805 4.0344 -2.1225 0.9817
-1.3815 3.8400 -2.1171 0.9818
-2.8853 2.8534 -2.1052 0.9819
-3.3395 2.2924 -2.1014 0.9819
-3.5275 1.9846 -2.0997 0.9819
-1.0898 0.4910 -0.6201 0.9946
-1.1198 0.3888 -0.6150 0.9947
-1.1517 0.1811 -0.6048 0.9948
-1.1785 -0.0263 -0.6115 0.9947
-1.0665 -0.5389 -0.6199 0.9946
-3.4318 -2.1373 -2.0974 0.9819
-3.2299 -2.4358 -2.0987 0.9819
-3.0024 -2.7155 -2.1001 0.9819
-2.4775 -3.2102 -2.1037 0.9819
-2.1841 -3.4213 -2.1057 0.9819
-0.8566 -3.9862 -2.1152 0.9818
-0.1366 -4.0851 -2.1205 0.9817
0.2278 -4.0863 -2.1232 0.9817
0.5914 -4.0550 -2.1259 0.9817
0.9512 -3.9914 -2.1287 0.9817
1.3043 -3.8959 -2.1314 0.9817
1.6480 -3.7690 -2.1340 0.9816
2.2956 -3.4252 -2.1391 0.9816
2.8727 -2.9704 -2.1437 0.9816
3.3602 -2.4185 -2.1478 0.9815
3.7416 -1.7872 -2.1511 0.9815
4.1377 -0.3698 -2.1551 0.9815
2.0036 0.3610 -1.1150 0.9908
1.9715 0.7342 -1.1522 0.9905
3.5459 1.6937 -2.1523 0.9822
3.1861 2.2932 -2.1500 0.9823
2.1785 3.2506 -2.1432 0.9823
1.5645 3.5781 -2.1389 0.9823
0.5617 3.8512 -2.1316 0.9824
0.2164 3.8812 -2.1291 0.9824
-0.4740 3.8487 -2.1239 0.9825
-0.8137 3.7867 -2.1213 0.9825
-1.4687 3.5739 -2.1163 0.9825
-1.7789 3.4251 -2.1139 0.9826
-2.6124 2.8245 -2.1072 0.9826
-3.2574 2.0287 -2.1018 0.9827
-0.9638 0.3836 -0.5681 0.9953
-1.0000 0.2032 -0.5589 0.9954
-1.0376 -0.0695 -0.5696 0.9953
-1.0166 -0.1599 -0.5637 0.9953
-0.9756 -0.3388 -0.5656 0.9953
-0.9240 -0.5198 -0.5806 0.9952
-3.1601 -2.1693 -2.0994 0.9827
-2.4800 -2.9334 -2.1039 0.9826
-2.2110 -3.1452 -2.1057 0.9826
-1.9241 -3.3327 -2.1077 0.9826
-1.6215 -3.4943 -2.1099 0.9826
-1.3055 -3.6286 -2.1121 0.9826
-0.6429 -3.8112 -2.1169 0.9825
-0.3015 -3.8579 -2.1194 0.9825
0.3883 -3.8596 -2.1246 0.9825
0.7311 -3.8143 -2.1271 0.9824
2.8436 -2.6895 -2.1437 0.9823
3.0745 -2.4279 -2.1457 0.9823
3.2811 -2.1464 -2.1474 0.9823
1.9407 -0.8229 -1.1546 0.9904
1.9895 -0.6415 -1.1449 0.9905
2.0226 -0.2720 -1.1178 0.9907
2.0434 0.0911 -1.1203 0.9907
2.0042 0.4541 -1.1255 0.9907
3.2860 2.1496 -2.1507 0.9823
2.8490 2.6946 -2.1478 0.9823
2.5958 2.9352 -2.1461 0.9823
2.3223 3.1518 -2.1442 0.9823
1.0719 3.7485 -2.1354 0.9824
0.7331 3.8246 -2.1329 0.9824
0.0433 3.8847 -2.1278 0.9824
-0.9810 3.7444 -2.1200 0.9825
-1.3088 3.6379 -2.1175 0.9825
-1.6255 3.5029 -2.1151 0.9825
-1.9287 3.3406 -2.1127 0.9826
-2.2160 3.1522 -2.1104 0.9826
-2.9615 2.4477 -2.1043 0.9826
-3.1650 2.1726 -2.1026 0.9826
-0.9472 0.4268 -0.5690 0.9953
-0.9756 0.3387 -0.5656 0.9953
-1.0166 0.1599 -0.5637 0.9953
-1.0376 0.0695 -0.5696 0.9953
-1.0293 -0.1151 -0.5673 0.9953
-0.9825 -0.2928 -0.5615 0.9953
-0.9364 -0.4732 -0.5746 0.9952
-3.0613 -2.3086 -2.1000 0.9827
-2.8456 -2.5737 -2.1014 0.9827
-1.7747 -3.4168 -2.1088 0.9826
-0.4727 -3.8383 -2.1182 0.9825
-0.1294 -3.8698 -2.1207 0.9825
0.2158 -3.8707 -2.1233 0.9825
0.5602 -3.8408 -2.1259 0.9825
1.2352 -3.6895 -2.1310 0.9824
1.5606 -3.5691 -2.1335 0.9824
2.4562 -3.0400 -2.1406 0.9823
2.7197 -2.8122 -2.1427 0.9823
3.3747 -1.9988 -2.1482 0.9823
3.5416 -1.6917 -2.1497 0.9823
2.0004 -0.5480 -1.1360 0.9906
2.0036 -0.3610 -1.1150 0.9908
1.8426 0.3320 -1.0810 0.9914
2.5838 2.6716 -2.1458 0.9830
2.0657 3.0823 -2.1423 0.9830
1.1745 3.5082 -2.1359 0.9831
0.8567 3.5949 -2.1336 0.9831
0.5328 3.6528 -2.1313 0.9831
-0.4497 3.6512 -2.1239 0.9832
-0.7720 3.5925 -2.1215 0.9832
-1.0874 3.5056 -2.1191 0.9832
-1.6880 3.2500 -2.1144 0.9832
-2.4793 2.6805 -2.1081 0.9833
-2.7056 2.4471 -2.1062 0.9833
-0.8760 0.4426 -0.5667 0.9955
-0.8932 0.3555 -0.5550 0.9956
-0.9012 0.2686 -0.5429 0.9957
-0.9237 0.1033 -0.5366 0.9957
-0.9306 0.0207 -0.5374 0.9957
-0.9189 -0.1445 -0.5370 0.9957
-2.5904 -2.5617 -2.1033 0.9833
-2.3539 -2.7841 -2.1049 0.9833
-2.0985 -2.9851 -2.1067 0.9833
-1.5388 -3.3160 -2.1106 0.9833
-0.9284 -3.5436 -2.1150 0.9832
0.0409 -3.6754 -2.1221 0.9832
0.3683 -3.6614 -2.1246 0.9831
0.6936 -3.6182 -2.1270 0.9831
1.0140 -3.5462 -2.1295 0.9831
1.6303 -3.3177 -2.1342 0.9831
2.4564 -2.7775 -2.1408 0.9830
2.6964 -2.5502 -2.1427 0.9830
3.1109 -2.0350 -2.1462 0.9830
1.7564 -0.7448 -1.1014 0.9912
1.8108 -0.5839 -1.0985 0.9913
1.8316 -0.4150 -1.0843 0.9914
1.8592 -0.2500 -1.0831 0.9914
1.8755 0.0836 -1.0839 0.9914
1.8592 0.2500 -1.0831 0.9914
1.8316 0.4150 -1.0843 0.9914
1.8108 0.5839 -1.0985 0.9913
2.7012 2.5548 -2.1466 0.9830
2.2020 2.9885 -2.1432 0.9830
1.6342 3.3254 -2.1392 0.9830
0.3693 3.6709 -2.1301 0.9831
-0.2868 3.6697 -2.1252 0.9831
-0.6115 3.6254 -2.1227 0.9832
-0.9307 3.5525 -2.1203 0.9832
-1.8302 3.1699 -2.1133 0.9832
-2.3585 2.7896 -2.1091 0.9833
-2.5950 2.5663 -2.1071 0.9833
-2.8108 2.3232 -2.1053 0.9833
-3.0040 2.0622 -2.1037 0.9833
-0.8638 0.4860 -0.5722 0.9954
-0.8984 0.3119 -0.5490 0.9956
-0.9189 0.1445 -0.5370 0.9957
-0.9274 0.0621 -0.5366 0.9957
-0.9306 -0.0207 -0.5374 0.9957
-0.9237 -0.1033 -0.5366 0.9957
-0.9120 -0.1854 -0.5373 0.9957
-0.9012 -0.2686 -0.5429 0.9957
-0.8932 -0.3555 -0.5550 0.9956
-2.7010 -2.4429 -2.1026 0.9833
-2.4746 -2.6755 -2.1041 0.9833
-1.9643 -3.0770 -2.1076 0.9833
-1.6842 -3.2426 -2.1096 0.9833
-1.3902 -3.3830 -2.1117 0.9832
-0.4485 -3.6418 -2.1185 0.9832
0.2047 -3.6720 -2.1233 0.9832
1.4801 -3.3851 -2.1331 0.9831
2.0613 -3.0756 -2.1376 0.9830
2.5789 -2.6666 -2.1418 0.9830
1.7869 -0.6655 -1.1009 0.9912
1.8426 -0.3320 -1.0810 0.9914
1.8700 -0.1671 -1.0839 0.9914
