ply
format ascii 1.0
element vertex 1367
property float32 x
property float32 y
property float32 z
property float32 I
end_header
-16.2174 10.1003 -1.8342 0.9261
-16.9674 -7.6451 -1.7867 0.9279
-15.7973 10.8442 -1.8396 0.9259
19.0992 0.0000 -2.2687 0.9260
18.4716 5.0599 -2.2750 0.9258
17.9413 6.6814 -2.2742 0.9258
17.2580 8.2435 -2.2719 0.9259
16.4288 9.7308 -2.2681 0.9260
15.4625 11.1292 -2.2630 0.9261
12.7928 13.2276 -2.1859 0.9286
10.9922 13.6052 -2.0777 0.9320
-11.7029 10.5847 -1.8744 0.9384
-15.5154 6.1750 -1.9836 0.9349
-15.9468 4.7527 -1.9766 0.9352
-16.2567 3.3044 -1.9706 0.9354
-16.4444 1.8396 -1.9655 0.9355
-16.5094 0.3679 -1.9616 0.9356
-16.4523 -1.1013 -1.9587 0.9357
-15.9753 -3.9957 -1.9561 0.9358
17.4961 -2.3530 -2.0970 0.9314
19.0609 -0.8499 -2.2664 0.9260
18.9686 2.5510 -2.2735 0.9258
18.6775 4.2318 -2.2749 0.9258
18.2260 5.8771 -2.2748 0.9258
17.6184 7.4708 -2.2732 0.9258
16.8611 8.9974 -2.2702 0.9259
-12.1304 10.0261 -1.8694 0.9386
-14.6442 8.2387 -1.9959 0.9346
-15.2546 6.8734 -1.9875 0.9348
-15.7462 5.4677 -1.9800 0.9351
-16.1170 4.0312 -1.9734 0.9353
-16.3659 2.5734 -1.9679 0.9354
-16.1394 -3.2805 -1.9563 0.9358
-15.7818 -4.7034 -1.9561 0.9358
-15.2671 -6.0761 -1.9519 0.9360
17.3485 -3.1255 -2.0939 0.9315
15.8112 0.0000 -2.2403 0.9381
15.5927 2.8092 -2.2449 0.9380
15.2843 4.1868 -2.2454 0.9380
13.6011 8.0560 -2.2398 0.9381
12.8061 9.2173 -2.2356 0.9382
11.9067 10.2961 -2.2303 0.9384
6.9199 12.6272 -2.0402 0.9435
-8.2131 10.6421 -1.9047 0.9471
-9.0826 9.8200 -1.8953 0.9474
-10.6152 9.6009 -2.0280 0.9438
-11.4093 8.6042 -2.0247 0.9439
-12.6541 6.3944 -2.0089 0.9443
-13.5007 4.0237 -1.9961 0.9447
-13.7696 2.7988 -1.9909 0.9448
-13.9934 0.3119 -1.9832 0.9450
-13.9481 -0.9337 -1.9807 0.9451
-13.7987 -2.1697 -1.9792 0.9451
-10.0375 -8.2962 -1.8451 0.9488
13.3425 -5.6577 -2.0534 0.9431
14.9367 -3.3842 -2.1700 0.9400
15.7823 -0.7037 -2.2384 0.9382
15.8067 0.7049 -2.2419 0.9381
15.0814 4.8631 -2.2452 0.9380
13.2172 8.6463 -2.2378 0.9382
12.3689 9.7676 -2.2331 0.9383
11.4206 10.8016 -2.2273 0.9385
10.3620 11.7165 -2.2162 0.9388
-8.6573 10.2399 -1.8999 0.9473
-9.8233 9.7145 -1.9575 0.9457
-11.0387 9.1238 -2.0292 0.9438
-11.7566 8.0705 -2.0205 0.9440
-12.9039 5.8142 -2.0054 0.9444
-13.3274 4.6278 -1.9990 0.9446
-13.6482 3.4137 -1.9934 0.9447
-13.9838 -0.3116 -1.9818 0.9451
-13.8863 -1.5534 -1.9798 0.9451
-13.6854 -2.7817 -1.9787 0.9451
-13.3823 -3.9883 -1.9785 0.9451
-12.2765 -6.2036 -1.9489 0.9459
-11.0225 -6.8648 -1.8399 0.9489
14.0476 -3.8480 -2.0637 0.9429
13.4764 0.0000 -2.2201 0.9468
13.4376 1.2008 -2.2225 0.9468
13.2861 2.3936 -2.2240 0.9467
12.1722 5.8142 -2.2223 0.9468
10.9184 7.8586 -2.2161 0.9469
10.1551 8.7815 -2.2117 0.9470
7.2215 10.7752 -2.1369 0.9488
3.8764 11.5781 -2.0114 0.9517
2.8184 11.8266 -2.0029 0.9519
-4.4707 10.8789 -1.9376 0.9534
-5.3957 10.3886 -1.9285 0.9537
-6.2700 9.8218 -1.9196 0.9539
-8.4558 9.1423 -2.0515 0.9508
-9.1985 8.3196 -2.0432 0.9510
-9.8647 7.4393 -2.0354 0.9511
-11.3682 4.5245 -2.0157 0.9516
-12.0783 1.3512 -2.0022 0.9519
-12.1326 0.2704 -1.9992 0.9520
-11.7488 -2.9386 -1.9951 0.9521
-11.4421 -3.9731 -1.9954 0.9521
-10.5558 -5.9386 -1.9953 0.9521
-8.6992 -7.1900 -1.8592 0.9553
10.8811 -5.8063 -2.0318 0.9512
11.3921 -4.8306 -2.0385 0.9511
13.0825 -2.9641 -2.2098 0.9471
13.3232 -1.7918 -2.2146 0.9470
13.4533 -0.5999 -2.2185 0.9469
13.3759 1.7989 -2.2234 0.9468
13.1683 2.9836 -2.2243 0.9467
12.4243 5.2684 -2.2232 0.9468
11.8949 6.3473 -2.2211 0.9468
11.2672 7.3707 -2.2180 0.9469
6.4190 10.5671 -2.0368 0.9511
5.4172 11.0238 -2.0235 0.9514
3.3497 11.7146 -2.0072 0.9518
2.2837 11.9140 -1.9984 0.9520
-3.9912 11.0938 -1.9423 0.9533
-5.8396 10.1144 -1.9240 0.9538
-6.8324 9.7193 -1.9572 0.9530
-10.1678 6.9798 -2.0317 0.9512
-10.7121 6.0266 -2.0248 0.9514
-11.5430 4.0082 -2.0130 0.9517
-11.8252 2.9577 -2.0081 0.9518
-12.0168 1.8896 -2.0040 0.9519
-12.1169 0.8111 -2.0006 0.9520
-12.0425 -1.3471 -1.9962 0.9521
-11.8691 -2.4125 -1.9953 0.9521
-11.2562 -4.4798 -1.9958 0.9521
-10.8208 -5.4679 -1.9973 0.9520
-9.0026 -6.7892 -1.8575 0.9553
11.1477 -5.3248 -2.0352 0.9512
11.7311 0.0000 -2.2050 0.9534
11.6957 1.0451 -2.2071 0.9533
11.5628 2.0832 -2.2084 0.9533
11.0097 4.1001 -2.2082 0.9533
10.5945 5.0606 -2.2069 0.9533
9.5066 6.8424 -2.2016 0.9534
8.8443 7.6480 -2.1977 0.9535
8.1113 8.3871 -2.1931 0.9536
6.4621 9.6422 -2.1817 0.9539
5.5498 10.1271 -2.1706 0.9541
4.4204 10.1098 -2.0739 0.9561
3.3845 10.1091 -2.0038 0.9575
2.4621 10.3316 -1.9963 0.9577
1.5268 10.4688 -1.9885 0.9579
-0.3506 10.4875 -1.9723 0.9582
-1.2773 10.3710 -1.9641 0.9584
-2.1860 10.1729 -1.9557 0.9585
-3.0697 9.8958 -1.9475 0.9587
-3.9946 9.7204 -1.9753 0.9581
-5.0400 9.7037 -2.0553 0.9565
-7.4338 8.0374 -2.0578 0.9564
-8.0907 7.3176 -2.0505 0.9566
-8.6807 6.5464 -2.0436 0.9567
-10.3068 3.0718 -2.0215 0.9572
-10.6495 1.1913 -2.0142 0.9573
-10.6677 -0.7141 -2.0096 0.9574
-10.3632 -2.5920 -2.0079 0.9575
-9.7452 -4.3910 -2.0091 0.9574
-9.3235 -5.2453 -2.0107 0.9574
-7.6690 -6.3386 -1.8701 0.9603
-7.0876 -7.0091 -1.8736 0.9602
8.9719 -5.8691 -2.0151 0.9573
11.0952 -3.5777 -2.1912 0.9537
11.3950 -2.5818 -2.1961 0.9536
11.7256 0.5229 -2.2061 0.9534
11.4601 2.5965 -2.2087 0.9533
11.1832 3.6062 -2.2086 0.9533
10.8133 4.5852 -2.2077 0.9533
10.3538 5.5250 -2.2059 0.9534
9.1847 7.2531 -2.1997 0.9535
8.4862 8.0262 -2.1955 0.9536
7.7206 8.7298 -2.1905 0.9537
6.8950 9.3580 -2.1848 0.9538
2.9255 10.2310 -2.0001 0.9576
1.9956 10.4109 -1.9925 0.9578
0.1171 10.5146 -1.9765 0.9581
-0.8158 10.4396 -1.9682 0.9583
-7.0816 8.3761 -2.0617 0.9563
-8.9494 6.1434 -2.0403 0.9568
-9.4323 5.3066 -2.0342 0.9569
-9.8403 4.4338 -2.0287 0.9570
-10.1710 3.5318 -2.0237 0.9571
-10.4227 2.6069 -2.0194 0.9572
-10.6845 0.7153 -2.0128 0.9574
-10.6936 -0.2383 -2.0105 0.9574
-10.4692 -2.1279 -2.0080 0.9575
-9.9284 -3.9514 -2.0085 0.9574
-9.0855 -5.6585 -2.0118 0.9574
-7.3856 -6.6799 -1.8718 0.9603
-6.7754 -7.3255 -1.8756 0.9602
-6.1108 -7.9179 -1.8799 0.9601
7.3874 -7.6385 -1.9973 0.9577
8.6870 -6.2525 -2.0118 0.9574
10.2570 -4.8993 -2.1366 0.9548
10.9113 -4.0634 -2.1885 0.9537
11.5101 -2.0736 -2.1983 0.9535
10.3760 0.0000 -2.1933 0.9585
10.3435 0.9243 -2.1951 0.9584
10.2253 1.8422 -2.1962 0.9584
10.0223 2.7454 -2.1966 0.9584
9.7362 3.6258 -2.1961 0.9584
8.9262 5.2870 -2.1930 0.9585
8.4099 6.0531 -2.1903 0.9585
7.8256 6.7671 -2.1869 0.9586
7.1788 7.4229 -2.1828 0.9587
6.4756 8.0150 -2.1781 0.9587
4.9266 8.9900 -2.1669 0.9590
4.0949 9.3653 -2.1606 0.9591
3.2300 9.6476 -2.1506 0.9593
1.4221 9.7509 -2.0830 0.9605
0.5419 9.7190 -2.0576 0.9610
-2.0845 9.7005 -2.0973 0.9602
-5.2870 8.2820 -2.0770 0.9606
-6.6262 7.1642 -2.0628 0.9609
-7.2145 6.5251 -2.0562 0.9610
-7.7434 5.8396 -2.0501 0.9611
-8.2094 5.1129 -2.0443 0.9612
-8.6099 4.3508 -2.0391 0.9613
-8.9422 3.5589 -2.0344 0.9614
-9.3957 1.9098 -2.0267 0.9616
-9.5144 1.0644 -2.0237 0.9616
-9.5330 -0.6381 -2.0196 0.9617
-9.4332 -1.4833 -2.0185 0.9617
-8.3312 -4.6871 -2.0206 0.9617
-7.8893 -5.4157 -2.0228 0.9616
-5.7591 -6.8119 -1.8855 0.9642
-5.1413 -7.3136 -1.8897 0.9641
-3.7827 -8.1514 -1.8995 0.9639
6.2328 -7.0475 -1.9887 0.9623
6.8584 -6.4866 -1.9954 0.9621
8.2224 -5.3789 -2.0769 0.9606
9.8206 -3.1667 -2.1811 0.9587
10.0834 -2.2846 -2.1854 0.9586
10.2638 -1.3804 -2.1891 0.9585
10.2951 1.3846 -2.1958 0.9584
10.1343 2.2962 -2.1965 0.9584
9.5629 4.0550 -2.1956 0.9584
9.1574 4.8865 -2.1940 0.9585
8.6769 5.6762 -2.1917 0.9585
8.1259 6.4170 -2.1887 0.9586
6.8339 7.7272 -2.1805 0.9587
6.1049 8.2857 -2.1755 0.9588
5.3295 8.7736 -2.1699 0.9589
4.5148 9.1873 -2.1638 0.9590
3.6678 9.5233 -2.1572 0.9591
1.8739 9.7762 -2.1041 0.9601
0.1082 9.7136 -2.0534 0.9611
-0.7587 9.7099 -2.0587 0.9610
-4.1585 8.9614 -2.0883 0.9604
-4.9217 8.5246 -2.0807 0.9606
-5.6408 8.0241 -2.0733 0.9607
-7.9844 5.4810 -2.0471 0.9612
-8.4180 4.7359 -2.0417 0.9613
-9.3092 2.3284 -2.0284 0.9615
-9.4641 1.4882 -2.0251 0.9616
-9.5464 0.6391 -2.0224 0.9616
-9.5557 -0.2129 -2.0204 0.9617
-9.4921 -1.0618 -2.0190 0.9617
-9.1495 -2.7268 -2.0181 0.9617
-8.8728 -3.5313 -2.0186 0.9617
-8.5282 -4.3095 -2.0198 0.9617
-8.1181 -5.0560 -2.0216 0.9617
-7.6442 -5.7648 -2.0238 0.9616
-6.0507 -6.5420 -1.8836 0.9642
-5.4558 -7.0693 -1.8876 0.9642
-4.8162 -7.5445 -1.8920 0.9641
-4.1363 -7.9638 -1.8969 0.9640
5.2101 -7.7740 -1.9782 0.9625
5.9024 -7.3055 -1.9853 0.9623
6.5517 -6.7744 -1.9921 0.9622
8.7938 -5.2086 -2.1604 0.9591
9.2784 -4.4319 -2.1735 0.9588
10.3225 -0.9224 -2.1907 0.9585
9.2922 0.0000 -2.1839 0.9625
9.2624 0.8277 -2.1855 0.9625
9.1561 1.6496 -2.1865 0.9625
8.9741 2.4583 -2.1868 0.9625
8.7182 3.2467 -2.1864 0.9625
7.9941 4.7349 -2.1836 0.9625
7.5326 5.4217 -2.1812 0.9626
6.4322 6.6509 -2.1745 0.9627
5.8035 7.1831 -2.1703 0.9628
5.1299 7.6544 -2.1656 0.9628
3.6730 8.4003 -2.1547 0.9630
2.1131 8.8670 -2.1423 0.9632
-1.0999 8.9303 -2.1147 0.9637
-1.8839 8.7671 -2.1075 0.9638
-2.6478 8.5356 -2.1004 0.9639
-3.3855 8.2383 -2.0933 0.9641
-4.0917 7.8780 -2.0864 0.9642
-5.9712 6.4560 -2.0668 0.9645
-6.5034 5.8820 -2.0609 0.9646
-7.4045 4.6116 -2.0501 0.9648
-7.7676 3.9252 -2.0454 0.9649
-8.3078 2.4760 -2.0374 0.9650
-8.5900 0.9610 -2.0314 0.9651
-8.6085 -0.5763 -2.0277 0.9652
-8.5189 -1.3395 -2.0267 0.9652
-8.3642 -2.0920 -2.0263 0.9652
-7.5229 -4.2323 -2.0287 0.9652
-7.1232 -4.8898 -2.0306 0.9651
-6.1439 -6.0758 -2.0308 0.9651
-5.2597 -6.2212 -1.9147 0.9671
-2.0650 -7.8822 -1.9150 0.9671
-1.3593 -8.0586 -1.9207 0.9670
0.0916 -8.2237 -1.9329 0.9668
0.8259 -8.2099 -1.9393 0.9667
1.5586 -8.1311 -1.9458 0.9666
2.9958 -7.7785 -1.9590 0.9663
4.9939 -6.7778 -1.9786 0.9660
7.6843 -5.0268 -2.1581 0.9630
8.1225 -4.3343 -2.1637 0.9629
8.4953 -3.6023 -2.1687 0.9628
9.0336 -2.0467 -2.1769 0.9627
9.2869 0.4141 -2.1848 0.9625
8.8553 2.8555 -2.1867 0.9625
7.7712 5.0837 -2.1825 0.9626
7.2788 5.7480 -2.1798 0.9626
6.1239 6.9243 -2.1725 0.9627
4.7782 7.8660 -2.1630 0.9629
0.9081 9.0270 -2.1323 0.9634
-0.7021 8.9855 -2.1182 0.9636
-1.4941 8.8574 -2.1111 0.9638
-3.0203 8.3950 -2.0968 0.9640
-3.7429 8.0658 -2.0898 0.9641
-4.4314 7.6754 -2.0830 0.9642
-5.0807 7.2274 -2.0763 0.9644
-6.7497 5.5788 -2.0580 0.9647
-8.1966 2.8462 -2.0392 0.9650
-8.5441 1.3435 -2.0327 0.9651
-8.6287 -0.1923 -2.0284 0.9652
-8.4496 -1.7174 -2.0265 0.9652
-8.2628 -2.4626 -2.0264 0.9652
-8.0127 -3.1890 -2.0268 0.9652
-7.3302 -4.5652 -2.0296 0.9651
-5.7411 -6.2072 -1.9872 0.9659
-4.9231 -6.3790 -1.8938 0.9674
-4.3450 -6.8063 -1.8978 0.9674
-3.7306 -7.1827 -1.9022 0.9673
-2.4107 -7.7712 -1.9123 0.9671
-1.7144 -7.9780 -1.9178 0.9670
-1.0005 -8.1236 -1.9237 0.9669
0.4586 -8.2249 -1.9361 0.9667
1.1928 -8.1786 -1.9425 0.9666
2.6419 -7.8908 -1.9557 0.9664
3.3450 -7.6503 -1.9623 0.9663
4.0261 -7.3468 -1.9689 0.9662
4.6794 -6.9822 -1.9754 0.9661
5.2993 -6.5590 -1.9818 0.9659
6.5720 -5.6830 -2.0420 0.9649
7.4270 -5.3456 -2.1506 0.9631
8.3171 -3.9727 -2.1663 0.9628
8.9259 -2.4450 -2.1751 0.9627
9.1230 -1.6436 -2.1786 0.9626
9.2456 -0.8262 -2.1816 0.9626
8.4051 0.0000 -2.1762 0.9659
8.2809 1.4919 -2.1786 0.9658
8.1163 2.2233 -2.1789 0.9658
7.5889 3.6249 -2.1775 0.9658
5.8205 6.0184 -2.1678 0.9660
5.2525 6.5011 -2.1640 0.9661
4.6438 6.9291 -2.1597 0.9661
2.6295 7.8538 -2.1444 0.9664
1.9149 8.0350 -2.1387 0.9664
1.1887 8.1506 -2.1327 0.9665
-0.2736 8.1837 -2.1201 0.9667
-0.9979 8.1022 -2.1136 0.9668
-1.7097 7.9567 -2.1071 0.9669
-2.4037 7.7490 -2.1007 0.9670
-3.7169 7.1564 -2.0879 0.9672
-5.4289 5.8697 -2.0701 0.9675
-5.9143 5.3492 -2.0647 0.9676
-6.3513 4.7898 -2.0597 0.9677
-6.7370 4.1958 -2.0550 0.9677
-7.0688 3.5720 -2.0506 0.9678
-7.5630 2.2540 -2.0433 0.9679
-7.7224 1.5697 -2.0404 0.9680
-7.8613 0.1752 -2.0359 0.9680
-7.8401 -0.5248 -2.0345 0.9681
-7.7589 -1.2200 -2.0336 0.9681
-7.4189 -2.5761 -2.0334 0.9681
-7.1627 -3.2273 -2.0341 0.9681
-6.4865 -4.4528 -2.0371 0.9680
-5.6082 -5.5460 -2.0422 0.9679
-5.0893 -6.0197 -2.0410 0.9680
-4.3678 -6.2132 -1.9664 0.9691
-0.5804 -7.4272 -1.9289 0.9697
0.7501 -7.4564 -1.9404 0.9695
1.4151 -7.3825 -1.9463 0.9694
3.3460 -6.8089 -1.9643 0.9691
3.9506 -6.5036 -1.9702 0.9690
4.5271 -6.1443 -1.9761 0.9690
7.9636 -2.5679 -2.1665 0.9660
8.3930 -0.3742 -2.1752 0.9659
8.3378 1.1213 -2.1782 0.9658
7.4175 3.9581 -2.1768 0.9659
7.0297 4.5986 -2.1750 0.9659
6.0876 5.7576 -2.1695 0.9660
5.5419 6.2664 -2.1660 0.9660
4.9529 6.7222 -2.1619 0.9661
4.3260 7.1215 -2.1574 0.9662
1.5528 8.1011 -2.1357 0.9665
0.8233 8.1836 -2.1296 0.9666
-2.0593 7.8605 -2.1039 0.9670
-2.7423 7.6225 -2.0974 0.9671
-4.0261 6.9733 -2.0848 0.9673
-6.9097 3.8874 -2.0528 0.9678
-7.2139 3.2504 -2.0486 0.9678
-7.4612 2.5908 -2.0450 0.9679
-7.6502 1.9135 -2.0418 0.9679
-7.8492 0.5254 -2.0368 0.9680
-7.8070 -0.8733 -2.0340 0.9681
-7.2978 -2.9044 -2.0337 0.9681
-7.0137 -3.5442 -2.0347 0.9681
-6.6754 -4.1574 -2.0362 0.9680
-6.2851 -4.7398 -2.0382 0.9680
-5.8455 -5.2869 -2.0407 0.9680
-5.3578 -5.7928 -2.0430 0.9679
-4.7859 -6.2012 -2.0282 0.9682
-3.9732 -6.2238 -1.9118 0.9700
-3.3942 -6.5350 -1.9066 0.9700
-2.1922 -7.0670 -1.9158 0.9699
-0.9094 -7.3835 -1.9262 0.9697
-0.2493 -7.4565 -1.9317 0.9696
2.3975 -7.1610 -1.9553 0.9693
3.0347 -6.9405 -1.9613 0.9692
3.6515 -6.6631 -1.9673 0.9691
4.2427 -6.3306 -1.9732 0.9690
4.8040 -5.9460 -1.9792 0.9689
5.6233 -5.8145 -2.0944 0.9671
7.8343 -2.9175 -2.1645 0.9660
8.0768 -2.2124 -2.1683 0.9660
8.2538 -1.4870 -2.1715 0.9659
8.3637 -0.7474 -2.1741 0.9659
7.6647 0.0000 -2.1698 0.9686
7.5508 1.3604 -2.1720 0.9686
7.4005 2.0272 -2.1722 0.9686
7.1897 2.6775 -2.1719 0.9686
6.5940 3.9057 -2.1696 0.9686
6.2146 4.4730 -2.1676 0.9687
5.7851 5.0026 -2.1651 0.9687
4.7922 5.9314 -2.1587 0.9688
3.0367 6.9452 -2.1459 0.9690
2.4009 7.1712 -2.1409 0.9691
1.7488 7.3384 -2.1356 0.9691
1.0859 7.4458 -2.1301 0.9692
0.4178 7.4929 -2.1245 0.9693
-0.2501 7.4798 -2.1187 0.9694
-2.1987 7.0881 -2.1009 0.9696
-2.8130 6.8451 -2.0950 0.9697
-4.4851 5.8115 -2.0782 0.9699
-5.8193 4.3885 -2.0633 0.9702
-6.9342 2.0666 -2.0483 0.9704
-7.2097 0.1607 -2.0415 0.9705
-6.5695 -2.9601 -2.0398 0.9705
-5.9487 -4.0835 -2.0426 0.9704
-2.8865 -6.2202 -1.9413 0.9719
-2.2919 -6.3703 -1.9166 0.9722
-1.7198 -6.5644 -1.9211 0.9722
-1.1315 -6.7080 -1.9258 0.9721
-0.5313 -6.7996 -1.9308 0.9720
0.0762 -6.8381 -1.9360 0.9720
1.2945 -6.7535 -1.9467 0.9718
2.4854 -6.4532 -1.9577 0.9717
3.0585 -6.2238 -1.9632 0.9716
3.6755 -6.0507 -2.0042 0.9710
4.3944 -5.9641 -2.0972 0.9697
4.9852 -5.6368 -2.1303 0.9692
5.4894 -5.1919 -2.1390 0.9691
6.3522 -4.1554 -2.1488 0.9689
6.7106 -3.5809 -2.1533 0.9689
7.0158 -2.9750 -2.1573 0.9688
7.4555 -1.6892 -2.1641 0.9687
7.5856 -1.0201 -2.1668 0.9687
7.6540 -0.3413 -2.1689 0.9687
7.6027 1.0225 -2.1716 0.9686
7.4833 1.6955 -2.1722 0.9686
7.3026 2.3548 -2.1721 0.9686
6.0059 4.7428 -2.1664 0.9687
4.5193 6.1336 -2.1568 0.9688
3.9479 6.4991 -2.1527 0.9689
2.7212 7.0655 -2.1434 0.9690
2.0766 7.2623 -2.1383 0.9691
1.4184 7.3996 -2.1329 0.9692
0.7522 7.4769 -2.1273 0.9692
0.0835 7.4938 -2.1216 0.9693
-0.5822 7.4509 -2.1157 0.9694
-1.8835 7.1891 -2.1039 0.9696
-2.5088 6.9733 -2.0980 0.9697
-3.1108 6.7036 -2.0921 0.9697
-5.2003 5.1427 -2.0704 0.9701
-5.6242 4.6486 -2.0656 0.9701
-6.0026 4.1206 -2.0611 0.9702
-6.6126 2.9795 -2.0532 0.9703
-6.8403 2.3752 -2.0499 0.9703
-7.1340 1.1218 -2.0444 0.9704
-7.2072 -0.1606 -2.0408 0.9705
-7.0588 -1.4348 -2.0391 0.9705
-5.7636 -4.3466 -2.0436 0.9704
-4.9139 -5.3129 -2.0487 0.9704
-4.4285 -5.7381 -2.0519 0.9703
-3.8960 -6.1029 -2.0497 0.9703
-3.2266 -6.2123 -1.9817 0.9713
-2.5705 -6.2549 -1.9144 0.9723
-2.0081 -6.4735 -1.9188 0.9722
-0.8326 -6.7604 -1.9283 0.9721
-0.2282 -6.8256 -1.9333 0.9720
0.3812 -6.8373 -1.9386 0.9719
0.9910 -6.7950 -1.9440 0.9719
2.1924 -6.5483 -1.9549 0.9717
3.3387 -6.0924 -1.9667 0.9715
6.5378 -3.8724 -2.1511 0.9689
7.5282 -1.3563 -2.1655 0.9687
7.0369 0.0000 -2.1644 0.9710
7.0130 0.6267 -2.1656 0.9710
6.6002 2.4580 -2.1663 0.9710
6.3529 3.0345 -2.1655 0.9710
5.7060 4.1070 -2.1624 0.9710
5.3122 4.5937 -2.1601 0.9710
3.8927 5.8084 -2.1506 0.9712
2.7905 6.3821 -2.1424 0.9713
2.2067 6.5910 -2.1379 0.9713
0.9985 6.8461 -2.1280 0.9715
-0.8394 6.8152 -2.1120 0.9717
-1.4389 6.6960 -2.1066 0.9717
-2.0239 6.5244 -2.1011 0.9718
-2.5899 6.3022 -2.0957 0.9719
-3.1326 6.0313 -2.0904 0.9720
-4.1320 5.3540 -2.0802 0.9721
-4.5815 4.9535 -2.0754 0.9722
-4.9932 4.5161 -2.0708 0.9722
-5.9742 3.0189 -2.0588 0.9724
-6.2093 2.4712 -2.0555 0.9724
-6.3955 1.9061 -2.0526 0.9725
-6.6172 0.7403 -2.0480 0.9725
-6.6514 0.1482 -2.0463 0.9725
-6.6342 -0.4441 -2.0451 0.9726
-6.2783 -2.1800 -2.0442 0.9726
-5.7970 -3.2613 -2.0458 0.9725
-5.4877 -3.7671 -2.0473 0.9725
-5.1355 -4.2446 -2.0493 0.9725
-4.7428 -4.6903 -2.0516 0.9725
-4.3124 -5.1007 -2.0544 0.9724
-3.8472 -5.4727 -2.0576 0.9724
-3.3492 -5.8009 -2.0603 0.9724
-2.2325 -6.2054 -2.0284 0.9728
-1.6285 -6.2158 -1.9764 0.9735
-0.4894 -6.2635 -1.9324 0.9741
1.7672 -6.1803 -1.9771 0.9735
2.9937 -6.0921 -2.0878 0.9720
4.0995 -5.5639 -2.1257 0.9715
5.0457 -4.7722 -2.1361 0.9714
5.8365 -3.8180 -2.1452 0.9712
6.1648 -3.2896 -2.1492 0.9712
6.4442 -2.7326 -2.1529 0.9711
7.0272 -0.3134 -2.1636 0.9710
7.0321 0.3136 -2.1651 0.9710
6.8697 1.5565 -2.1665 0.9710
5.8859 3.8504 -2.1633 0.9710
4.6434 5.2503 -2.1558 0.9711
4.1511 5.6340 -2.1525 0.9711
3.6269 5.9706 -2.1487 0.9712
3.0752 6.2578 -2.1446 0.9712
2.5008 6.4932 -2.1402 0.9713
1.9088 6.6753 -2.1355 0.9714
1.3040 6.8030 -2.1305 0.9714
-0.5356 6.8546 -2.1147 0.9716
-1.1406 6.7623 -2.1093 0.9717
-2.3095 6.4195 -2.0984 0.9719
-3.3939 5.8784 -2.0878 0.9720
-3.8941 5.5394 -2.0827 0.9721
-4.7923 4.7392 -2.0730 0.9722
-5.5336 3.7986 -2.0644 0.9723
-5.8389 3.2849 -2.0606 0.9724
-6.5808 1.0348 -2.0490 0.9725
-6.6492 -0.1481 -2.0457 0.9726
-6.6064 -0.7390 -2.0447 0.9726
-6.3688 -1.8981 -2.0440 0.9726
-5.6479 -3.5175 -2.0465 0.9725
-4.9441 -4.4716 -2.0504 0.9725
-4.5321 -4.9001 -2.0530 0.9725
-3.6026 -5.6433 -2.0593 0.9724
-1.9267 -6.2110 -2.0002 0.9732
-0.7674 -6.2310 -1.9310 0.9741
0.3511 -6.2962 -1.9396 0.9740
0.9124 -6.2559 -1.9445 0.9739
2.6750 -6.1179 -2.0538 0.9724
3.2988 -6.0195 -2.1113 0.9717
4.3494 -5.3833 -2.1287 0.9715
5.6549 -4.0701 -2.1430 0.9713
6.3108 -3.0144 -2.1511 0.9712
6.5647 -2.4447 -2.1546 0.9711
7.0033 -0.6258 -2.1626 0.9710
6.4972 0.0000 -2.1597 0.9730
6.2723 1.7182 -2.1617 0.9730
5.8655 2.8017 -2.1607 0.9730
5.5897 3.3108 -2.1595 0.9730
4.9056 4.2421 -2.1558 0.9730
4.5033 4.6564 -2.1532 0.9731
2.5785 5.8973 -2.1395 0.9732
2.0394 6.0913 -2.1353 0.9733
1.4860 6.2356 -2.1308 0.9733
0.3553 6.3719 -2.1213 0.9735
-0.2128 6.3634 -2.1164 0.9735
-0.7764 6.3042 -2.1114 0.9736
-1.3313 6.1953 -2.1063 0.9736
-2.8999 5.5834 -2.0914 0.9738
-5.2745 3.2850 -2.0655 0.9741
-6.1350 0.6863 -2.0520 0.9743
-6.1671 0.1375 -2.0505 0.9743
-6.1515 -0.4118 -2.0494 0.9743
-5.3750 -3.0239 -2.0500 0.9743
-4.3967 -4.3480 -2.0554 0.9743
-3.1050 -5.3780 -2.0642 0.9742
-2.6185 -5.6428 -2.0678 0.9741
-1.5791 -6.0275 -2.0712 0.9741
-1.0375 -6.1510 -2.0735 0.9740
0.6232 -6.1946 -2.0695 0.9741
1.1847 -6.1804 -2.0918 0.9738
1.7355 -6.0695 -2.0984 0.9737
2.8044 -5.7067 -2.1136 0.9736
3.3104 -5.4497 -2.1195 0.9735
4.2433 -4.7980 -2.1291 0.9734
4.6634 -4.4106 -2.1337 0.9733
5.0477 -3.9861 -2.1380 0.9733
5.3926 -3.5276 -2.1420 0.9732
5.9525 -2.5240 -2.1492 0.9731
6.4316 -0.8650 -2.1571 0.9730
6.3425 1.4370 -2.1617 0.9730
5.7334 3.0595 -2.1602 0.9730
5.4348 3.5553 -2.1588 0.9730
5.0923 4.0214 -2.1569 0.9730
4.7091 4.4539 -2.1546 0.9730
4.2886 4.8492 -2.1518 0.9731
3.8344 5.2041 -2.1487 0.9731
3.3506 5.5158 -2.1453 0.9732
2.8413 5.7819 -2.1415 0.9732
1.7642 6.1698 -2.1331 0.9733
1.2055 6.2888 -2.1285 0.9734
0.6395 6.3570 -2.1238 0.9734
0.0710 6.3740 -2.1189 0.9735
-1.0552 6.2559 -2.1089 0.9736
-1.6040 6.1224 -2.1038 0.9737
-3.6059 5.1295 -2.0842 0.9739
-4.4391 4.3900 -2.0753 0.9740
-4.8027 3.9696 -2.0712 0.9741
-5.4110 3.0442 -2.0638 0.9742
-5.9978 1.5002 -2.0551 0.9743
-6.1571 0.4122 -2.0512 0.9743
-6.1653 -0.1374 -2.0499 0.9743
-5.7265 -2.2791 -2.0487 0.9744
-5.5029 -2.7807 -2.0495 0.9743
-5.2366 -3.2614 -2.0507 0.9743
-4.9294 -3.7174 -2.0523 0.9743
-3.7853 -4.9047 -2.0594 0.9742
-2.8648 -5.5156 -2.0660 0.9741
-2.3666 -5.7587 -2.0696 0.9741
-1.3097 -6.0949 -2.0722 0.9741
-0.7631 -6.1956 -2.0750 0.9740
0.3456 -6.1987 -2.0637 0.9742
1.4611 -6.1309 -2.0950 0.9738
3.5540 -5.3029 -2.1220 0.9735
4.0209 -4.9768 -2.1268 0.9734
4.4576 -4.6092 -2.1314 0.9733
5.8296 -2.7845 -2.1475 0.9731
6.0634 -2.2580 -2.1507 0.9731
6.2487 -1.7117 -2.1536 0.9731
6.0070 0.5368 -2.1567 0.9747
5.4417 2.5993 -2.1566 0.9747
5.1861 3.0717 -2.1555 0.9747
4.1790 4.3210 -2.1497 0.9748
3.7730 4.6700 -2.1470 0.9748
3.3377 4.9802 -2.1439 0.9749
2.8766 5.2492 -2.1405 0.9749
1.8936 5.6560 -2.1330 0.9750
-0.7215 5.8584 -2.1108 0.9752
-1.2373 5.7581 -2.1061 0.9753
-2.6967 5.1921 -2.0922 0.9755
-3.1414 4.9209 -2.0877 0.9755
-4.3040 3.8928 -2.0753 0.9756
-4.9090 3.0574 -2.0681 0.9757
-5.1538 2.6043 -2.0650 0.9758
-5.3577 2.1323 -2.0621 0.9758
-5.5194 1.6450 -2.0596 0.9758
-5.6380 1.1460 -2.0574 0.9759
-5.7427 0.1280 -2.0541 0.9759
-5.7284 -0.3835 -2.0531 0.9759
-5.4214 -1.8825 -2.0523 0.9759
-5.2336 -2.3581 -2.0528 0.9759
-5.0052 -2.8159 -2.0537 0.9759
-4.4331 -3.6640 -2.0567 0.9759
-3.7212 -4.4015 -2.0612 0.9758
-2.4369 -5.2514 -2.0703 0.9757
-0.9683 -5.7405 -2.0819 0.9756
1.1051 -5.7652 -2.0992 0.9754
1.6179 -5.6580 -2.1044 0.9753
2.1197 -5.5038 -2.1091 0.9753
5.2863 -2.8208 -2.1427 0.9749
5.5245 -2.3426 -2.1459 0.9748
5.7186 -1.8440 -2.1487 0.9748
5.8668 -1.3292 -2.1512 0.9748
5.9676 -0.8026 -2.1533 0.9747
6.0201 -0.2684 -2.1550 0.9747
6.0237 0.2686 -2.1562 0.9747
5.9782 0.8040 -2.1571 0.9747
5.8840 1.3332 -2.1575 0.9747
5.7419 1.8516 -2.1575 0.9747
5.5531 2.3547 -2.1570 0.9747
4.7250 3.7313 -2.1530 0.9747
4.3698 4.1329 -2.1509 0.9748
3.9799 4.5002 -2.1484 0.9748
2.6377 5.3677 -2.1388 0.9749
-0.9807 5.8140 -2.1085 0.9753
-1.4909 5.6909 -2.1038 0.9753
-1.9871 5.5233 -2.0991 0.9754
-2.4654 5.3128 -2.0945 0.9754
-4.1302 4.0845 -2.0772 0.9756
-4.4691 3.6938 -2.0734 0.9757
-4.7719 3.2757 -2.0698 0.9757
-5.0364 2.8335 -2.0665 0.9758
-5.2609 2.3705 -2.0635 0.9758
-5.5842 1.3967 -2.0585 0.9758
-5.7332 0.3838 -2.0548 0.9759
-5.6238 -1.1431 -2.0522 0.9759
-5.3327 -2.1223 -2.0525 0.9759
-4.5899 -3.4614 -2.0558 0.9759
-3.9112 -4.2288 -2.0599 0.9758
-3.5237 -4.5658 -2.0625 0.9758
-2.6662 -5.1334 -2.0686 0.9757
-1.2219 -5.6861 -2.0798 0.9756
-0.1950 -5.8326 -2.0869 0.9755
0.3256 -5.8388 -2.0912 0.9755
0.8460 -5.8008 -2.0964 0.9754
2.3654 -5.4099 -2.1115 0.9752
4.5128 -3.9024 -2.1335 0.9750
5.6272 -2.0956 -2.1473 0.9748
5.9232 -1.0671 -2.1523 0.9748
6.0000 -0.5361 -2.1542 0.9747
5.6158 0.0000 -2.1521 0.9762
5.5961 0.5001 -2.1531 0.9762
5.5309 0.9964 -2.1537 0.9762
5.4207 1.4849 -2.1538 0.9762
5.2665 1.9613 -2.1536 0.9762
5.0695 2.4215 -2.1530 0.9762
4.8315 2.8617 -2.1519 0.9762
4.5546 3.2782 -2.1505 0.9762
2.6812 4.8927 -2.1380 0.9764
1.7654 5.2731 -2.1310 0.9765
1.2868 5.3996 -2.1271 0.9765
0.7996 5.4823 -2.1231 0.9765
0.3078 5.5208 -2.1190 0.9766
-2.0802 5.0619 -2.0972 0.9768
-2.5174 4.8468 -2.0930 0.9769
-2.9329 4.5943 -2.0888 0.9769
-4.5861 2.8563 -2.0705 0.9771
-4.8152 2.4333 -2.0675 0.9772
-5.1578 1.5372 -2.0625 0.9772
-5.2689 1.0710 -2.0604 0.9772
-5.3673 0.1196 -2.0574 0.9773
-5.2993 -0.8333 -2.0558 0.9773
-5.2035 -1.3015 -2.0555 0.9773
-5.0673 -1.7596 -2.0556 0.9773
-4.6781 -2.6318 -2.0570 0.9773
-4.1430 -3.4242 -2.0598 0.9772
-3.8253 -3.7829 -2.0617 0.9772
-3.4772 -4.1128 -2.0639 0.9772
-2.2765 -4.9056 -2.0725 0.9771
-1.8338 -5.0971 -2.0759 0.9771
-0.4243 -5.4302 -2.0873 0.9769
0.0608 -5.4571 -2.0914 0.9769
0.5474 -5.4411 -2.0957 0.9768
1.9777 -5.1350 -2.1087 0.9767
3.6747 -4.1551 -2.1257 0.9765
4.6662 -3.0525 -2.1368 0.9764
4.9269 -2.6290 -2.1401 0.9764
5.1484 -2.1831 -2.1430 0.9763
5.3288 -1.7183 -2.1456 0.9763
5.5600 -0.7477 -2.1499 0.9763
5.6117 0.2503 -2.1526 0.9762
5.3490 1.7249 -2.1538 0.9762
5.1732 2.1936 -2.1533 0.9762
4.9555 2.6444 -2.1525 0.9762
4.0716 3.8509 -2.1476 0.9763
3.3165 4.5013 -2.1426 0.9763
1.5274 5.3418 -2.1291 0.9765
1.0440 5.4464 -2.1252 0.9765
0.5540 5.5071 -2.1211 0.9766
0.0615 5.5235 -2.1168 0.9766
-0.4295 5.4958 -2.1125 0.9767
-0.9150 5.4246 -2.1082 0.9767
-1.8546 5.1549 -2.0994 0.9768
-3.1316 4.4547 -2.0867 0.9769
-4.1744 3.4502 -2.0754 0.9771
-4.4577 3.0601 -2.0720 0.9771
-5.0870 1.7664 -2.0636 0.9772
-5.3583 0.3587 -2.0580 0.9773
-3.9881 -3.6070 -2.0607 0.9772
-3.6549 -3.9517 -2.0628 0.9772
-2.0573 -5.0062 -2.0741 0.9771
-1.6063 -5.1781 -2.0776 0.9770
-1.1411 -5.3100 -2.0814 0.9770
-0.6652 -5.4007 -2.0853 0.9770
-0.1822 -5.4490 -2.0893 0.9769
0.3041 -5.4545 -2.0935 0.9769
1.2717 -5.3361 -2.1022 0.9768
1.7452 -5.2126 -2.1066 0.9767
3.0792 -4.5944 -2.1195 0.9766
3.4827 -4.3106 -2.1237 0.9765
4.5220 -3.2547 -2.1351 0.9764
4.8013 -2.8438 -2.1385 0.9764
5.2438 -1.9528 -2.1444 0.9763
5.4031 -1.4801 -2.1468 0.9763
5.5900 -0.4995 -2.1507 0.9762
5.1709 0.9316 -2.1504 0.9775
5.0679 1.3883 -2.1506 0.9775
4.2586 3.0651 -2.1474 0.9776
3.9657 3.4293 -2.1458 0.9776
3.2882 4.0698 -2.1414 0.9776
2.9093 4.3409 -2.1387 0.9777
2.5079 4.5764 -2.1358 0.9777
2.0875 4.7743 -2.1326 0.9777
1.6517 4.9333 -2.1292 0.9778
1.2040 5.0522 -2.1256 0.9778
0.7482 5.1302 -2.1219 0.9778
0.2881 5.1669 -2.1180 0.9779
-0.1726 5.1623 -2.1140 0.9779
-0.6302 5.1166 -2.1099 0.9780
-1.0810 5.0304 -2.1058 0.9780
-1.9482 4.7406 -2.0976 0.9781
-3.4546 3.7351 -2.0823 0.9783
-3.7671 3.4071 -2.0788 0.9783
-4.0490 3.0535 -2.0756 0.9783
-4.5136 2.2808 -2.0698 0.9784
-4.8354 1.4411 -2.0650 0.9784
-2.1365 0.4343 -0.8923 0.9906
-2.1302 -0.1426 -0.8738 0.9908
-2.1345 -0.3356 -0.8843 0.9907
-4.7516 -1.6499 -2.0586 0.9785
-3.8843 -3.2105 -2.0625 0.9785
-2.9070 -4.1353 -2.0688 0.9784
-1.2886 -4.9186 -2.0810 0.9783
-0.8472 -5.0224 -2.0846 0.9782
-0.3975 -5.0869 -2.0883 0.9782
0.5127 -5.0959 -2.0962 0.9781
0.9660 -5.0398 -2.1002 0.9781
1.4135 -4.9434 -2.1043 0.9780
2.6848 -4.4198 -2.1165 0.9779
3.0733 -4.1710 -2.1205 0.9779
3.4385 -3.8879 -2.1243 0.9778
3.7774 -3.5726 -2.1279 0.9778
4.0870 -3.2275 -2.1314 0.9777
4.3648 -2.8553 -2.1347 0.9777
4.9832 -1.6069 -2.1429 0.9776
5.1987 -0.6992 -2.1469 0.9776
5.2068 0.7003 -2.1502 0.9775
5.1246 1.1611 -2.1505 0.9775
4.8366 2.0509 -2.1501 0.9776
4.6332 2.4723 -2.1493 0.9776
4.3923 2.8734 -2.1482 0.9776
4.1163 3.2506 -2.1466 0.9776
2.2999 4.6801 -2.1342 0.9777
1.4291 4.9978 -2.1274 0.9778
0.5185 5.1537 -2.1199 0.9779
0.0576 5.1698 -2.1160 0.9779
-0.8566 5.0785 -2.1079 0.9780
-1.7367 4.8273 -2.0997 0.9781
-2.1553 4.6446 -2.0956 0.9781
-3.6145 3.5745 -2.0805 0.9783
-3.9120 3.2333 -2.0772 0.9783
-4.4104 2.4813 -2.0711 0.9784
-4.6078 2.0762 -2.0685 0.9784
-2.1302 0.1426 -0.8738 0.9908
-2.1261 -0.2378 -0.8756 0.9908
-2.1365 -0.4343 -0.8923 0.9906
-4.2733 -2.6614 -2.0604 0.9785
-3.7390 -3.3817 -2.0634 0.9784
-3.0865 -3.9992 -2.0676 0.9784
-2.7216 -4.2633 -2.0701 0.9784
-2.3345 -4.4948 -2.0729 0.9783
-1.9280 -4.6916 -2.0760 0.9783
-1.0691 -4.9753 -2.0828 0.9782
-0.6232 -5.0596 -2.0864 0.9782
1.1908 -4.9966 -2.1023 0.9780
1.6339 -4.8803 -2.1064 0.9780
2.0658 -4.7247 -2.1105 0.9780
2.8817 -4.2999 -2.1185 0.9779
3.2590 -4.0337 -2.1224 0.9778
4.4909 -2.6599 -2.1362 0.9777
4.9039 -1.8262 -2.1417 0.9776
5.0524 -1.3840 -2.1440 0.9776
4.9243 0.0000 -2.1461 0.9787
4.9068 0.4385 -2.1470 0.9787
4.8494 0.8737 -2.1475 0.9787
4.7528 1.3019 -2.1476 0.9787
4.6176 1.7196 -2.1474 0.9787
4.2366 2.5094 -2.1460 0.9787
3.9941 2.8748 -2.1447 0.9788
3.4156 3.5317 -2.1412 0.9788
3.0845 3.8178 -2.1390 0.9788
2.7293 4.0724 -2.1366 0.9788
2.3530 4.2937 -2.1338 0.9789
1.5499 4.6294 -2.1276 0.9789
1.1299 4.7415 -2.1243 0.9790
0.7023 4.8152 -2.1207 0.9790
-2.9257 3.7910 -2.0870 0.9793
-3.8055 2.8699 -2.0772 0.9794
-4.2429 2.1440 -2.0718 0.9795
-1.9300 0.3923 -0.8583 0.9914
-1.9479 -0.1304 -0.8508 0.9915
-1.9397 -0.3050 -0.8557 0.9915
-1.9080 -0.4772 -0.8571 0.9915
-1.8290 -0.6351 -0.8438 0.9916
-4.3131 -1.9434 -2.0617 0.9796
-2.7327 -3.8873 -2.0709 0.9795
-2.3788 -4.1201 -2.0734 0.9795
-2.0053 -4.3213 -2.0762 0.9794
-0.7960 -4.7191 -2.0857 0.9793
-0.3735 -4.7793 -2.0892 0.9793
0.0535 -4.8019 -2.0929 0.9793
1.3274 -4.6422 -2.1043 0.9792
1.7385 -4.5139 -2.1081 0.9791
2.5204 -4.1491 -2.1157 0.9790
2.8847 -3.9151 -2.1194 0.9790
3.2271 -3.6490 -2.1230 0.9790
3.5448 -3.3527 -2.1264 0.9789
3.8350 -3.0285 -2.1297 0.9789
4.5168 -1.9153 -2.1382 0.9788
4.7945 -1.0863 -2.1425 0.9788
4.9182 -0.2193 -2.1456 0.9787
4.9205 0.2194 -2.1466 0.9787
4.8831 0.6567 -2.1473 0.9787
4.6899 1.5123 -2.1476 0.9787
4.3452 2.3187 -2.1465 0.9787
3.8608 3.0488 -2.1440 0.9788
3.2533 3.6785 -2.1402 0.9788
2.5436 4.1873 -2.1352 0.9788
1.7559 4.5592 -2.1293 0.9789
0.9169 4.7831 -2.1225 0.9790
-0.3774 4.8301 -2.1114 0.9791
-0.8044 4.7686 -2.1076 0.9791
-1.6311 4.5338 -2.0999 0.9792
-2.4005 4.1579 -2.0924 0.9793
-2.7563 3.9209 -2.0888 0.9793
-3.0891 3.6539 -2.0853 0.9793
-3.3966 3.3590 -2.0819 0.9794
-3.6765 3.0387 -2.0788 0.9794
-3.9268 2.6956 -2.0758 0.9794
-4.1457 2.3323 -2.0731 0.9795
-4.3316 1.9518 -2.0706 0.9795
-1.9080 0.4772 -0.8571 0.9915
-1.9479 0.1304 -0.8508 0.9915
-1.9433 -0.2174 -0.8522 0.9915
-1.9300 -0.3923 -0.8583 0.9914
-4.3948 -1.7491 -2.0615 0.9796
-2.9015 -3.7596 -2.0697 0.9795
-2.5584 -4.0076 -2.0721 0.9795
-1.8121 -4.4094 -2.0776 0.9794
-0.5855 -4.7538 -2.0875 0.9793
-0.1603 -4.7953 -2.0910 0.9793
0.2676 -4.7990 -2.0947 0.9792
1.1183 -4.6925 -2.1023 0.9792
2.3310 -4.2535 -2.1138 0.9791
2.7051 -4.0362 -2.1176 0.9790
3.0588 -3.7860 -2.1212 0.9790
4.7392 -1.2982 -2.1415 0.9788
4.8401 -0.8720 -2.1434 0.9788
4.9020 -0.4380 -2.1449 0.9788
4.6309 0.0000 -2.1436 0.9798
4.6143 0.4124 -2.1444 0.9798
4.5603 0.8216 -2.1449 0.9798
4.4694 1.2243 -2.1450 0.9798
4.3423 1.6171 -2.1448 0.9798
4.1801 1.9967 -2.1443 0.9798
3.7563 2.7036 -2.1423 0.9798
3.2125 3.3217 -2.1390 0.9798
2.9013 3.5910 -2.1369 0.9799
2.2135 4.0392 -2.1320 0.9799
1.8428 4.2146 -2.1292 0.9799
0.6609 4.5314 -2.1197 0.9800
0.2545 4.5649 -2.1163 0.9800
-0.9556 4.4472 -2.1055 0.9801
-1.3454 4.3371 -2.1019 0.9802
-2.4310 3.8082 -2.0913 0.9803
-3.3353 3.0166 -2.0817 0.9804
-3.5856 2.7040 -2.0788 0.9804
-3.8071 2.3711 -2.0761 0.9804
-1.6675 0.1865 -0.7767 0.9926
-1.6716 0.0373 -0.7739 0.9927
-1.6521 -0.2598 -0.7741 0.9927
-1.5621 -0.5424 -0.7654 0.9927
-4.0656 -1.8319 -2.0641 0.9805
-3.8878 -2.1872 -2.0648 0.9805
-3.4423 -2.8451 -2.0672 0.9805
-3.1778 -3.1426 -2.0688 0.9805
-2.8881 -3.4161 -2.0706 0.9805
-2.5752 -3.6633 -2.0728 0.9805
-1.8895 -4.0717 -2.0778 0.9804
-1.5216 -4.2294 -2.0806 0.9804
-1.1408 -4.3543 -2.0836 0.9804
0.0504 -4.5224 -2.0935 0.9803
0.8543 -4.4569 -2.1006 0.9802
1.2498 -4.3707 -2.1042 0.9802
1.6366 -4.2494 -2.1078 0.9801
2.0118 -4.0939 -2.1114 0.9801
2.3722 -3.9051 -2.1150 0.9801
2.7148 -3.6845 -2.1185 0.9800
3.0368 -3.4337 -2.1218 0.9800
3.3354 -3.1546 -2.1251 0.9800
3.8526 -2.5203 -2.1310 0.9799
4.0667 -2.1701 -2.1337 0.9799
4.2486 -1.8015 -2.1361 0.9799
4.3965 -1.4177 -2.1383 0.9798
4.5092 -1.0216 -2.1402 0.9798
4.5857 -0.6167 -2.1418 0.9798
4.5919 0.6176 -2.1447 0.9798
4.5194 1.0240 -2.1450 0.9798
3.8741 2.5343 -2.1429 0.9798
3.3587 3.1767 -2.1399 0.9798
2.0301 4.1311 -2.1306 0.9799
1.2619 4.4132 -2.1246 0.9800
0.8628 4.5010 -2.1214 0.9800
0.4580 4.5527 -2.1180 0.9800
0.0509 4.5679 -2.1145 0.9801
-0.3553 4.5466 -2.1110 0.9801
-2.5962 3.6931 -2.0896 0.9803
-2.9100 3.4419 -2.0863 0.9803
-3.1999 3.1645 -2.0832 0.9804
-3.7000 2.5399 -2.0774 0.9804
-4.0821 1.8393 -2.0725 0.9805
-1.5621 0.5424 -0.7654 0.9927
-1.6165 0.4043 -0.7713 0.9927
-1.6521 0.2598 -0.7741 0.9927
-1.6738 0.1121 -0.7765 0.9926
-1.6716 -0.0372 -0.7739 0.9927
-1.6675 -0.1865 -0.7767 0.9926
-1.6373 -0.3328 -0.7734 0.9927
-1.5257 -0.6072 -0.7601 0.9928
-3.9806 -2.0115 -2.0644 0.9805
-3.7873 -2.3588 -2.0653 0.9805
-3.3133 -2.9967 -2.0679 0.9805
-2.7344 -3.5431 -2.0717 0.9805
-2.4109 -3.7765 -2.0739 0.9804
-2.0676 -3.9809 -2.0764 0.9804
-1.3326 -4.2960 -2.0821 0.9804
2.8785 -3.5628 -2.1202 0.9800
3.1892 -3.2976 -2.1235 0.9800
3.4752 -3.0051 -2.1266 0.9800
4.6101 -0.4119 -2.1424 0.9798
4.2986 0.7744 -2.1425 0.9807
3.9402 1.8821 -2.1420 0.9807
3.5410 2.5486 -2.1400 0.9808
3.0286 3.1316 -2.1370 0.9808
2.0872 3.8087 -2.1304 0.9808
1.7378 3.9744 -2.1277 0.9809
1.3753 4.1078 -2.1249 0.9809
1.0028 4.2080 -2.1219 0.9809
0.6234 4.2743 -2.1188 0.9809
0.2401 4.3062 -2.1156 0.9810
-0.5255 4.2670 -2.1088 0.9810
-1.6262 3.9572 -2.0986 0.9811
-1.9688 3.7907 -2.0953 0.9811
-2.2948 3.5948 -2.0920 0.9812
-2.6017 3.3712 -2.0888 0.9812
-3.1492 2.8483 -2.0829 0.9813
-3.3858 2.5534 -2.0801 0.9813
-3.5952 2.2392 -2.0776 0.9813
-3.7760 1.9081 -2.0753 0.9813
-1.3059 0.5198 -0.6895 0.9938
-1.3200 0.3934 -0.6756 0.9939
-1.3419 0.1501 -0.6624 0.9940
-1.3536 0.0302 -0.6641 0.9940
-1.3513 -0.0904 -0.6643 0.9940
-1.3149 -0.3289 -0.6649 0.9940
-3.6725 -2.0661 -2.0670 0.9814
-3.4757 -2.3859 -2.0679 0.9814
-3.2515 -2.6874 -2.0692 0.9814
-3.0016 -2.9683 -2.0707 0.9814
-2.7278 -3.2264 -2.0725 0.9814
-1.4368 -3.9935 -2.0819 0.9813
-1.0771 -4.1112 -2.0847 0.9812
1.5442 -4.0095 -2.1076 0.9810
2.2378 -3.6840 -2.1144 0.9810
3.6329 -2.3765 -2.1294 0.9808
4.2510 -0.9631 -2.1381 0.9808
4.3284 0.5821 -2.1423 0.9807
4.2600 0.9652 -2.1426 0.9807
4.1572 1.3405 -2.1426 0.9807
4.0207 1.7049 -2.1422 0.9807
3.1664 2.9948 -2.1378 0.9808
1.1901 4.1621 -2.1234 0.9809
0.4320 4.2945 -2.1172 0.9810
0.0480 4.3092 -2.1139 0.9810
-0.3352 4.2896 -2.1105 0.9810
-1.0869 4.1487 -2.1037 0.9811
-1.4495 4.0290 -2.1003 0.9811
-2.4508 3.4863 -2.0904 0.9812
-3.0213 2.9878 -2.0843 0.9812
-3.4940 2.3985 -2.0788 0.9813
-3.6893 2.0756 -2.0764 0.9813
-1.3171 0.4574 -0.6839 0.9938
-1.3149 0.3289 -0.6649 0.9940
-1.3257 0.2085 -0.6583 0.9940
-1.3513 0.0905 -0.6643 0.9940
-1.3536 -0.0301 -0.6641 0.9940
-1.3419 -0.1501 -0.6624 0.9940
-1.3047 -0.2652 -0.6531 0.9941
-1.3200 -0.3934 -0.6756 0.9939
-1.3059 -0.5197 -0.6895 0.9938
-3.7602 -1.9001 -2.0666 0.9814
-3.3669 -2.5391 -2.0685 0.9814
-3.1296 -2.8306 -2.0699 0.9814
-2.8675 -3.1003 -2.0715 0.9814
-2.5826 -3.3463 -2.0734 0.9813
-2.2768 -3.5666 -2.0756 0.9813
-0.8935 -4.1580 -2.0862 0.9812
-0.5206 -4.2272 -2.0892 0.9812
-0.1425 -4.2633 -2.0924 0.9812
0.2379 -4.2658 -2.0957 0.9811
0.6176 -4.2344 -2.0991 0.9811
0.9936 -4.1694 -2.1025 0.9811
1.3630 -4.0710 -2.1059 0.9811
1.7227 -3.9399 -2.1093 0.9810
2.0699 -3.7770 -2.1127 0.9810
2.4016 -3.5834 -2.1160 0.9810
2.7151 -3.3606 -2.1192 0.9809
3.0079 -3.1101 -2.1223 0.9809
3.2773 -2.8340 -2.1253 0.9809
3.5212 -2.5344 -2.1281 0.9809
3.9240 -1.8743 -2.1331 0.9808
4.0794 -1.5192 -2.1353 0.9808
4.2022 -1.1511 -2.1372 0.9808
4.1085 0.3672 -2.1399 0.9816
3.9794 1.0901 -2.1405 0.9816
3.8662 1.4398 -2.1403 0.9816
3.3449 2.4076 -2.1380 0.9816
2.8612 2.9584 -2.1351 0.9816
2.5843 3.1986 -2.1333 0.9816
1.6421 3.7556 -2.1264 0.9817
0.9477 3.9769 -2.1209 0.9817
-0.4968 4.0340 -2.1086 0.9819
-1.2005 3.8701 -2.1021 0.9819
-1.5378 3.7421 -2.0989 0.9819
-2.4609 3.1888 -2.0896 0.9820
-2.7312 2.9530 -2.0867 0.9820
-1.1070 0.4406 -0.6181 0.9946
-1.1739 -0.0786 -0.6103 0.9947
-1.1517 -0.1811 -0.6048 0.9948
-1.1275 -0.2820 -0.6029 0.9948
-1.1198 -0.3889 -0.6150 0.9947
-1.0898 -0.4910 -0.6201 0.9946
-3.4758 -1.9554 -2.0689 0.9822
-3.2894 -2.2580 -2.0698 0.9822
-3.0771 -2.5433 -2.0710 0.9822
-2.8405 -2.8090 -2.0725 0.9822
-2.3014 -3.2738 -2.0760 0.9821
-2.0029 -3.4692 -2.0782 0.9821
-1.3593 -3.7782 -2.0830 0.9821
-1.0189 -3.8892 -2.0857 0.9820
-0.3141 -4.0193 -2.0915 0.9820
0.0450 -4.0372 -2.0946 0.9820
0.4047 -4.0232 -2.0977 0.9819
0.7624 -3.9773 -2.1009 0.9819
1.7943 -3.6513 -2.1106 0.9818
2.1154 -3.4823 -2.1138 0.9818
2.4204 -3.2850 -2.1169 0.9818
2.9728 -2.8116 -2.1227 0.9817
3.6230 -1.9333 -2.1304 0.9817
3.9159 -1.2627 -2.1345 0.9816
4.0159 -0.9099 -2.1362 0.9816
4.0886 0.5499 -2.1402 0.9816
4.0239 0.9117 -2.1404 0.9816
3.7979 1.6105 -2.1401 0.9816
3.6385 1.9416 -2.1395 0.9816
3.4498 2.2567 -2.1386 0.9816
2.9913 2.8291 -2.1359 0.9816
2.7254 3.0817 -2.1342 0.9816
1.8088 3.6809 -2.1277 0.9817
1.4723 3.8227 -2.1251 0.9817
1.1247 3.9334 -2.1223 0.9817
0.4084 4.0592 -2.1164 0.9818
0.0454 4.0734 -2.1133 0.9818
-1.3707 3.8098 -2.1005 0.9819
-1.7017 3.6671 -2.0973 0.9819
-2.5987 3.0738 -2.0882 0.9820
-2.8581 2.8265 -2.0853 0.9820
-3.0944 2.5576 -2.0827 0.9821
-3.3058 2.2693 -2.0802 0.9821
-3.4908 1.9639 -2.0779 0.9821
-1.0898 0.4910 -0.6201 0.9946
-1.1275 0.2820 -0.6029 0.9948
-1.1517 0.1811 -0.6048 0.9948
-1.1649 -0.1303 -0.6081 0.9947
-1.1266 -0.3358 -0.6099 0.9947
-1.0665 -0.5389 -0.6199 0.9946
-3.3859 -2.1087 -2.0694 0.9822
-2.9617 -2.6787 -2.0717 0.9822
-2.7136 -2.9339 -2.0733 0.9822
-2.4438 -3.1665 -2.0751 0.9821
-2.1544 -3.3747 -2.0771 0.9821
-1.5253 -3.7116 -2.0817 0.9821
-1.1904 -3.8374 -2.0843 0.9821
-0.4925 -3.9985 -2.0900 0.9820
0.2249 -4.0342 -2.0961 0.9820
0.5840 -4.0042 -2.0993 0.9819
0.9395 -3.9424 -2.1025 0.9819
1.2887 -3.8491 -2.1058 0.9819
1.6286 -3.7248 -2.1090 0.9818
2.2701 -3.3871 -2.1153 0.9818
2.8427 -2.9393 -2.1213 0.9817
3.3273 -2.3948 -2.1268 0.9817
3.5313 -2.0916 -2.1292 0.9817
3.7074 -1.7709 -2.1315 0.9817
3.8540 -1.4353 -2.1335 0.9816
3.9698 -1.0874 -2.1353 0.9816
4.1052 -0.3668 -2.1382 0.9816
2.0356 0.1819 -1.1193 0.9907
2.0036 0.3610 -1.1150 0.9908
2.0004 0.5480 -1.1360 0.9906
3.5222 1.6824 -2.1379 0.9824
3.1655 2.2784 -2.1362 0.9824
2.9485 2.5496 -2.1349 0.9824
1.8668 3.4065 -2.1275 0.9824
0.8973 3.7653 -2.1200 0.9825
0.2149 3.8543 -2.1143 0.9825
-0.1288 3.8527 -2.1113 0.9826
-0.8075 3.7580 -2.1052 0.9826
-1.1371 3.6658 -2.1022 0.9826
-1.7640 3.3964 -2.0961 0.9827
-2.0564 3.2213 -2.0932 0.9827
-2.8233 2.5536 -2.0850 0.9828
-3.2240 2.0080 -2.0803 0.9828
-0.9364 0.4732 -0.5746 0.9952
-0.9825 0.2928 -0.5615 0.9953
-1.0000 0.2033 -0.5589 0.9954
-1.0293 0.1152 -0.5673 0.9953
-1.0166 -0.1598 -0.5637 0.9953
-0.9847 -0.2463 -0.5559 0.9954
-0.9756 -0.3388 -0.5656 0.9953
-0.9240 -0.5198 -0.5806 0.9952
-2.9170 -2.4109 -2.0727 0.9829
-2.6926 -2.6627 -2.0741 0.9829
-2.1814 -3.1030 -2.0775 0.9828
-0.6345 -3.7616 -2.0893 0.9828
-0.2976 -3.8082 -2.0921 0.9827
0.0426 -3.8249 -2.0950 0.9827
0.3834 -3.8113 -2.0980 0.9827
0.7222 -3.7675 -2.1011 0.9827
1.0562 -3.6936 -2.1041 0.9826
1.3827 -3.5902 -2.1072 0.9826
2.0031 -3.2976 -2.1132 0.9826
2.2919 -3.1105 -2.1161 0.9825
2.8144 -2.6618 -2.1217 0.9825
3.2494 -2.1257 -2.1267 0.9824
3.4293 -1.8299 -2.1289 0.9824
1.9407 -0.8229 -1.1546 0.9904
2.0042 0.4541 -1.1255 0.9907
1.9895 0.6415 -1.1449 0.9905
1.9407 0.8229 -1.1546 0.9904
3.2647 2.1357 -2.1367 0.9824
2.8310 2.6776 -2.1342 0.9824
2.5795 2.9167 -2.1326 0.9824
2.0178 3.3217 -2.1287 0.9824
1.3938 3.6188 -2.1239 0.9825
1.0648 3.7239 -2.1213 0.9825
0.7282 3.7990 -2.1186 0.9825
0.0430 3.8574 -2.1128 0.9826
-0.3001 3.8404 -2.1098 0.9826
-0.9734 3.7156 -2.1037 0.9826
-1.6121 3.4740 -2.0976 0.9827
-1.9122 3.3121 -2.0946 0.9827
-2.1964 3.1244 -2.0918 0.9827
-2.4624 2.9126 -2.0890 0.9828
-2.9325 2.4238 -2.0838 0.9828
-0.9847 0.2463 -0.5559 0.9954
-1.0166 0.1599 -0.5637 0.9953
-1.0293 -0.1151 -0.5673 0.9953
-1.0000 -0.2032 -0.5589 0.9954
-0.9364 -0.4732 -0.5746 0.9952
-2.5722 -2.7811 -2.0748 0.9829
-2.3164 -3.0014 -2.0765 0.9829
-1.7509 -3.3711 -2.0806 0.9828
-1.4455 -3.5175 -2.0829 0.9828
-1.1281 -3.6365 -2.0853 0.9828
-0.8009 -3.7271 -2.0880 0.9828
-0.4666 -3.7886 -2.0907 0.9827
-0.1277 -3.8203 -2.0936 0.9827
0.2131 -3.8219 -2.0965 0.9827
0.8899 -3.7343 -2.1026 0.9826
1.8529 -3.3812 -2.1117 0.9826
2.1495 -3.2073 -2.1147 0.9825
2.4298 -3.0073 -2.1176 0.9825
2.6913 -2.7828 -2.1204 0.9825
3.1498 -2.2670 -2.1255 0.9825
3.3427 -1.9799 -2.1279 0.9824
3.5092 -1.6762 -2.1300 0.9824
2.0036 -0.3610 -1.1150 0.9908
2.0356 -0.1819 -1.1193 0.9907
1.8754 0.0000 -1.0828 0.9914
1.8426 0.3320 -1.0810 0.9914
1.7194 0.8213 -1.1001 0.9912
2.5670 2.6543 -2.1319 0.9831
2.0523 3.0623 -2.1284 0.9831
1.7699 3.2297 -2.1263 0.9831
1.1667 3.4847 -2.1217 0.9832
0.8509 3.5705 -2.1191 0.9832
0.2038 3.6554 -2.1137 0.9832
-0.4463 3.6239 -2.1080 0.9833
-0.7660 3.5649 -2.1051 0.9833
-1.3821 3.3633 -2.0993 0.9833
-1.6737 3.2225 -2.0965 0.9834
-2.2128 2.8672 -2.0910 0.9834
-2.4561 2.6556 -2.0884 0.9834
-2.6796 2.4236 -2.0860 0.9835
-0.8491 0.5289 -0.5776 0.9954
-0.8760 0.4427 -0.5667 0.9955
-0.8932 0.3555 -0.5550 0.9956
-0.9273 -0.0621 -0.5366 0.9957
-0.9189 -0.1445 -0.5370 0.9957
-0.9030 -0.2258 -0.5374 0.9957
-0.8858 -0.3991 -0.5609 0.9955
-2.3227 -2.7473 -2.0771 0.9835
-2.0707 -2.9456 -2.0788 0.9835
-1.8020 -3.1210 -2.0807 0.9835
-1.2226 -3.3982 -2.0851 0.9835
-0.6021 -3.5696 -2.0901 0.9834
0.0404 -3.6292 -2.0955 0.9834
1.0019 -3.5039 -2.1041 0.9833
1.3116 -3.4056 -2.1070 0.9833
1.8998 -3.1275 -2.1127 0.9832
2.6687 -2.5240 -2.1208 0.9832
2.8861 -2.2791 -2.1232 0.9832
3.0808 -2.0154 -2.1255 0.9831
1.6861 -0.8997 -1.1034 0.9912
1.7564 -0.7448 -1.1014 0.9912
1.8108 -0.5839 -1.0985 0.9913
1.8316 -0.4150 -1.0843 0.9914
1.8592 -0.2500 -1.0831 0.9914
1.8592 0.2501 -1.0831 0.9914
1.8108 0.5839 -1.0985 0.9913
2.9007 2.2906 -2.1339 0.9831
1.6235 3.3036 -2.1252 0.9831
0.0408 3.6585 -2.1123 0.9832
-1.2318 3.4239 -2.1008 0.9833
-2.3368 2.7640 -2.0897 0.9834
-2.5704 2.5420 -2.0872 0.9834
-0.8638 0.4859 -0.5722 0.9954
-0.8858 0.3991 -0.5609 0.9955
-0.8983 0.3120 -0.5490 0.9956
-0.9189 0.1445 -0.5370 0.9957
-0.9237 -0.1033 -0.5366 0.9957
-0.9120 -0.1854 -0.5373 0.9957
-0.8491 -0.5288 -0.5776 0.9954
-2.4419 -2.6401 -2.0763 0.9835
-2.1989 -2.8492 -2.0779 0.9835
-1.9383 -3.0362 -2.0797 0.9835
-1.6620 -3.1998 -2.0817 0.9835
-1.0706 -3.4513 -2.0863 0.9834
-0.7601 -3.5371 -2.0888 0.9834
-0.4428 -3.5952 -2.0914 0.9834
0.8443 -3.5426 -2.1026 0.9833
1.4630 -3.3460 -2.1084 0.9833
2.0386 -3.0418 -2.1141 0.9832
2.3042 -2.8520 -2.1169 0.9832
2.5521 -2.6388 -2.1195 0.9832
2.7801 -2.4041 -2.1220 0.9832
1.7194 -0.8213 -1.1001 0.9912
1.7869 -0.6654 -1.1009 0.9912
1.8267 -0.5004 -1.0935 0.9913
1.8700 -0.1671 -1.0839 0.9914
