ply
format ascii 1.0
element vertex 554
property float32 x
property float32 y
property float32 z
property float32 I
end_header
-16.1394 10.0517 -5.3826 0.9240
-17.9616 -6.2369 -5.3826 0.9240
-17.3352 -7.8108 -5.3826 0.9240
18.8440 -2.5343 -5.3826 0.9240
12.5962 14.2427 -5.3826 0.9240
-15.6756 10.7607 -5.3826 0.9240
-17.6659 -7.0309 -5.3826 0.9240
17.9955 -0.0000 -5.5350 0.9275
17.9240 1.6017 -5.5350 0.9275
17.7103 3.1907 -5.5350 0.9275
16.8640 6.2802 -5.5350 0.9275
16.2381 7.7563 -5.5350 0.9275
15.4833 9.1708 -5.5350 0.9275
14.6056 10.5125 -5.5350 0.9275
13.6120 11.7707 -5.5350 0.9275
10.9979 13.6123 -5.3826 0.9294
-12.9789 11.7387 -5.3826 0.9294
-17.2458 5.1398 -5.5350 0.9275
-17.6349 3.5845 -5.5350 0.9275
-17.9553 -1.2020 -5.5350 0.9275
-17.4577 -4.3665 -5.5350 0.9275
-16.9919 -5.9002 -5.5325 0.9275
17.0674 -3.8670 -5.3826 0.9294
17.9776 -0.8016 -5.5350 0.9275
17.5506 3.9765 -5.5350 0.9275
17.1270 5.5228 -5.5350 0.9275
15.8765 8.4719 -5.5350 0.9275
15.0594 9.8514 -5.5350 0.9275
11.5934 13.1089 -5.3826 0.9294
-14.4277 9.9041 -5.3826 0.9294
-15.6838 8.8236 -5.5350 0.9275
-16.9997 5.9030 -5.5350 0.9275
-17.7770 2.7953 -5.5350 0.9275
-17.9553 1.2020 -5.5350 0.9275
-17.9910 -0.4009 -5.5350 0.9275
-17.8839 -2.0006 -5.5350 0.9275
-17.6349 -3.5844 -5.5350 0.9275
-16.2596 -6.4711 -5.3826 0.9294
-15.6191 -7.8926 -5.3826 0.9294
16.8782 -4.6234 -5.3826 0.9294
17.2227 -3.1028 -5.3826 0.9294
16.6514 0.0000 -5.5350 0.9322
16.5853 1.4821 -5.5350 0.9322
16.0597 4.3992 -5.5350 0.9322
15.0253 7.1770 -5.5350 0.9322
12.5953 10.8916 -5.5350 0.9322
-12.9286 9.7499 -5.3826 0.9340
-15.4711 6.1574 -5.5350 0.9322
-15.9578 4.7559 -5.5350 0.9322
-16.5482 1.8512 -5.5350 0.9322
-16.4493 -2.5865 -5.5350 0.9322
-14.7635 -6.6521 -5.3826 0.9340
16.6349 -0.7418 -5.5350 0.9322
16.6349 0.7418 -5.5350 0.9322
16.5028 2.2194 -5.5350 0.9322
16.2398 3.6795 -5.5350 0.9322
15.8478 5.1103 -5.5350 0.9322
13.0680 10.3197 -5.5350 0.9322
12.0976 11.4419 -5.5350 0.9322
10.7469 12.1517 -5.3923 0.9339
-15.1815 6.8404 -5.5350 0.9322
-16.1538 4.0403 -5.5350 0.9322
-16.4493 2.5865 -5.5350 0.9322
-16.6142 1.1122 -5.5350 0.9322
-16.6473 -0.3710 -5.5350 0.9322
-16.5482 -1.8512 -5.5350 0.9322
-16.3177 -3.3167 -5.5350 0.9322
15.6176 -4.2781 -5.3826 0.9340
16.5853 -1.4821 -5.5350 0.9322
15.4779 0.0000 -5.5350 0.9364
15.4165 1.3776 -5.5350 0.9364
14.9280 4.0892 -5.5350 0.9364
13.9664 6.6712 -5.5350 0.9364
10.7601 11.1259 -5.5350 0.9364
-11.1632 10.0965 -5.3826 0.9381
-12.3552 9.3175 -5.5339 0.9364
-13.1382 8.1825 -5.5350 0.9364
-13.8143 6.9807 -5.5350 0.9364
-14.8332 4.4208 -5.5350 0.9364
-15.3820 1.7207 -5.5350 0.9364
-15.4741 0.3448 -5.5350 0.9364
-15.4434 -1.0338 -5.5350 0.9364
-15.2901 -2.4042 -5.5350 0.9364
-14.6215 -5.0771 -5.5350 0.9364
-13.1182 -7.3802 -5.3826 0.9381
14.9399 -3.3849 -5.4780 0.9370
15.3398 -2.0630 -5.5350 0.9364
15.4626 -0.6895 -5.5350 0.9364
15.0953 3.4202 -5.5350 0.9364
13.6554 7.2867 -5.5350 0.9364
12.9526 8.4732 -5.5350 0.9364
11.2451 10.6355 -5.5350 0.9364
10.2485 11.5881 -5.5321 0.9364
7.8144 12.8643 -5.3826 0.9381
-11.7525 9.7137 -5.4525 0.9373
-12.7606 8.7597 -5.5350 0.9364
-13.4896 7.5892 -5.5350 0.9364
-15.2901 2.4042 -5.5350 0.9364
-15.4434 1.0338 -5.5350 0.9364
-14.8332 -4.4208 -5.5350 0.9364
-14.3808 -5.7234 -5.5350 0.9364
-12.7765 -7.9572 -5.3826 0.9381
14.1054 -5.2529 -5.3826 0.9381
15.2327 -2.7443 -5.5350 0.9364
15.4165 -1.3776 -5.5350 0.9364
14.3862 1.2856 -5.5350 0.9400
14.2147 2.5609 -5.5350 0.9400
13.9303 3.8159 -5.5350 0.9400
13.5354 5.0406 -5.5350 0.9400
13.0330 6.2254 -5.5350 0.9400
10.9253 9.4474 -5.5350 0.9400
10.0410 10.3823 -5.5350 0.9400
7.8197 11.6678 -5.3826 0.9416
-8.5816 11.1194 -5.3826 0.9416
-11.5319 8.6966 -5.5350 0.9400
-12.2601 7.6357 -5.5350 0.9400
-12.8911 6.5142 -5.5350 0.9400
-13.8419 4.1253 -5.5350 0.9400
-14.1541 2.8769 -5.5350 0.9400
-14.3540 1.6057 -5.5350 0.9400
-14.4399 0.3218 -5.5350 0.9400
-14.2682 -2.2436 -5.5350 0.9400
-13.6443 -4.7378 -5.5350 0.9400
-13.1612 -5.9302 -5.5320 0.9400
-11.5800 -7.9492 -5.3826 0.9416
13.3680 -4.3106 -5.3826 0.9416
14.3146 -1.9251 -5.5350 0.9400
14.4292 -0.6434 -5.5350 0.9400
14.4292 0.6434 -5.5350 0.9400
14.0865 3.1916 -5.5350 0.9400
13.7465 4.4327 -5.5350 0.9400
13.2974 5.6386 -5.5350 0.9400
10.4936 9.9247 -5.5350 0.9400
7.2922 12.0046 -5.3826 0.9416
6.1948 12.6060 -5.3826 0.9416
-8.0777 11.4907 -5.3826 0.9416
-9.9871 9.8764 -5.3826 0.9416
-11.1330 9.2017 -5.5350 0.9400
-11.9078 8.1743 -5.5350 0.9400
-12.5881 7.0820 -5.5350 0.9400
-13.6443 4.7378 -5.5350 0.9400
-14.0119 3.5046 -5.5350 0.9400
-14.4399 -0.3218 -5.5350 0.9400
-14.3540 -1.6057 -5.5350 0.9400
-14.1541 -2.8769 -5.5350 0.9400
-13.8419 -4.1253 -5.5350 0.9400
-13.4197 -5.3409 -5.5350 0.9400
-11.9226 -7.4254 -5.3826 0.9416
12.6742 -6.0539 -5.3826 0.9416
13.1627 -4.9019 -5.3826 0.9416
14.2147 -2.5609 -5.5350 0.9400
14.3862 -1.2856 -5.5350 0.9400
13.5240 0.0000 -5.5350 0.9432
13.4703 1.2037 -5.5350 0.9432
13.0434 3.5730 -5.5350 0.9432
12.6737 4.7197 -5.5350 0.9432
11.6360 6.8920 -5.5350 0.9432
9.4018 9.7213 -5.5350 0.9432
8.4992 10.5196 -5.5350 0.9432
7.3219 10.9250 -5.3826 0.9447
6.3204 11.5333 -5.3826 0.9447
5.2688 12.0501 -5.3826 0.9447
-8.0352 10.4115 -5.3826 0.9447
-8.9900 9.7199 -5.4188 0.9444
-10.0301 9.0717 -5.5350 0.9432
-10.7977 8.1429 -5.5350 0.9432
-11.4796 7.1496 -5.5350 0.9432
-12.0704 6.0994 -5.5350 0.9432
-12.5654 5.0009 -5.5350 0.9432
-2.1261 0.2378 -0.8756 0.9908
-2.1285 0.0474 -0.8714 0.9908
-2.1345 -0.3356 -0.8843 0.9907
-11.4622 -6.4485 -5.3826 0.9447
-10.8427 -7.4431 -5.3826 0.9447
-10.1372 -8.3786 -5.3826 0.9447
11.6030 -6.1915 -5.3826 0.9447
12.8294 -4.1370 -5.5170 0.9434
13.1897 -2.9884 -5.5350 0.9432
13.4033 -1.8026 -5.5350 0.9432
13.5105 0.6025 -5.5350 0.9432
13.4033 1.8026 -5.5350 0.9432
12.4508 5.2796 -5.5350 0.9432
11.9315 6.3668 -5.5350 0.9432
11.3175 7.4035 -5.5350 0.9432
10.6136 8.3815 -5.5350 0.9432
-6.5758 11.3896 -5.3826 0.9447
-7.5634 10.7591 -5.3826 0.9447
-8.4910 10.0432 -5.3826 0.9447
-9.6086 9.5021 -5.5307 0.9433
-11.1497 7.6538 -5.5350 0.9432
-11.7867 6.6311 -5.5350 0.9432
-12.7757 4.4362 -5.5350 0.9432
-2.1308 0.5329 -0.8989 0.9906
-2.1261 -0.2378 -0.8756 0.9908
-12.9606 -3.8627 -5.5350 0.9432
-12.5654 -5.0009 -5.5350 0.9432
-10.5004 -7.9187 -5.3826 0.9447
11.3156 -6.7023 -5.3826 0.9447
12.3247 -4.5898 -5.3826 0.9447
13.3097 -2.3979 -5.5350 0.9432
13.4703 -1.2037 -5.5350 0.9432
12.6499 1.1304 -5.5350 0.9461
12.4991 2.2518 -5.5350 0.9461
11.9018 4.4323 -5.5350 0.9461
10.9274 6.4723 -5.5350 0.9461
8.8292 9.1293 -5.5350 0.9461
5.9355 10.8309 -5.3826 0.9475
4.9479 11.3162 -5.3826 0.9475
3.9211 11.7117 -5.3826 0.9475
-3.6592 11.7961 -5.3826 0.9475
-4.6946 11.4236 -5.3826 0.9475
-9.4192 8.5192 -5.5350 0.9461
-10.7805 6.7141 -5.5350 0.9461
-11.8001 4.6963 -5.5350 0.9461
-1.9299 0.3923 -0.8583 0.9914
-1.9433 0.2174 -0.8522 0.9915
-1.9479 -0.1304 -0.8508 0.9915
-1.9397 -0.3050 -0.8557 0.9915
-1.9080 -0.4772 -0.8571 0.9915
-1.8290 -0.6351 -0.8438 0.9916
-11.5792 -5.2173 -5.5350 0.9461
-11.0242 -6.2021 -5.5127 0.9463
-10.1824 -6.9898 -5.3826 0.9475
10.8963 -5.8145 -5.3826 0.9475
12.0874 -3.8977 -5.5350 0.9461
12.3864 -2.8064 -5.5350 0.9461
12.5870 1.6928 -5.5350 0.9461
12.0874 3.8977 -5.5350 0.9461
11.6926 4.9581 -5.5350 0.9461
11.2049 5.9791 -5.5350 0.9461
9.9672 7.8710 -5.5350 0.9461
5.4471 11.0846 -5.3826 0.9475
3.3955 11.8747 -5.3826 0.9475
-5.1988 11.2031 -5.3826 0.9475
-6.1753 10.6960 -5.3826 0.9475
-7.1028 10.1039 -5.3826 0.9475
-8.1887 9.6857 -5.5276 0.9462
-9.7894 8.0911 -5.5350 0.9461
-10.4707 7.1877 -5.5350 0.9461
-11.0689 6.2272 -5.5350 0.9461
-11.5792 5.2173 -5.5350 0.9461
-1.9470 -0.0434 -0.8487 0.9915
-1.9433 -0.2174 -0.8522 0.9915
-1.9300 -0.3923 -0.8583 0.9914
-1.8741 -0.5585 -0.8523 0.9915
10.6265 -6.2941 -5.3826 0.9475
11.1445 -5.3233 -5.3826 0.9475
12.2491 -3.3554 -5.5350 0.9461
11.9577 -0.0000 -5.5350 0.9487
11.7682 2.1201 -5.5350 0.9487
11.5328 3.1592 -5.5350 0.9487
11.2058 4.1731 -5.5350 0.9487
10.2884 6.0938 -5.5350 0.9487
9.0449 7.8214 -5.5350 0.9487
8.3129 8.5954 -5.5350 0.9487
7.5148 9.3012 -5.5350 0.9487
3.6918 11.0268 -5.3826 0.9500
2.6957 11.3116 -5.3826 0.9500
-0.3886 11.6219 -5.3826 0.9500
-1.4214 11.5412 -5.3826 0.9500
-2.4430 11.3689 -5.3826 0.9500
-3.4452 11.1063 -5.3826 0.9500
-6.2570 9.8015 -5.3826 0.9500
-7.3010 9.4602 -5.5315 0.9487
-8.1193 8.7785 -5.5350 0.9487
-8.8684 8.0210 -5.5350 0.9487
-9.5471 7.1998 -5.5350 0.9487
-10.1501 6.3215 -5.5350 0.9487
-1.5257 0.6072 -0.7601 0.9928
-1.6373 0.3328 -0.7734 0.9927
-1.6675 0.1865 -0.7767 0.9926
-1.6716 0.0373 -0.7739 0.9927
-1.6738 -0.1120 -0.7765 0.9926
-10.4180 -5.8611 -5.5331 0.9487
-9.5869 -6.5811 -5.3826 0.9500
-8.9632 -7.4082 -5.3826 0.9500
-8.2682 -8.1766 -5.3826 0.9500
9.7312 -6.3659 -5.3826 0.9500
11.6621 -2.6423 -5.5350 0.9487
11.8510 -1.5938 -5.5350 0.9487
11.9458 -0.5327 -5.5350 0.9487
11.9458 0.5327 -5.5350 0.9487
10.5496 5.6294 -5.5350 0.9487
9.3844 7.4108 -5.5350 0.9487
5.1286 10.4364 -5.3826 0.9500
3.1969 11.1803 -5.3826 0.9500
2.1891 11.4205 -5.3826 0.9500
1.1640 11.5700 -5.3826 0.9500
-0.9059 11.5931 -5.3826 0.9500
-1.9341 11.4664 -5.3826 0.9500
-2.9470 11.2488 -5.3826 0.9500
-3.9365 10.9418 -5.3826 0.9500
-5.8142 10.0705 -5.3826 0.9500
-6.8233 9.7063 -5.4920 0.9490
-8.5023 8.4081 -5.5350 0.9487
-9.2169 7.6180 -5.5350 0.9487
-10.4216 5.8631 -5.5350 0.9487
-1.6165 0.4043 -0.7713 0.9927
-1.6716 -0.0373 -0.7739 0.9927
-1.6373 -0.3328 -0.7734 0.9927
-1.5924 -0.4746 -0.7692 0.9927
-10.6724 -5.3930 -5.5350 0.9487
-9.9794 -6.2152 -5.4419 0.9495
-9.2843 -7.0016 -5.3826 0.9500
-8.6242 -7.8001 -5.3826 0.9500
9.4379 -6.7930 -5.3826 0.9500
11.2056 -4.1730 -5.5349 0.9487
11.5328 -3.1592 -5.5350 0.9487
10.8830 2.9812 -5.5350 0.9510
10.1820 4.8635 -5.5350 0.9510
9.7087 5.7505 -5.5350 0.9510
8.5353 7.3807 -5.5350 0.9510
6.2821 9.3735 -5.5350 0.9510
5.4219 9.8937 -5.5340 0.9510
2.5438 10.6743 -5.3826 0.9523
0.6109 10.9562 -5.3826 0.9523
-1.3413 10.8909 -5.3826 0.9523
-2.3054 10.7283 -5.3826 0.9523
-3.2511 10.4805 -5.3826 0.9523
-5.0578 9.7381 -5.3826 0.9523
-7.6618 8.2839 -5.5350 0.9510
-8.3687 7.5691 -5.5350 0.9510
-9.0092 6.7942 -5.5350 0.9510
-9.5782 5.9653 -5.5350 0.9510
-10.0711 5.0892 -5.5350 0.9510
-1.3059 0.5197 -0.6895 0.9938
-1.3200 0.3934 -0.6756 0.9939
-1.3047 0.2652 -0.6531 0.9941
-1.3419 0.1501 -0.6624 0.9940
-1.3257 -0.2085 -0.6583 0.9940
-1.3171 -0.4573 -0.6839 0.9938
-1.2865 -0.5797 -0.6922 0.9937
-9.0668 -6.2240 -5.3945 0.9522
7.9723 -7.5401 -5.3826 0.9523
11.0050 -2.4934 -5.5350 0.9510
11.2727 -0.5027 -5.5350 0.9510
11.2727 0.5027 -5.5350 0.9510
9.9552 5.3123 -5.5350 0.9510
9.4429 6.1772 -5.5350 0.9510
8.8556 6.9932 -5.5350 0.9510
8.1980 7.7536 -5.5350 0.9510
6.6934 9.0843 -5.5350 0.9510
4.9710 10.1157 -5.5288 0.9510
3.9439 10.2400 -5.3826 0.9523
3.0168 10.5504 -5.3826 0.9523
2.0658 10.7770 -5.3826 0.9523
1.0984 10.9181 -5.3826 0.9523
-0.8549 10.9399 -5.3826 0.9523
-1.8252 10.8204 -5.3826 0.9523
-2.7810 10.6150 -5.3826 0.9523
-3.7147 10.3253 -5.3826 0.9523
-6.4893 9.2312 -5.5350 0.9510
-7.2852 8.6170 -5.5350 0.9510
-8.0232 7.9344 -5.5350 0.9510
-9.3029 6.3861 -5.5350 0.9510
-9.8344 5.5327 -5.5350 0.9510
-1.2865 0.5797 -0.6922 0.9937
-1.3171 0.4573 -0.6839 0.9938
-1.3149 0.3289 -0.6649 0.9940
-1.3513 0.0905 -0.6643 0.9940
-1.3536 -0.0302 -0.6641 0.9940
-1.3047 -0.2652 -0.6531 0.9941
-1.3059 -0.5198 -0.6895 0.9938
-10.0711 -5.0891 -5.5350 0.9510
-9.5720 -5.9615 -5.5314 0.9510
9.4414 -5.5921 -5.3826 0.9523
10.1697 -4.8577 -5.5284 0.9510
10.5744 -3.9380 -5.5350 0.9510
10.2902 2.8188 -5.5350 0.9531
9.1799 5.4373 -5.5350 0.9531
8.0704 6.9787 -5.5350 0.9531
7.4172 7.6694 -5.5350 0.9531
6.7052 8.2991 -5.5350 0.9531
5.9399 8.8629 -5.5350 0.9531
5.1275 9.3565 -5.5350 0.9531
4.2723 9.7710 -5.5324 0.9531
3.3279 9.9400 -5.4380 0.9539
2.4053 10.0929 -5.3826 0.9543
1.4974 10.2669 -5.3826 0.9543
0.5776 10.3594 -5.3826 0.9543
-2.1798 10.1440 -5.3826 0.9543
-3.0740 9.9097 -5.3826 0.9543
-4.9146 9.4622 -5.5314 0.9531
-5.7410 8.9931 -5.5350 0.9531
-6.5186 8.4464 -5.5350 0.9531
-7.2445 7.8327 -5.5350 0.9531
-7.9129 7.1568 -5.5350 0.9531
-8.5185 6.4241 -5.5350 0.9531
-9.0565 5.6404 -5.5350 0.9531
-1.0665 0.5389 -0.6199 0.9946
-1.1070 0.4406 -0.6181 0.9946
-1.1649 0.1303 -0.6081 0.9947
-1.1739 -0.0786 -0.6103 0.9947
-1.1275 -0.2820 -0.6029 0.9948
-8.7886 -6.0330 -5.5302 0.9531
-7.3774 -7.2956 -5.3826 0.9543
6.8736 -7.7721 -5.3826 0.9543
8.1427 -6.4302 -5.3826 0.9543
8.6827 -5.6800 -5.3826 0.9543
9.4024 -5.0173 -5.5288 0.9531
9.8227 -4.1652 -5.5350 0.9531
10.1544 -3.2744 -5.5350 0.9531
10.5741 1.4221 -5.5350 0.9531
10.4056 2.3576 -5.5350 0.9531
9.8227 4.1652 -5.5350 0.9531
9.4130 5.0229 -5.5350 0.9531
8.9286 5.8408 -5.5350 0.9531
7.7515 7.3313 -5.5350 0.9531
7.0682 7.9922 -5.5350 0.9531
3.8299 9.9442 -5.5282 0.9531
1.9533 10.1900 -5.3826 0.9543
1.0385 10.3234 -5.3826 0.9543
0.1156 10.3749 -5.3826 0.9543
-2.6295 10.0368 -5.3826 0.9543
-3.5124 9.7629 -5.3826 0.9543
-4.4854 9.6657 -5.5280 0.9531
-5.3347 9.2399 -5.5350 0.9531
-6.1359 8.7284 -5.5350 0.9531
-7.5862 7.5022 -5.5350 0.9531
-8.7962 6.0383 -5.5350 0.9531
-1.0898 0.4910 -0.6201 0.9946
-1.1275 0.2820 -0.6029 0.9948
-1.1517 0.1811 -0.6048 0.9948
-1.1785 -0.0263 -0.6115 0.9947
-1.1332 -0.2303 -0.5999 0.9948
-1.0665 -0.5389 -0.6199 0.9946
-8.2840 -6.2472 -5.3826 0.9543
-7.6950 -6.9598 -5.3826 0.9543
-7.0451 -7.6170 -5.3826 0.9543
-6.3391 -8.2138 -5.3826 0.9543
7.2130 -7.4582 -5.3826 0.9543
7.8482 -6.7866 -5.3826 0.9543
9.9985 -3.7235 -5.5350 0.9531
10.2902 -2.8188 -5.5350 0.9531
10.6270 -0.9496 -5.5350 0.9531
2.0429 0.0000 -1.1189 0.9907
2.0356 0.1819 -1.1193 0.9907
2.0036 0.3610 -1.1150 0.9908
1.9714 0.7342 -1.1522 0.9905
9.1190 4.3558 -5.5350 0.9550
4.8567 8.8623 -5.5350 0.9550
4.0486 9.2594 -5.5350 0.9550
0.5471 9.8124 -5.3826 0.9562
-1.2013 9.7539 -5.3826 0.9562
-2.0877 9.7153 -5.4426 0.9557
-3.8402 9.3446 -5.5334 0.9550
-4.6580 8.9683 -5.5350 0.9550
-6.1744 8.0004 -5.5350 0.9550
-7.4950 6.7789 -5.5350 0.9550
-0.9364 0.4732 -0.5746 0.9952
-0.9638 0.3836 -0.5681 0.9953
-1.0000 0.2033 -0.5589 0.9954
-1.0293 0.1151 -0.5673 0.9953
-1.0415 0.0232 -0.5706 0.9953
-0.9756 -0.3388 -0.5656 0.9953
-0.9472 -0.4268 -0.5690 0.9953
-0.9240 -0.5198 -0.5806 0.9952
-8.3317 -5.7194 -5.5350 0.9550
-7.5751 -6.2610 -5.3826 0.9562
-6.3450 -7.5049 -5.3826 0.9562
-5.6518 -8.0398 -5.3826 0.9562
7.1400 -6.7529 -5.3826 0.9562
8.2364 -5.3880 -5.3906 0.9561
1.9895 -0.6415 -1.1449 0.9905
2.0226 0.2720 -1.1178 0.9907
1.9895 0.6415 -1.1449 0.9905
8.9159 4.7577 -5.5350 0.9550
8.4570 5.5323 -5.5350 0.9550
7.9311 6.2631 -5.5350 0.9550
6.6949 7.5701 -5.5350 0.9550
5.9946 8.1359 -5.5350 0.9550
4.4571 9.0699 -5.5350 0.9550
1.8753 9.7833 -5.4559 0.9556
-0.7656 9.7977 -5.3826 0.9562
-1.6401 9.7231 -5.4006 0.9560
-2.5428 9.7056 -5.4952 0.9553
-4.2539 9.1669 -5.5350 0.9550
-5.8118 8.2675 -5.5350 0.9550
-6.5246 7.7174 -5.5350 0.9550
-7.1856 7.1060 -5.5350 0.9550
-7.7896 6.4383 -5.5350 0.9550
-0.9240 0.5198 -0.5806 0.9952
-0.9472 0.4268 -0.5690 0.9953
-0.9847 0.2463 -0.5559 0.9954
-1.0166 0.1599 -0.5637 0.9953
-1.0415 -0.0232 -0.5706 0.9953
-0.9638 -0.3836 -0.5681 0.9953
-0.9364 -0.4732 -0.5746 0.9952
-8.5782 -5.3426 -5.5350 0.9550
-6.6730 -7.2148 -5.3826 0.9562
-5.2881 -8.2836 -5.3826 0.9562
6.1762 -7.6444 -5.3826 0.9562
7.4337 -6.4282 -5.3826 0.9562
9.1190 -4.3558 -5.5350 0.9550
2.0004 -0.5480 -1.1360 0.9906
2.0356 -0.1819 -1.1193 0.9907
1.8754 0.0000 -1.0828 0.9914
1.8700 0.1671 -1.0839 0.9914
1.7194 0.8213 -1.1001 0.9912
7.7810 5.6004 -5.5350 0.9567
6.0249 7.4572 -5.5350 0.9567
4.6073 8.4073 -5.5350 0.9567
3.0437 9.0909 -5.5350 0.9567
-0.3200 9.5721 -5.5296 0.9567
-1.1710 9.5075 -5.5307 0.9567
-3.6441 8.8674 -5.5350 0.9567
-5.1586 8.0807 -5.5350 0.9567
-7.6543 5.7724 -5.5350 0.9567
-0.9012 0.2686 -0.5429 0.9957
-0.9120 0.1854 -0.5373 0.9957
-0.9237 0.1033 -0.5366 0.9957
-0.9306 0.0207 -0.5374 0.9957
-0.9273 -0.0621 -0.5366 0.9957
-0.9189 -0.1445 -0.5370 0.9957
-0.8638 -0.4859 -0.5722 0.9954
-7.9039 -5.4257 -5.5350 0.9567
-6.6290 -6.5555 -5.3826 0.9579
-6.0192 -7.1195 -5.3826 0.9579
4.8402 -7.9681 -5.3826 0.9579
6.7733 -6.4062 -5.3826 0.9579
7.3167 -5.7779 -5.3826 0.9579
1.7564 -0.7448 -1.1014 0.9912
1.8755 -0.0836 -1.0839 0.9914
1.8592 0.2500 -1.0831 0.9914
1.8108 0.5839 -1.0985 0.9913
7.5238 5.9415 -5.5350 0.9567
6.9651 6.5876 -5.5350 0.9567
5.6868 7.7182 -5.5350 0.9567
4.9772 8.1937 -5.5350 0.9567
4.2282 8.6041 -5.5350 0.9567
3.4456 8.9463 -5.5350 0.9567
1.8043 9.4127 -5.5334 0.9567
0.9588 9.5312 -5.5306 0.9567
-1.5936 9.4477 -5.5317 0.9567
-2.4295 9.2733 -5.5346 0.9567
-3.2454 9.0209 -5.5350 0.9567
-4.7935 8.3025 -5.5350 0.9567
-6.1896 7.3211 -5.5350 0.9567
-7.3896 6.1076 -5.5350 0.9567
-7.9039 5.4257 -5.5350 0.9567
-0.8858 0.3991 -0.5609 0.9955
-0.9030 0.2259 -0.5374 0.9957
-0.9189 0.1445 -0.5370 0.9957
-0.9273 0.0621 -0.5366 0.9957
-0.9012 -0.2686 -0.5429 0.9957
-0.8932 -0.3555 -0.5550 0.9956
-0.8491 -0.5288 -0.5776 0.9954
-7.6538 -5.7720 -5.5346 0.9567
-5.0165 -7.8583 -5.3826 0.9579
5.8590 -7.2518 -5.3826 0.9579
7.6360 -5.4961 -5.4319 0.9575
8.2486 -4.8857 -5.5350 0.9567
1.7869 -0.6654 -1.1009 0.9912
1.8426 -0.3320 -1.0810 0.9914
