ply
format ascii 1.0
element vertex 625
property float32 x
property float32 y
property float32 z
property float32 I
end_header
18.0236 3.2471 -5.1845 0.9267
17.6631 4.8384 -5.1845 0.9267
17.1624 6.3913 -5.1845 0.9267
14.8640 10.6985 -5.1845 0.9267
13.8528 11.9790 -5.1845 0.9267
12.7137 13.1458 -5.1772 0.9268
-15.5241 9.6685 -5.1774 0.9268
-16.3454 8.2597 -5.1845 0.9267
-17.0157 6.7721 -5.1845 0.9267
-18.2003 2.0360 -5.1845 0.9267
-18.2729 -1.2232 -5.1845 0.9267
-18.0915 -2.8448 -5.1845 0.9267
17.3361 -3.9279 -5.0321 0.9288
17.6169 -2.3693 -5.0321 0.9288
17.4300 5.6205 -5.1845 0.9267
16.8606 7.1495 -5.1845 0.9267
16.1574 8.6218 -5.1845 0.9267
14.3727 11.3500 -5.1845 0.9267
13.3054 12.5842 -5.1845 0.9267
11.7759 13.3152 -5.0321 0.9288
10.5441 14.3105 -5.0321 0.9288
-14.6548 10.0600 -5.0321 0.9288
-15.9613 8.9797 -5.1845 0.9267
-16.6971 7.5234 -5.1845 0.9267
-17.3005 6.0074 -5.1845 0.9267
-17.7665 4.4437 -5.1845 0.9267
-18.0915 2.8448 -5.1845 0.9267
-18.2729 1.2232 -5.1845 0.9267
-16.5155 -6.5730 -5.0321 0.9288
-15.8650 -8.0169 -5.0321 0.9288
17.4938 -3.1517 -5.0321 0.9288
18.2296 -1.6290 -5.1812 0.9267
16.8559 -0.0000 -5.1845 0.9319
16.5888 2.9886 -5.1845 0.9319
13.6807 9.8468 -5.1845 0.9319
10.2818 12.7259 -5.0321 0.9338
-13.0624 9.8508 -5.0321 0.9338
-15.6611 6.2330 -5.1845 0.9319
-16.7514 1.8739 -5.1845 0.9319
-16.8517 0.3755 -5.1845 0.9319
-16.8183 -1.1259 -5.1845 0.9319
-15.9233 -5.5291 -5.1845 0.9319
-14.2588 -8.0218 -5.0321 0.9338
16.7005 -2.2460 -5.1829 0.9319
16.8392 -0.7509 -5.1845 0.9319
16.7055 2.2467 -5.1845 0.9319
16.4392 3.7246 -5.1845 0.9319
14.1058 9.2276 -5.1845 0.9319
13.2285 10.4464 -5.1845 0.9319
12.2462 11.5824 -5.1845 0.9319
10.8385 12.2552 -5.0321 0.9338
-11.6328 11.5039 -5.0321 0.9338
-14.6906 8.2648 -5.1845 0.9319
-15.3679 6.9244 -5.1845 0.9319
-15.9232 5.5292 -5.1845 0.9319
-16.6513 2.6183 -5.1845 0.9319
-16.7514 -1.8739 -5.1845 0.9319
-16.1537 -4.8143 -5.1845 0.9319
-15.5847 -6.2025 -5.1592 0.9322
-14.6020 -7.3787 -5.0321 0.9338
15.7791 -4.3224 -5.0321 0.9338
15.5350 1.3882 -5.1845 0.9364
15.3498 2.7654 -5.1845 0.9364
15.0428 4.1206 -5.1845 0.9364
14.6163 5.4432 -5.1845 0.9364
14.0738 6.7225 -5.1845 0.9364
13.4196 7.9485 -5.1845 0.9364
12.6589 9.1113 -5.1845 0.9364
11.7977 10.2019 -5.1845 0.9364
9.5138 11.7754 -5.0321 0.9382
8.4280 12.5754 -5.0321 0.9382
-11.2275 10.1547 -5.0321 0.9382
-12.4472 9.3869 -5.1822 0.9364
-14.9472 4.4548 -5.1845 0.9364
-14.7340 -5.1162 -5.1845 0.9364
13.9372 -5.9099 -5.0321 0.9382
14.9503 -3.3873 -5.0955 0.9374
15.4578 -2.0789 -5.1845 0.9364
15.5815 -0.6948 -5.1845 0.9364
15.5815 0.6948 -5.1845 0.9364
15.4578 2.0789 -5.1845 0.9364
15.2114 3.4464 -5.1845 0.9364
14.8443 4.7867 -5.1845 0.9364
14.3593 6.0889 -5.1845 0.9364
13.7604 7.3428 -5.1845 0.9364
13.0522 8.5384 -5.1845 0.9364
12.2405 9.6662 -5.1845 0.9364
8.9798 12.1875 -5.0321 0.9382
-10.7640 10.6447 -5.0321 0.9382
-11.7594 9.7194 -5.0712 0.9377
-13.5934 7.6475 -5.1845 0.9364
-14.2201 6.4073 -5.1845 0.9364
-14.7340 5.1162 -5.1845 0.9364
-15.4076 2.4227 -5.1845 0.9364
-15.5621 1.0418 -5.1845 0.9364
-15.5003 -1.7340 -5.1845 0.9364
-15.2844 -3.1067 -5.1845 0.9364
-12.8501 -8.0031 -5.0321 0.9382
14.1867 -5.2832 -5.0321 0.9382
15.3480 -2.7651 -5.1839 0.9364
15.5350 -1.3882 -5.1845 0.9364
14.4978 0.0000 -5.1845 0.9403
14.4402 1.2904 -5.1845 0.9403
14.2681 2.5705 -5.1845 0.9403
13.9827 3.8303 -5.1845 0.9403
13.5863 5.0596 -5.1845 0.9403
10.9663 9.4829 -5.1845 0.9403
9.1019 11.2656 -5.1792 0.9403
6.7626 12.3401 -5.0321 0.9420
-8.5973 11.1399 -5.0321 0.9420
-9.5547 10.3304 -5.0321 0.9420
-11.5752 8.7293 -5.1845 0.9403
-12.3062 7.6644 -5.1845 0.9403
-12.9395 6.5386 -5.1845 0.9403
-13.8939 4.1408 -5.1845 0.9403
-14.2073 2.8878 -5.1845 0.9403
-14.4079 1.6118 -5.1845 0.9403
-14.4942 0.3230 -5.1845 0.9403
-14.3218 -2.2520 -5.1845 0.9403
-14.0645 -3.5178 -5.1845 0.9403
-13.6956 -4.7556 -5.1845 0.9403
-13.2093 -5.9518 -5.1811 0.9403
14.3684 -1.9324 -5.1845 0.9403
14.4834 -0.6458 -5.1845 0.9403
14.4834 0.6458 -5.1845 0.9403
14.3684 1.9324 -5.1845 0.9403
13.3474 5.6598 -5.1845 0.9403
12.7907 6.8253 -5.1845 0.9403
12.1324 7.9367 -5.1845 0.9403
11.3779 8.9850 -5.1845 0.9403
9.6045 10.8600 -5.1845 0.9403
-8.0925 11.5118 -5.0321 0.9420
-11.1748 9.2363 -5.1845 0.9403
-12.6354 7.1086 -5.1845 0.9403
-13.2180 5.9557 -5.1845 0.9403
-13.6956 4.7556 -5.1845 0.9403
-14.4942 -0.3230 -5.1845 0.9403
-14.4079 -1.6118 -5.1845 0.9403
12.6975 -6.0651 -5.0321 0.9420
13.1869 -4.9108 -5.0321 0.9420
14.2681 -2.5705 -5.1845 0.9403
13.3145 2.3987 -5.1845 0.9437
13.0482 3.5743 -5.1845 0.9437
12.6783 4.7214 -5.1845 0.9437
12.2077 5.8311 -5.1845 0.9437
10.9804 7.9032 -5.1845 0.9437
10.2334 8.8492 -5.1845 0.9437
9.4052 9.7249 -5.1845 0.9437
8.5023 10.5234 -5.1845 0.9437
7.3105 10.9080 -5.0321 0.9453
6.3106 11.5154 -5.0321 0.9453
5.2606 12.0314 -5.0321 0.9453
-6.0525 11.6531 -5.0321 0.9453
-8.9891 9.7189 -5.0733 0.9449
-12.0748 6.1017 -5.1845 0.9437
-13.5255 0.3014 -5.1845 0.9437
-13.3647 -2.1015 -5.1845 0.9437
-12.7803 -4.4378 -5.1845 0.9437
-12.3346 -5.5577 -5.1845 0.9437
-10.8259 -7.4316 -5.0321 0.9453
12.0892 -5.1263 -5.0321 0.9453
13.4082 -1.8032 -5.1845 0.9437
13.5155 -0.6027 -5.1845 0.9437
13.4082 1.8032 -5.1845 0.9437
12.8760 4.1520 -5.1845 0.9437
12.4554 5.2815 -5.1845 0.9437
11.9358 6.3692 -5.1845 0.9437
11.3216 7.4062 -5.1845 0.9437
10.6175 8.3845 -5.1845 0.9437
5.7914 11.7851 -5.0321 0.9453
4.7195 12.2538 -5.0321 0.9453
-6.5656 11.3719 -5.0321 0.9453
-7.5517 10.7424 -5.0321 0.9453
-8.4779 10.0277 -5.0321 0.9453
-10.4280 8.6190 -5.1845 0.9437
-12.3346 5.5577 -5.1845 0.9437
-12.7803 4.4378 -5.1845 0.9437
-13.1246 3.2827 -5.1845 0.9437
-13.3647 2.1015 -5.1845 0.9437
11.2981 -6.6919 -5.0321 0.9453
11.8489 -5.6597 -5.0321 0.9453
13.3145 -2.3987 -5.1845 0.9437
13.4752 -1.2042 -5.1845 0.9437
12.6676 0.0000 -5.1845 0.9467
12.6173 1.1275 -5.1845 0.9467
12.4668 2.2460 -5.1845 0.9467
8.8064 9.1057 -5.1845 0.9467
7.0464 10.5140 -5.1801 0.9468
5.9088 10.7823 -5.0321 0.9482
4.9257 11.2654 -5.0321 0.9482
3.9035 11.6591 -5.0321 0.9482
2.8503 11.9602 -5.0321 0.9482
-4.6735 11.3723 -5.0321 0.9482
-5.6672 10.9112 -5.0321 0.9482
-7.5120 9.7335 -5.0321 0.9482
-10.7526 6.6968 -5.1845 0.9467
-11.3060 5.7132 -5.1845 0.9467
-11.7697 4.6842 -5.1845 0.9467
-12.1399 3.6181 -5.1845 0.9467
-2.1365 0.4343 -0.8923 0.9906
-2.1261 0.2378 -0.8756 0.9908
-2.1285 0.0474 -0.8714 0.9908
-2.1302 -0.1426 -0.8738 0.9908
-2.1345 -0.3356 -0.8843 0.9907
-11.9666 -4.1553 -5.1845 0.9467
-11.0200 -6.1997 -5.1750 0.9468
-9.4771 -7.8330 -5.0321 0.9482
10.8474 -5.7884 -5.0321 0.9482
12.3544 -2.7992 -5.1845 0.9467
12.5545 -1.6884 -5.1845 0.9467
12.6550 -0.5643 -5.1845 0.9467
12.5545 1.6884 -5.1845 0.9467
11.6624 4.9453 -5.1845 0.9467
8.3920 9.4890 -5.1845 0.9467
7.5141 10.1983 -5.1845 0.9467
6.4144 10.5595 -5.0566 0.9480
4.4190 11.4736 -5.0321 0.9482
3.3802 11.8214 -5.0321 0.9482
-4.1623 11.5692 -5.0321 0.9482
-5.1755 11.1529 -5.0321 0.9482
-7.0709 10.0585 -5.0321 0.9482
-8.1675 9.6606 -5.1776 0.9468
-9.7641 8.0702 -5.1845 0.9467
-11.0403 6.2112 -5.1845 0.9467
-11.5493 5.2039 -5.1845 0.9467
-11.9666 4.1553 -5.1845 0.9467
-2.1308 0.5329 -0.8989 0.9906
-2.1285 -0.0474 -0.8714 0.9908
-2.1261 -0.2378 -0.8756 0.9908
-2.1365 -0.4343 -0.8923 0.9906
-11.7697 -4.6842 -5.1845 0.9467
-9.8166 -7.4031 -5.0321 0.9482
-9.1188 -8.2474 -5.0321 0.9482
10.5788 -6.2658 -5.0321 0.9482
11.0945 -5.2994 -5.0321 0.9482
12.2175 -3.3467 -5.1845 0.9467
12.4668 -2.2460 -5.1845 0.9467
12.6173 -1.1275 -5.1845 0.9467
11.8961 -0.0000 -5.1845 0.9494
11.7076 2.1092 -5.1845 0.9494
11.4734 3.1429 -5.1845 0.9494
10.7344 5.1274 -5.1845 0.9494
9.6552 6.9494 -5.1845 0.9494
8.2701 8.5512 -5.1845 0.9494
7.4761 9.2533 -5.1845 0.9494
5.6760 10.3574 -5.1473 0.9498
4.6257 10.5793 -5.0321 0.9509
3.6658 10.9490 -5.0321 0.9509
1.6664 11.4255 -5.0321 0.9509
-2.4258 11.2887 -5.0321 0.9509
-3.4209 11.0280 -5.0321 0.9509
-4.3889 10.6797 -5.0321 0.9509
-5.3220 10.2467 -5.0321 0.9509
-6.2131 9.7326 -5.0322 0.9509
-7.2643 9.4126 -5.1818 0.9494
-8.8227 7.9797 -5.1845 0.9494
-10.0978 6.2890 -5.1845 0.9494
-10.6175 5.3652 -5.1845 0.9494
-11.0529 4.3989 -5.1845 0.9494
-1.9479 -0.1304 -0.8508 0.9915
-1.9397 -0.3050 -0.8557 0.9915
-1.8290 -0.6351 -0.8438 0.9916
-10.8459 -4.8869 -5.1845 0.9494
-10.3652 -5.8313 -5.1831 0.9494
9.0616 -7.1559 -5.0321 0.9509
9.6625 -6.3210 -5.0321 0.9509
10.9385 -4.6383 -5.1780 0.9495
11.3220 -3.6509 -5.1845 0.9494
11.8843 -0.5299 -5.1845 0.9494
11.8843 0.5299 -5.1845 0.9494
11.7899 1.5856 -5.1845 0.9494
11.6020 2.6287 -5.1845 0.9494
10.4953 5.6005 -5.1845 0.9494
8.6428 8.1743 -5.1845 0.9494
7.0565 9.5772 -5.1845 0.9494
4.1499 10.7749 -5.0321 0.9509
1.1557 11.4884 -5.0321 0.9509
-0.8995 11.5113 -5.0321 0.9509
-2.9263 11.1694 -5.0321 0.9509
-3.9088 10.8646 -5.0321 0.9509
-4.8603 10.4736 -5.0321 0.9509
-5.7732 9.9995 -5.0321 0.9509
-6.8198 9.7013 -5.1682 0.9496
-7.6804 9.0845 -5.1845 0.9494
-8.4585 8.3648 -5.1845 0.9494
-9.8076 6.7326 -5.1845 0.9494
-10.3679 5.8329 -5.1845 0.9494
-10.8459 4.8869 -5.1845 0.9494
-1.8290 0.6351 -0.8438 0.9916
-1.9080 0.4772 -0.8571 0.9915
-1.9397 0.3050 -0.8557 0.9915
-1.9300 -0.3923 -0.8583 0.9914
-9.9711 -6.2100 -5.1194 0.9500
-9.2188 -6.9522 -5.0321 0.9509
-8.5634 -7.7451 -5.0321 0.9509
9.9345 -5.8842 -5.0321 0.9509
11.4734 -3.1429 -5.1845 0.9494
11.7076 -2.1092 -5.1845 0.9494
11.8489 -1.0588 -5.1845 0.9494
11.2004 0.0000 -5.1845 0.9518
11.0230 1.9859 -5.1845 0.9518
10.8025 2.9591 -5.1845 0.9518
9.6369 5.7079 -5.1845 0.9518
9.0906 6.5430 -5.1845 0.9518
7.0390 8.7122 -5.1845 0.9518
3.4514 10.3088 -5.0321 0.9532
0.6052 10.8543 -5.0321 0.9532
-0.3633 10.8651 -5.0321 0.9532
-2.2839 10.6286 -5.0321 0.9532
-3.2209 10.3831 -5.0321 0.9532
-5.0482 9.7195 -5.0697 0.9529
-6.0231 9.4350 -5.1814 0.9519
-8.3068 7.5131 -5.1845 0.9518
-8.9426 6.7439 -5.1845 0.9518
-9.9966 5.0515 -5.1845 0.9518
-1.6716 0.0373 -0.7739 0.9927
-1.6738 -0.1120 -0.7765 0.9926
-1.6521 -0.2598 -0.7741 0.9927
-1.5621 -0.5424 -0.7654 0.9927
-9.7616 -5.4918 -5.1845 0.9518
7.8982 -7.4700 -5.0321 0.9532
9.0975 -5.9513 -5.0321 0.9532
11.1005 -1.4929 -5.1845 0.9518
11.1005 1.4929 -5.1845 0.9518
10.9236 2.4750 -5.1845 0.9518
10.3117 4.3725 -5.1845 0.9518
9.8816 5.2730 -5.1845 0.9518
8.7901 6.9415 -5.1845 0.9518
6.6439 9.0171 -5.1845 0.9518
4.9349 10.0423 -5.1794 0.9519
2.9887 10.4523 -5.0321 0.9532
2.0466 10.6768 -5.0321 0.9532
-2.7551 10.5163 -5.0321 0.9532
-4.5761 9.8612 -5.0321 0.9532
-5.5922 9.6860 -5.1771 0.9519
-7.2313 8.5532 -5.1845 0.9518
-7.9639 7.8757 -5.1845 0.9518
-8.6333 7.1356 -5.1845 0.9518
-10.2117 4.6012 -5.1845 0.9518
-1.6165 0.4043 -0.7713 0.9927
-1.6521 0.2598 -0.7741 0.9927
-1.6738 0.1120 -0.7765 0.9926
-1.6716 -0.0373 -0.7739 0.9927
-1.6675 -0.1865 -0.7767 0.9926
-1.5924 -0.4746 -0.7692 0.9927
-8.0626 -7.2922 -5.0321 0.9532
-7.3816 -7.9809 -5.0321 0.9532
8.8234 -6.3507 -5.0321 0.9532
9.3536 -5.5401 -5.0321 0.9532
10.0954 -4.8222 -5.1787 0.9519
10.8025 -2.9591 -5.1845 0.9518
11.0230 -1.9859 -5.1845 0.9518
11.1560 -0.9969 -5.1845 0.9518
10.1938 2.7924 -5.1845 0.9540
9.9048 3.6886 -5.1845 0.9540
9.0939 5.3863 -5.1845 0.9540
8.5784 6.1743 -5.1845 0.9540
7.9948 6.9134 -5.1845 0.9540
7.3477 7.5975 -5.1845 0.9540
6.6423 8.2213 -5.1845 0.9540
5.8842 8.7799 -5.1845 0.9540
3.3247 9.9303 -5.1368 0.9544
2.3782 9.9792 -5.0321 0.9553
1.4805 10.1513 -5.0321 0.9553
-0.3428 10.2529 -5.0321 0.9553
-3.9884 9.7052 -5.1469 0.9543
-4.8697 9.3758 -5.1824 0.9540
-5.6872 8.9088 -5.1845 0.9540
-6.4575 8.3673 -5.1845 0.9540
-8.9716 5.5876 -5.1845 0.9540
-9.4333 4.7669 -5.1845 0.9540
-1.3200 0.3934 -0.6756 0.9939
-1.3047 0.2652 -0.6531 0.9941
-1.3419 0.1501 -0.6624 0.9940
-1.3513 -0.0905 -0.6643 0.9940
-1.3149 -0.3289 -0.6649 0.9940
-1.3171 -0.4573 -0.6839 0.9938
-1.2865 -0.5797 -0.6922 0.9937
-7.2943 -7.2134 -5.0321 0.9553
6.7962 -7.6846 -5.0321 0.9553
8.5849 -5.6160 -5.0321 0.9553
9.7307 -4.1262 -5.1845 0.9540
10.0593 -3.2437 -5.1845 0.9540
10.3081 -2.3355 -5.1845 0.9540
10.5589 -0.4708 -5.1845 0.9540
10.4750 1.4088 -5.1845 0.9540
10.3081 2.3355 -5.1845 0.9540
9.3248 4.9759 -5.1845 0.9540
8.8449 5.7861 -5.1845 0.9540
8.2948 6.5503 -5.1845 0.9540
7.6789 7.2626 -5.1845 0.9540
7.0020 7.9173 -5.1845 0.9540
5.4873 9.0333 -5.1845 0.9540
4.6615 9.4859 -5.1845 0.9540
2.8269 9.8864 -5.0439 0.9552
1.9313 10.0752 -5.0321 0.9553
0.1143 10.2580 -5.0321 0.9553
-0.7992 10.2275 -5.0321 0.9553
-1.7063 10.1158 -5.0321 0.9553
-4.4442 9.5771 -5.1790 0.9540
-6.8239 8.0713 -5.1845 0.9540
-8.1468 6.7335 -5.1845 0.9540
-9.2116 5.1824 -5.1845 0.9540
-1.2865 0.5797 -0.6922 0.9937
-1.3257 0.2085 -0.6583 0.9940
-1.3513 0.0905 -0.6643 0.9940
-1.3536 -0.0302 -0.6641 0.9940
-1.3419 -0.1501 -0.6624 0.9940
-1.3047 -0.2652 -0.6531 0.9941
-1.3200 -0.3934 -0.6756 0.9939
-1.3059 -0.5198 -0.6895 0.9938
-8.9716 -5.5876 -5.1845 0.9540
-8.2475 -6.2198 -5.0671 0.9550
-6.9657 -7.5312 -5.0321 0.9553
-6.2677 -8.1213 -5.0321 0.9553
7.7598 -6.7101 -5.0321 0.9553
8.8629 -5.2495 -5.0528 0.9551
9.5372 -4.5555 -5.1845 0.9540
10.1938 -2.7924 -5.1845 0.9540
10.5274 -0.9407 -5.1845 0.9540
9.9937 0.0000 -5.1845 0.9560
9.9540 0.8895 -5.1845 0.9560
9.6386 2.6403 -5.1845 0.9560
6.9475 7.1837 -5.1845 0.9560
6.2806 7.7735 -5.1845 0.9560
4.8028 8.7640 -5.1845 0.9560
3.1725 9.4758 -5.1841 0.9560
1.4225 9.7533 -5.1133 0.9566
0.5425 9.7290 -5.0550 0.9570
-0.3251 9.7236 -5.0472 0.9571
-1.1968 9.7177 -5.0794 0.9568
-2.0854 9.7047 -5.1495 0.9563
-2.9581 9.5361 -5.1797 0.9560
-3.7987 9.2436 -5.1845 0.9560
-6.1058 7.9115 -5.1845 0.9560
-6.7858 7.3367 -5.1845 0.9560
-7.9791 6.0173 -5.1845 0.9560
-1.0665 0.5389 -0.6199 0.9946
-1.1266 0.3358 -0.6099 0.9947
-1.1785 0.0263 -0.6115 0.9947
-1.1739 -0.0786 -0.6103 0.9947
-1.1517 -0.1811 -0.6048 0.9948
-8.7099 -4.9001 -5.1845 0.9560
-8.2392 -5.6559 -5.1845 0.9560
-7.5257 -6.2201 -5.0651 0.9570
7.6125 -6.0115 -5.0321 0.9572
9.5114 -3.0670 -5.1845 0.9560
9.9838 0.4452 -5.1845 0.9560
9.2007 3.9014 -5.1845 0.9560
8.8169 4.7048 -5.1845 0.9560
8.3632 5.4709 -5.1845 0.9560
5.1884 8.5413 -5.1845 0.9560
2.7457 9.6023 -5.1811 0.9560
1.8733 9.7726 -5.1621 0.9562
0.9798 9.7390 -5.0779 0.9569
0.1083 9.7253 -5.0456 0.9571
-2.5294 9.6546 -5.1777 0.9560
-4.2067 9.0652 -5.1845 0.9560
-4.9968 8.6548 -5.1845 0.9560
-6.4522 7.6317 -5.1845 0.9560
-7.7031 6.3668 -5.1845 0.9560
-8.7099 4.9001 -5.1845 0.9560
-1.0898 0.4910 -0.6201 0.9946
-1.1275 0.2820 -0.6029 0.9948
-1.1739 0.0786 -0.6103 0.9947
-1.1649 -0.1303 -0.6081 0.9947
-1.1333 -0.2303 -0.5999 0.9948
-1.1266 -0.3358 -0.6099 0.9947
-1.0665 -0.5389 -0.6199 0.9946
-8.4830 -5.2832 -5.1845 0.9560
-7.9722 -6.0121 -5.1801 0.9560
-7.1940 -6.5065 -5.0321 0.9572
-6.5863 -7.1210 -5.0321 0.9572
-5.2194 -8.1760 -5.0321 0.9572
6.0959 -7.5450 -5.0321 0.9572
7.3371 -6.3447 -5.0321 0.9572
7.8727 -5.6664 -5.0321 0.9572
8.5913 -5.0887 -5.1801 0.9560
9.8353 -1.7719 -5.1845 0.9560
2.0429 0.0000 -1.1189 0.9907
2.0356 0.1819 -1.1193 0.9907
2.0036 0.3610 -1.1150 0.9908
2.0004 0.5480 -1.1360 0.9906
8.5415 4.0799 -5.1845 0.9577
7.6828 5.5297 -5.1845 0.9577
6.5806 6.8043 -5.1845 0.9577
5.9489 7.3630 -5.1845 0.9577
5.2699 7.8633 -5.1845 0.9577
4.5491 8.3011 -5.1845 0.9577
3.7922 8.6731 -5.1845 0.9577
3.0052 8.9762 -5.1845 0.9577
2.1944 9.2080 -5.1845 0.9577
1.3658 9.3645 -5.1832 0.9578
-4.3631 8.4004 -5.1845 0.9577
-5.0934 7.9787 -5.1845 0.9577
-7.0204 6.3496 -5.1845 0.9577
-7.5577 5.6995 -5.1845 0.9577
-0.9364 0.4732 -0.5746 0.9952
-0.9638 0.3836 -0.5681 0.9953
-0.9825 0.2928 -0.5615 0.9953
-1.0293 0.1151 -0.5673 0.9953
-1.0415 0.0232 -0.5706 0.9953
-1.0166 -0.1599 -0.5637 0.9953
-0.9847 -0.2463 -0.5559 0.9954
-0.9756 -0.3388 -0.5656 0.9953
-0.9240 -0.5198 -0.5806 0.9952
-7.2897 -6.0251 -5.1798 0.9578
-6.5327 -6.4604 -5.0321 0.9590
-5.9318 -7.0162 -5.0321 0.9590
-5.2838 -7.5163 -5.0321 0.9590
4.7700 -7.8524 -5.0321 0.9590
5.4499 -7.3967 -5.0321 0.9590
6.0866 -6.8823 -5.0321 0.9590
6.6750 -6.3132 -5.0321 0.9590
7.2105 -5.6940 -5.0321 0.9590
7.9161 -5.1785 -5.1810 0.9578
8.3513 -4.4564 -5.1845 0.9577
1.9407 -0.8229 -1.1546 0.9904
2.0042 -0.4541 -1.1255 0.9907
2.0434 -0.0911 -1.1203 0.9907
2.0434 0.0911 -1.1203 0.9907
2.0042 0.4541 -1.1255 0.9907
1.9895 0.6415 -1.1449 0.9905
1.9407 0.8229 -1.1546 0.9904
7.9215 5.1820 -5.1845 0.9577
7.4288 5.8665 -5.1845 0.9577
6.8772 6.5044 -5.1845 0.9577
6.2710 7.0907 -5.1845 0.9577
4.1748 8.4955 -5.1845 0.9577
3.4021 8.8334 -5.1845 0.9577
2.6024 9.1012 -5.1845 0.9577
1.7820 9.2967 -5.1845 0.9577
0.9470 9.4139 -5.1821 0.9578
0.1054 9.4589 -5.1810 0.9578
-1.5740 9.3316 -5.1831 0.9578
-2.3990 9.1569 -5.1845 0.9577
-3.2045 8.9070 -5.1845 0.9577
-3.9845 8.5864 -5.1845 0.9577
-5.4438 7.7439 -5.1845 0.9577
-6.1115 7.2287 -5.1845 0.9577
-6.7306 6.6560 -5.1845 0.9577
-7.8041 5.3572 -5.1845 0.9577
-0.9472 0.4268 -0.5690 0.9953
-0.9847 0.2463 -0.5559 0.9954
-1.0166 0.1599 -0.5637 0.9953
-1.0376 0.0695 -0.5696 0.9953
-1.0415 -0.0232 -0.5706 0.9953
-0.9825 -0.2928 -0.5615 0.9953
-0.9364 -0.4732 -0.5746 0.9952
-8.0350 -5.0042 -5.1845 0.9577
-6.2385 -6.7450 -5.0321 0.9590
-5.6134 -7.2734 -5.0321 0.9590
-4.9437 -7.7442 -5.0321 0.9590
5.1150 -7.6321 -5.0321 0.9590
5.7740 -7.1466 -5.0321 0.9590
8.5415 -4.0799 -5.1845 0.9577
1.9715 -0.7342 -1.1522 0.9905
2.0004 -0.5480 -1.1360 0.9906
1.8754 0.0000 -1.0828 0.9914
1.8700 0.1671 -1.0839 0.9914
1.8267 0.5004 -1.0935 0.9913
7.7263 4.5763 -5.1845 0.9594
6.2427 6.4549 -5.1845 0.9594
5.6434 6.9849 -5.1845 0.9594
4.9993 7.4595 -5.1845 0.9594
4.3155 7.8749 -5.1845 0.9594
3.5975 8.2277 -5.1845 0.9594
1.2960 8.8858 -5.1845 0.9594
0.4999 8.9659 -5.1845 0.9594
-1.0977 8.9125 -5.1845 0.9594
-4.1390 7.9691 -5.1845 0.9594
-5.4864 7.1089 -5.1845 0.9594
-6.6599 6.0235 -5.1845 0.9594
-0.8491 0.5288 -0.5776 0.9954
-0.8760 0.4427 -0.5667 0.9955
-0.8932 0.3555 -0.5550 0.9956
-0.9012 0.2686 -0.5429 0.9957
-0.9120 0.1854 -0.5373 0.9957
-0.9237 0.1033 -0.5366 0.9957
-0.9189 -0.1445 -0.5370 0.9957
-0.9030 -0.2259 -0.5374 0.9957
-7.4034 -5.0821 -5.1845 0.9594
-6.9216 -5.7209 -5.1845 0.9594
-6.2830 -6.2134 -5.1017 0.9600
-3.6688 -7.9061 -5.0321 0.9605
-2.9506 -8.2013 -5.0321 0.9605
7.0377 -5.5576 -5.1774 0.9594
7.5147 -4.9159 -5.1845 0.9594
1.6861 -0.8997 -1.1034 0.9912
1.8108 -0.5839 -1.0985 0.9913
1.8316 -0.4150 -1.0843 0.9914
1.8755 0.0836 -1.0839 0.9914
1.8592 0.2500 -1.0831 0.9914
1.7564 0.7448 -1.1014 0.9912
7.5147 4.9159 -5.1845 0.9594
7.0474 5.5652 -5.1845 0.9594
6.5241 6.1704 -5.1845 0.9594
5.9490 6.7266 -5.1845 0.9594
2.4688 8.6338 -5.1845 0.9594
0.1000 8.9793 -5.1845 0.9594
-0.6996 8.9525 -5.1845 0.9594
-1.4936 8.8548 -5.1845 0.9594
-3.0399 8.4496 -5.1845 0.9594
-3.7799 8.1455 -5.1845 0.9594
-4.4899 7.7768 -5.1845 0.9594
-5.1643 7.3463 -5.1845 0.9594
-5.7976 6.8575 -5.1845 0.9594
-6.3850 6.3142 -5.1845 0.9594
-6.9216 5.7209 -5.1845 0.9594
-0.8858 0.3991 -0.5609 0.9955
-0.8984 0.3119 -0.5490 0.9956
-0.9274 0.0621 -0.5366 0.9957
-0.9237 -0.1033 -0.5366 0.9957
-0.9120 -0.1854 -0.5373 0.9957
-0.8932 -0.3555 -0.5550 0.9956
-0.8491 -0.5288 -0.5776 0.9954
-7.1696 -5.4069 -5.1845 0.9594
-5.9181 -6.3986 -5.0321 0.9605
-5.3251 -6.9000 -5.0321 0.9605
-4.0174 -7.7348 -5.0321 0.9605
2.7671 -8.2650 -5.0321 0.9605
3.4918 -7.9859 -5.0321 0.9605
6.0592 -6.2652 -5.0321 0.9605
1.8267 -0.5004 -1.0935 0.9913
1.8426 -0.3320 -1.0810 0.9914
