ply
format ascii 1.0
element vertex 1359
property float32 x
property float32 y
property float32 z
property float32 I
end_header
-15.9072 10.9197 -1.8524 0.9254
-17.2699 9.7159 -1.9024 0.9235
19.0361 1.7011 -2.2702 0.9259
18.8146 3.3896 -2.2709 0.9259
18.4329 5.0493 -2.2702 0.9259
17.8948 6.6641 -2.2683 0.9260
16.3735 9.6980 -2.2605 0.9262
15.4063 11.0888 -2.2548 0.9264
12.7887 13.2234 -2.1852 0.9286
-10.8266 11.7056 -1.8940 0.9378
-11.7690 10.6445 -1.8850 0.9381
-12.8881 9.7194 -1.9175 0.9370
-14.3921 8.9635 -2.0140 0.9340
-15.0772 7.6189 -2.0066 0.9342
-16.6161 1.8588 -1.9861 0.9349
-16.6925 0.3720 -1.9833 0.9350
-16.6446 -1.1142 -1.9816 0.9350
-15.7647 -5.4741 -1.9823 0.9350
-14.1351 -6.3690 -1.8416 0.9395
17.2019 -3.8975 -2.0951 0.9314
19.0860 0.8511 -2.2694 0.9259
18.9455 2.5479 -2.2707 0.9259
18.1831 5.8633 -2.2694 0.9259
17.5688 7.4498 -2.2668 0.9260
14.8753 11.7469 -2.2515 0.9265
13.7255 12.9815 -2.2441 0.9267
11.5706 13.0830 -2.0747 0.9321
-12.2038 10.0867 -1.8807 0.9382
-13.9685 9.5888 -2.0126 0.9340
-15.8830 5.5152 -1.9972 0.9345
-16.5313 2.5994 -1.9878 0.9348
-16.6840 -0.3718 -1.9823 0.9350
-16.3413 -3.3215 -1.9808 0.9350
-15.9869 -4.7646 -1.9816 0.9350
-15.4627 -6.1540 -1.9769 0.9352
-13.8477 -6.9976 -1.8430 0.9394
15.2733 4.1838 -2.2438 0.9380
12.7804 9.1987 -2.2311 0.9384
8.0348 11.9887 -2.0449 0.9434
6.9083 12.6061 -2.0368 0.9436
-7.2982 11.4324 -1.9218 0.9467
-8.2494 10.6891 -1.9131 0.9469
-10.6676 9.6483 -2.0380 0.9435
-11.4775 8.6556 -2.0368 0.9436
-12.1604 7.5736 -2.0298 0.9438
-12.7465 6.4411 -2.0235 0.9439
-13.2327 5.2665 -2.0180 0.9441
-13.8959 2.8245 -2.0092 0.9443
-14.1375 0.3150 -2.0036 0.9445
-13.9543 -2.1942 -2.0015 0.9445
-13.7051 -3.4279 -2.0017 0.9445
-13.3528 -4.6366 -2.0028 0.9445
15.6525 -2.1051 -2.2378 0.9382
15.8003 -0.7046 -2.2410 0.9381
15.8155 0.7052 -2.2431 0.9380
15.6975 2.1111 -2.2442 0.9380
15.4473 3.4999 -2.2442 0.9380
13.1920 8.6298 -2.2336 0.9383
12.3429 9.7471 -2.2284 0.9384
11.3953 10.7776 -2.2223 0.9386
10.3396 11.6912 -2.2114 0.9389
8.5768 11.6406 -2.0487 0.9433
-6.7975 11.7735 -1.9263 0.9466
-7.7824 11.0706 -1.9174 0.9468
-12.4658 7.0131 -2.0266 0.9439
-13.0023 5.8585 -2.0207 0.9440
-14.1314 -0.3149 -2.0028 0.9445
-14.0397 -1.5706 -2.0017 0.9445
-13.8427 -2.8137 -2.0015 0.9445
-13.5417 -4.0358 -2.0021 0.9445
-13.1386 -5.2290 -2.0036 0.9445
13.1135 -6.2638 -2.0591 0.9430
13.6589 -5.0867 -2.0652 0.9428
15.5135 -2.7949 -2.2335 0.9383
15.7429 -1.4068 -2.2395 0.9381
12.6491 4.7106 -2.2236 0.9468
12.1673 5.8118 -2.2214 0.9468
11.5854 6.8620 -2.2182 0.9469
10.9091 7.8519 -2.2143 0.9470
3.8758 11.5762 -2.0111 0.9517
-2.5000 11.6340 -1.9603 0.9529
-4.4842 10.9118 -1.9435 0.9533
-5.4149 10.4256 -1.9353 0.9535
-6.2958 9.8621 -1.9275 0.9537
-7.4923 9.7080 -2.0202 0.9515
-8.4964 9.1862 -2.0614 0.9505
-9.9235 7.4837 -2.0476 0.9509
-10.5188 6.5512 -2.0415 0.9510
-11.0304 5.5739 -2.0360 0.9511
-11.4554 4.5591 -2.0311 0.9512
-12.1898 1.3636 -2.0207 0.9515
-12.2504 0.2730 -2.0186 0.9515
-11.5711 -4.0179 -2.0179 0.9516
-11.1768 -5.0360 -2.0195 0.9515
10.3441 -6.7668 -2.0363 0.9511
13.1209 -2.9728 -2.2163 0.9469
13.3549 -1.7961 -2.2199 0.9468
13.4781 -0.6010 -2.2226 0.9468
13.1742 2.9849 -2.2253 0.9467
12.8510 4.1439 -2.2244 0.9467
12.4210 5.2670 -2.2226 0.9468
11.8885 6.3439 -2.2199 0.9468
11.2586 7.3651 -2.2163 0.9469
4.3961 11.4143 -2.0150 0.9516
3.3495 11.7141 -2.0071 0.9518
-3.0092 11.4860 -1.9561 0.9530
-5.8620 10.1532 -1.9314 0.9536
-6.8334 9.7207 -1.9575 0.9530
-8.8814 8.7830 -2.0577 0.9506
-10.2314 7.0235 -2.0444 0.9509
-10.7853 6.0677 -2.0386 0.9511
-11.6347 4.0400 -2.0289 0.9513
-12.2317 0.8188 -2.0195 0.9515
-12.2458 -0.2729 -2.0179 0.9516
-12.1673 -1.3611 -2.0169 0.9516
-11.9967 -2.4384 -2.0167 0.9516
-11.7353 -3.4975 -2.0173 0.9516
-11.3848 -4.5310 -2.0186 0.9515
-8.4853 -7.6746 -1.8848 0.9547
10.6515 -6.3089 -2.0394 0.9511
11.2024 -5.3509 -2.0452 0.9509
12.9633 -3.5510 -2.2142 0.9470
13.4305 -1.2002 -2.2213 0.9468
10.5988 5.0626 -2.2078 0.9533
7.3133 9.0518 -2.1873 0.9537
4.4204 10.1097 -2.0739 0.9561
1.5286 10.4807 -1.9908 0.9578
0.5875 10.5357 -1.9834 0.9580
-0.3513 10.5062 -1.9759 0.9581
-3.0789 9.9253 -1.9533 0.9586
-3.9951 9.7214 -1.9755 0.9581
-5.9560 9.3298 -2.0805 0.9559
-6.7439 8.7383 -2.0747 0.9561
-7.4705 8.0770 -2.0680 0.9562
-8.7324 6.5854 -2.0558 0.9565
-9.2595 5.7669 -2.0504 0.9566
-9.7130 4.9082 -2.0455 0.9567
-10.0901 4.0158 -2.0412 0.9568
-10.7436 1.2019 -2.0320 0.9570
-10.7706 -0.7210 -2.0290 0.9570
-10.4704 -2.6188 -2.0287 0.9570
-10.1999 -3.5418 -2.0295 0.9570
-7.7604 -6.4142 -1.8924 0.9599
-5.8290 -8.2918 -1.9051 0.9596
7.7888 -7.3666 -2.0151 0.9573
8.4394 -6.6646 -2.0213 0.9572
11.6344 -1.5647 -2.2065 0.9533
11.1924 3.6091 -2.2104 0.9533
10.8191 4.5877 -2.2088 0.9533
10.3569 5.5266 -2.2065 0.9533
6.0164 9.9043 -2.1782 0.9539
3.8614 10.0259 -2.0194 0.9572
1.0582 10.5188 -1.9871 0.9579
0.1173 10.5315 -1.9796 0.9580
-0.8174 10.4600 -1.9721 0.9582
-2.6387 10.0717 -1.9570 0.9585
-4.5077 9.7137 -2.0128 0.9574
-5.5329 9.5833 -2.0800 0.9560
-6.3587 9.0454 -2.0782 0.9560
-7.1147 8.4153 -2.0713 0.9561
-7.8107 7.7242 -2.0648 0.9563
-9.0050 6.1816 -2.0530 0.9565
-10.5078 2.6282 -2.0359 0.9569
-10.6855 1.6802 -2.0331 0.9569
-10.7812 0.7217 -2.0310 0.9570
-10.7261 -1.1999 -2.0287 0.9570
-10.0353 -3.9940 -2.0301 0.9570
-9.6486 -4.8757 -2.0320 0.9570
-6.8571 -7.4138 -1.8982 0.9597
8.1219 -7.0233 -2.0182 0.9572
8.7406 -6.2911 -2.0242 0.9571
10.2595 -4.9006 -2.1371 0.9548
10.9560 -4.0800 -2.1975 0.9535
11.5455 -2.0800 -2.2050 0.9534
10.4027 -0.0000 -2.1989 0.9584
10.2443 1.8456 -2.2003 0.9583
10.0378 2.7496 -2.2000 0.9583
9.7487 3.6304 -2.1989 0.9584
9.3795 4.4802 -2.1972 0.9584
8.4157 6.0573 -2.1918 0.9585
7.8301 6.7710 -2.1881 0.9586
6.4789 8.0190 -2.1792 0.9587
4.9295 8.9952 -2.1682 0.9589
4.0978 9.3719 -2.1621 0.9590
3.2326 9.6553 -2.1523 0.9592
2.3385 9.8127 -2.1323 0.9596
1.4222 9.7514 -2.0831 0.9605
0.5420 9.7195 -2.0577 0.9610
-0.3247 9.7121 -2.0541 0.9610
-1.1957 9.7083 -2.0676 0.9608
-2.0847 9.7014 -2.0975 0.9602
-2.9461 9.4973 -2.1019 0.9602
-4.5621 8.7837 -2.0922 0.9603
-6.0097 7.7870 -2.0792 0.9606
-6.6596 7.2003 -2.0732 0.9607
-7.2541 6.5610 -2.0675 0.9608
-7.7895 5.8743 -2.0623 0.9609
-8.2620 5.1456 -2.0574 0.9610
-8.6689 4.3806 -2.0531 0.9611
-9.0075 3.5849 -2.0492 0.9611
-9.2757 2.7645 -2.0459 0.9612
-9.4721 1.9253 -2.0432 0.9613
-9.5955 1.0734 -2.0409 0.9613
-9.6452 0.2150 -2.0393 0.9613
-9.6211 -0.6441 -2.0383 0.9613
-9.5235 -1.4975 -2.0378 0.9614
-8.7991 -3.9647 -2.0400 0.9613
-8.4192 -4.7366 -2.0420 0.9613
-6.4024 -6.3315 -1.9034 0.9639
-5.2003 -7.3976 -1.9114 0.9637
-4.5323 -7.8502 -1.9161 0.9636
4.8900 -8.0500 -1.9910 0.9622
6.9058 -6.5315 -2.0092 0.9619
7.4801 -5.9069 -2.0147 0.9618
8.2250 -5.3805 -2.0776 0.9606
9.8606 -3.1797 -2.1900 0.9585
10.1199 -2.2929 -2.1934 0.9585
10.2965 -1.3848 -2.1961 0.9584
10.3952 0.4635 -2.1995 0.9584
10.1516 2.3000 -2.2002 0.9583
9.9034 3.1935 -2.1995 0.9584
9.1660 4.8911 -2.1961 0.9584
8.6835 5.6805 -2.1934 0.9585
7.5137 7.1065 -2.1861 0.9586
6.8373 7.7311 -2.1816 0.9587
1.8740 9.7765 -2.1042 0.9601
-0.7588 9.7106 -2.0589 0.9610
-3.3645 9.3519 -2.1008 0.9602
-4.9410 8.5580 -2.0888 0.9604
-5.6654 8.0591 -2.0823 0.9605
-7.5294 6.2232 -2.0648 0.9609
-9.3830 2.3468 -2.0445 0.9612
-9.5430 1.5005 -2.0420 0.9613
-9.6296 0.6446 -2.0401 0.9613
-9.2410 -2.7541 -2.0383 0.9613
-7.7231 -5.8242 -2.0447 0.9612
-6.8714 -6.2149 -1.9584 0.9628
-6.1200 -6.6168 -1.9052 0.9638
-5.5184 -7.1504 -1.9092 0.9637
-4.1835 -8.0548 -1.9186 0.9636
5.2521 -7.8367 -1.9941 0.9622
5.9473 -7.3611 -2.0004 0.9620
7.7457 -5.5751 -2.0173 0.9617
10.2187 -1.8410 -2.1948 0.9584
10.3533 -0.9252 -2.1972 0.9584
9.3194 -0.0000 -2.1903 0.9624
9.2864 0.8298 -2.1912 0.9624
9.1770 1.6533 -2.1915 0.9624
8.9921 2.4632 -2.1912 0.9624
8.4034 4.0140 -2.1887 0.9625
5.8096 7.1907 -2.1726 0.9627
5.1354 7.6626 -2.1679 0.9628
3.6775 8.4106 -2.1574 0.9630
2.1164 8.8806 -2.1456 0.9632
1.3137 9.0076 -2.1394 0.9633
0.5053 9.0617 -2.1330 0.9634
-1.8893 8.7921 -2.1135 0.9637
-3.3976 8.2675 -2.1007 0.9639
-4.1078 7.9090 -2.0946 0.9640
-5.4146 7.0159 -2.0828 0.9642
-6.5394 5.9146 -2.0723 0.9644
-7.0238 5.2969 -2.0675 0.9645
-7.4516 4.6409 -2.0632 0.9646
-7.8202 3.9517 -2.0592 0.9646
-8.1271 3.2345 -2.0558 0.9647
-8.3705 2.4947 -2.0528 0.9647
-8.7066 0.1940 -2.0468 0.9648
-8.6853 -0.5814 -2.0458 0.9649
-8.4435 -2.1119 -2.0455 0.9649
-8.2247 -2.8559 -2.0462 0.9649
-7.9426 -3.5788 -2.0474 0.9648
-5.2653 -6.2278 -1.9167 0.9670
-4.0863 -7.0777 -1.9208 0.9670
-2.0870 -7.9662 -1.9354 0.9667
-1.3736 -8.1431 -1.9409 0.9666
-0.6452 -8.2570 -1.9465 0.9665
1.5734 -8.2084 -1.9643 0.9662
2.3048 -8.0605 -1.9703 0.9661
3.7200 -7.5699 -1.9823 0.9659
6.1966 -5.8607 -2.0045 0.9656
7.0769 -5.5886 -2.1193 0.9636
7.7247 -5.0533 -2.1694 0.9628
8.8375 -2.8497 -2.1823 0.9626
9.0685 -2.0547 -2.1853 0.9625
9.2256 -1.2407 -2.1877 0.9625
9.3125 0.4152 -2.1908 0.9624
9.2412 1.2428 -2.1914 0.9624
9.0939 2.0604 -2.1914 0.9624
8.5772 3.6370 -2.1896 0.9624
7.7813 5.0903 -2.1853 0.9625
6.7354 6.3703 -2.1788 0.9626
6.1303 6.9317 -2.1748 0.9627
4.7835 7.8747 -2.1654 0.9628
4.0537 8.2490 -2.1601 0.9629
3.2948 8.5548 -2.1545 0.9630
2.5134 8.7899 -2.1486 0.9631
1.7162 8.9532 -2.1425 0.9632
0.1010 9.0615 -2.1298 0.9634
-0.7038 9.0069 -2.1233 0.9636
-3.0305 8.4233 -2.1039 0.9639
-3.7569 8.0959 -2.0976 0.9640
-5.1036 7.2600 -2.0857 0.9642
-5.7142 6.7588 -2.0801 0.9643
-6.7884 5.6108 -2.0699 0.9645
-7.2449 4.9734 -2.0653 0.9645
-7.6434 4.3001 -2.0612 0.9646
-7.9815 3.5963 -2.0574 0.9647
-8.2568 2.8671 -2.0542 0.9647
-8.4678 2.1179 -2.0514 0.9648
-8.6133 1.3544 -2.0492 0.9648
-8.6922 0.5819 -2.0474 0.9648
-8.5286 -1.7335 -2.0454 0.9649
-8.3421 -2.4862 -2.0458 0.9649
-8.0915 -3.2203 -2.0468 0.9648
-7.4049 -4.6118 -2.0502 0.9648
-6.9735 -5.2590 -2.0527 0.9647
-4.9771 -6.4490 -1.9146 0.9671
-4.3926 -6.8809 -1.9186 0.9670
-2.4365 -7.8546 -1.9328 0.9668
-1.7325 -8.0624 -1.9381 0.9667
-1.0109 -8.2081 -1.9437 0.9666
1.9405 -8.1426 -1.9673 0.9662
3.3740 -7.7165 -1.9793 0.9660
8.3578 -3.9922 -2.1769 0.9627
8.4320 0.0000 -2.1832 0.9658
8.3027 1.4958 -2.1843 0.9657
8.1355 2.2285 -2.1840 0.9657
7.6038 3.6320 -2.1818 0.9658
6.8257 4.9128 -2.1775 0.9658
6.3527 5.4934 -2.1745 0.9659
5.8294 6.0276 -2.1711 0.9659
1.9186 8.0506 -2.1428 0.9664
-1.0007 8.1252 -2.1196 0.9667
-1.7151 7.9816 -2.1137 0.9668
-3.0861 7.5095 -2.1021 0.9670
-4.3457 6.8073 -2.0911 0.9672
-4.9220 6.3776 -2.0859 0.9673
-5.4571 5.9002 -2.0809 0.9673
-5.9472 5.3790 -2.0762 0.9674
-6.3890 4.8182 -2.0719 0.9675
-6.7795 4.2223 -2.0679 0.9675
-7.1161 3.5959 -2.0644 0.9676
-7.6190 2.2707 -2.0584 0.9677
-7.8850 0.8821 -2.0543 0.9677
-7.9080 -0.5294 -2.0521 0.9678
-7.6879 -1.9229 -2.0518 0.9678
-7.2312 -3.2582 -2.0536 0.9678
-6.9179 -3.8919 -2.0552 0.9677
-6.1318 -5.0681 -2.0597 0.9677
-5.6645 -5.6018 -2.0627 0.9676
-3.7167 -6.4375 -1.9246 0.9698
-2.5277 -7.0258 -1.9333 0.9696
-1.8969 -7.2406 -1.9380 0.9695
-1.2481 -7.3995 -1.9429 0.9695
-0.5861 -7.5010 -1.9481 0.9694
0.0840 -7.5438 -1.9533 0.9693
1.4281 -7.4506 -1.9642 0.9691
2.7417 -7.1188 -1.9752 0.9690
3.3737 -6.8653 -1.9806 0.9689
4.5614 -6.1908 -1.9910 0.9687
6.0301 -5.7033 -2.1490 0.9663
7.3915 -3.9442 -2.1692 0.9660
7.7261 -3.2762 -2.1729 0.9659
8.3480 -1.1227 -2.1809 0.9658
8.4212 -0.3755 -2.1826 0.9658
8.3608 1.1244 -2.1842 0.9657
8.2275 1.8641 -2.1842 0.9657
7.7607 3.2908 -2.1826 0.9658
7.4314 3.9655 -2.1809 0.9658
7.0419 4.6066 -2.1787 0.9658
3.6725 7.4733 -2.1560 0.9662
2.2782 7.9674 -2.1456 0.9663
0.8251 8.2018 -2.1343 0.9665
0.0916 8.2202 -2.1285 0.9666
-0.6387 8.1731 -2.1226 0.9667
-2.0661 7.8863 -2.1108 0.9669
-5.1949 6.1446 -2.0833 0.9673
-5.7080 5.6448 -2.0785 0.9674
-6.1744 5.1032 -2.0740 0.9674
-6.5909 4.5244 -2.0699 0.9675
-7.2634 3.2727 -2.0627 0.9676
-7.8412 1.2330 -2.0552 0.9677
-7.9251 -0.1766 -2.0525 0.9678
-7.7654 -1.5784 -2.0517 0.9678
-7.3670 -2.9320 -2.0530 0.9678
-6.7408 -4.1982 -2.0561 0.9677
-6.3474 -4.7868 -2.0584 0.9677
-5.9040 -5.3399 -2.0612 0.9676
-5.4094 -5.8485 -2.0627 0.9676
-4.7888 -6.2050 -2.0294 0.9681
-3.9957 -6.2591 -1.9227 0.9698
-1.5745 -7.3271 -1.9404 0.9695
-0.9185 -7.4575 -1.9455 0.9694
1.0933 -7.4963 -1.9615 0.9692
4.2756 -6.3796 -1.9885 0.9688
4.8387 -5.9890 -1.9935 0.9687
5.6255 -5.8167 -2.0952 0.9671
6.2961 -5.4445 -2.1552 0.9662
8.2858 -1.4928 -2.1799 0.9658
7.6632 0.6848 -2.1781 0.9685
6.9360 3.3130 -2.1760 0.9686
6.6083 3.9141 -2.1743 0.9686
6.2273 4.4821 -2.1721 0.9686
5.3198 5.5006 -2.1663 0.9687
4.8013 5.9426 -2.1628 0.9687
4.2457 6.3350 -2.1589 0.9688
2.4061 7.1866 -2.1455 0.9690
0.4189 7.5127 -2.1301 0.9692
-0.9151 7.4302 -2.1193 0.9694
-1.5688 7.3006 -2.1139 0.9694
-3.4162 6.5773 -2.0982 0.9697
-4.9982 5.4040 -2.0838 0.9699
-6.2126 3.8692 -2.0720 0.9700
-6.5220 3.2957 -2.0687 0.9701
-7.1348 1.4502 -2.0611 0.9702
-7.2297 0.8088 -2.0594 0.9702
-7.2513 -0.4854 -2.0574 0.9702
-6.8666 -2.3843 -2.0577 0.9702
-5.6209 -4.6458 -2.0644 0.9701
-5.1920 -5.1344 -2.0671 0.9701
-4.7214 -5.5846 -2.0702 0.9701
-4.2049 -5.9815 -2.0699 0.9701
-2.8882 -6.2238 -1.9424 0.9719
-2.3149 -6.4343 -1.9358 0.9720
-1.7369 -6.6296 -1.9401 0.9719
0.6927 -6.8858 -1.9591 0.9716
1.3062 -6.8141 -1.9641 0.9716
2.5063 -6.5076 -1.9742 0.9714
3.0833 -6.2744 -1.9791 0.9714
4.3962 -5.9666 -2.0981 0.9697
5.0169 -5.6727 -2.1438 0.9690
5.9793 -4.7218 -2.1568 0.9688
7.0502 -2.9895 -2.1679 0.9687
7.2980 -2.3533 -2.1708 0.9686
7.6152 -1.0241 -2.1752 0.9686
7.6814 -0.3425 -2.1767 0.9685
7.6850 0.3427 -2.1777 0.9685
7.5042 1.7002 -2.1782 0.9685
7.3214 2.3608 -2.1777 0.9685
6.7790 3.6174 -2.1752 0.9686
6.4242 4.2025 -2.1732 0.9686
6.0179 4.7523 -2.1708 0.9686
3.3535 6.8241 -2.1525 0.9689
2.0812 7.2783 -2.1430 0.9690
0.0837 7.5144 -2.1274 0.9692
-0.5840 7.4731 -2.1220 0.9693
-2.5183 6.9998 -2.1059 0.9695
-3.1236 6.7311 -2.1007 0.9696
-3.7013 6.4109 -2.0956 0.9697
-4.2473 6.0419 -2.0908 0.9698
-5.2285 5.1705 -2.0817 0.9699
-5.6567 4.6754 -2.0775 0.9700
-6.0393 4.1457 -2.0737 0.9700
-6.3736 3.5857 -2.0703 0.9701
-6.6574 2.9997 -2.0672 0.9701
-6.8889 2.3921 -2.0644 0.9701
-7.0665 1.7675 -2.0621 0.9702
-7.1892 1.1304 -2.0602 0.9702
-7.2561 0.4857 -2.0588 0.9702
-7.2670 -0.1619 -2.0577 0.9702
-7.1208 -1.4474 -2.0571 0.9702
-6.9648 -2.0758 -2.0574 0.9702
-6.7550 -2.6884 -2.0582 0.9702
-6.1801 -3.8490 -2.0611 0.9702
-5.8189 -4.3882 -2.0632 0.9702
-4.9617 -5.3645 -2.0686 0.9701
-4.4701 -5.7921 -2.0712 0.9700
-3.9322 -6.1596 -2.0688 0.9701
-3.2284 -6.2159 -1.9829 0.9713
-2.5964 -6.3180 -1.9337 0.9720
-2.0282 -6.5383 -1.9379 0.9719
-0.8407 -6.8260 -1.9470 0.9718
0.3848 -6.9010 -1.9567 0.9717
1.0000 -6.8568 -1.9616 0.9716
2.2112 -6.6044 -1.9717 0.9715
3.3639 -6.1383 -1.9815 0.9713
4.0309 -6.0145 -2.0497 0.9703
4.7473 -5.8758 -2.1385 0.9691
5.7573 -4.9785 -2.1547 0.9689
6.1896 -4.4550 -2.1589 0.9688
6.5733 -3.8934 -2.1628 0.9687
6.9049 -3.2982 -2.1663 0.9687
7.1813 -2.6744 -2.1694 0.9686
7.3999 -2.0271 -2.1720 0.9686
7.5587 -1.3618 -2.1743 0.9686
7.6561 -0.6842 -2.1760 0.9686
7.0625 -0.0000 -2.1723 0.9709
7.0367 0.6288 -2.1730 0.9709
6.9536 1.2527 -2.1732 0.9709
6.6185 2.4648 -2.1723 0.9709
6.3694 3.0424 -2.1711 0.9709
6.0689 3.5946 -2.1695 0.9709
5.3244 4.6041 -2.1650 0.9710
4.8870 5.0531 -2.1622 0.9710
4.4113 5.4599 -2.1590 0.9711
3.3618 6.1345 -2.1516 0.9711
2.7971 6.3970 -2.1475 0.9712
-0.8422 6.8378 -2.1191 0.9716
-2.0317 6.5494 -2.1092 0.9717
-2.6005 6.3280 -2.1043 0.9718
-4.1526 5.3807 -2.0906 0.9720
-4.6058 4.9798 -2.0864 0.9720
-5.3960 4.0693 -2.0788 0.9721
-5.7275 3.5671 -2.0754 0.9722
-6.2519 2.4882 -2.0697 0.9722
-6.5804 1.3375 -2.0654 0.9723
-6.7045 0.1494 -2.0627 0.9723
-6.6888 -0.4478 -2.0619 0.9723
-6.6214 -1.0412 -2.0616 0.9723
-6.5028 -1.6265 -2.0617 0.9723
-6.3338 -2.1993 -2.0623 0.9723
-6.1157 -2.7556 -2.0632 0.9723
-5.5385 -3.8020 -2.0663 0.9723
-5.1835 -4.2843 -2.0684 0.9722
-4.7874 -4.7344 -2.0709 0.9722
-4.3531 -5.1488 -2.0738 0.9722
-3.8835 -5.5244 -2.0770 0.9721
-2.8439 -6.1284 -2.0780 0.9721
-1.6294 -6.2193 -1.9775 0.9735
-0.4940 -6.3222 -1.9505 0.9738
0.0708 -6.3556 -1.9550 0.9738
1.2022 -6.2715 -1.9641 0.9736
2.3667 -6.1451 -2.0254 0.9728
2.9951 -6.0948 -2.0888 0.9720
3.5961 -5.9200 -2.1305 0.9714
5.0773 -4.8021 -2.1495 0.9712
5.4948 -4.3392 -2.1535 0.9711
5.8693 -3.8395 -2.1572 0.9711
6.1974 -3.3071 -2.1606 0.9710
6.4763 -2.7462 -2.1636 0.9710
6.8761 -1.5579 -2.1685 0.9709
7.0538 -0.3146 -2.1718 0.9709
6.8907 1.5612 -2.1731 0.9709
6.7230 2.1679 -2.1727 0.9709
6.2254 3.3220 -2.1704 0.9709
2.5068 6.5087 -2.1453 0.9712
1.9135 6.6921 -2.1408 0.9713
0.6936 6.8948 -2.1314 0.9714
-0.5373 6.8766 -2.1215 0.9715
-1.1446 6.7855 -2.1166 0.9716
-3.9129 5.5662 -2.0927 0.9719
-4.8185 4.7651 -2.0844 0.9720
-5.2139 4.3094 -2.0806 0.9721
-6.3528 2.2059 -2.0684 0.9722
-6.5172 1.6301 -2.0663 0.9723
-6.6308 1.0426 -2.0645 0.9723
-6.5684 -1.3351 -2.0616 0.9723
-6.2308 -2.4798 -2.0627 0.9723
-5.9887 -3.0262 -2.0638 0.9723
-5.3663 -4.0469 -2.0673 0.9723
-4.9904 -4.5136 -2.0696 0.9722
-1.3373 -6.2233 -1.9579 0.9737
-0.7743 -6.2869 -1.9483 0.9738
0.3543 -6.3534 -1.9572 0.9737
0.9205 -6.3114 -1.9618 0.9737
2.6762 -6.1207 -2.0547 0.9724
3.3219 -6.0618 -2.1261 0.9715
4.3788 -5.4197 -2.1431 0.9713
5.2912 -4.5755 -2.1516 0.9712
6.0394 -3.5771 -2.1590 0.9711
6.3432 -3.0299 -2.1622 0.9710
6.5964 -2.4565 -2.1650 0.9710
6.7965 -1.8618 -2.1675 0.9709
6.9418 -1.2506 -2.1695 0.9709
6.4981 0.5807 -2.1686 0.9729
6.2922 1.7236 -2.1686 0.9729
6.1120 2.2761 -2.1680 0.9729
4.0756 5.0445 -2.1557 0.9730
2.0449 6.1078 -2.1410 0.9732
0.9258 6.3481 -2.1325 0.9733
0.3564 6.3918 -2.1280 0.9734
-0.7792 6.3264 -2.1188 0.9735
-1.8804 6.0617 -2.1097 0.9736
-3.3937 5.3162 -2.0965 0.9738
-4.6517 4.2073 -2.0849 0.9739
-5.5729 2.8161 -2.0755 0.9740
-5.7944 2.3061 -2.0730 0.9741
-5.9705 1.7794 -2.0709 0.9741
-6.0998 1.2398 -2.0691 0.9741
-6.2154 0.1385 -2.0666 0.9741
-6.2011 -0.4151 -2.0659 0.9741
-5.8719 -2.0389 -2.0662 0.9741
-5.6695 -2.5546 -2.0670 0.9741
-5.4229 -3.0509 -2.0683 0.9741
-5.1339 -3.5242 -2.0699 0.9741
-4.0339 -4.7714 -2.0769 0.9740
-2.6424 -5.6942 -2.0867 0.9739
-2.1262 -5.9099 -2.0878 0.9739
-1.0457 -6.1995 -2.0899 0.9738
0.0691 -6.2052 -2.0628 0.9742
0.6235 -6.1977 -2.0705 0.9741
1.1852 -6.1834 -2.0928 0.9738
1.7486 -6.1152 -2.1142 0.9735
2.2933 -5.9546 -2.1211 0.9735
2.8242 -5.7470 -2.1285 0.9734
3.8169 -5.1804 -2.1389 0.9732
4.2711 -4.8294 -2.1431 0.9732
4.6926 -4.4382 -2.1470 0.9731
5.0777 -4.0098 -2.1507 0.9731
5.4230 -3.5476 -2.1541 0.9731
6.5141 -0.2905 -2.1675 0.9729
6.4663 0.8696 -2.1688 0.9729
6.3632 1.4417 -2.1688 0.9729
6.2084 2.0019 -2.1683 0.9729
6.0032 2.5456 -2.1675 0.9729
3.8440 5.2171 -2.1541 0.9731
2.8487 5.7969 -2.1470 0.9731
2.3172 6.0164 -2.1431 0.9732
1.7691 6.1868 -2.1390 0.9732
1.2090 6.3070 -2.1347 0.9733
-0.4971 6.3617 -2.1211 0.9735
-1.0591 6.2786 -2.1165 0.9735
-1.6102 6.1461 -2.1119 0.9736
-2.1462 5.9655 -2.1074 0.9736
-2.6630 5.7387 -2.1030 0.9737
-3.1567 5.4676 -2.0986 0.9737
-4.4635 4.4141 -2.0867 0.9739
-4.8305 3.9925 -2.0832 0.9739
-5.1586 3.5412 -2.0799 0.9740
-5.6893 2.5635 -2.0742 0.9740
-5.8882 2.0446 -2.0719 0.9741
-6.0410 1.5110 -2.0699 0.9741
-6.2046 0.4153 -2.0670 0.9741
-6.1758 -0.6909 -2.0657 0.9741
-6.0895 -1.2378 -2.0656 0.9741
-5.7763 -2.2989 -2.0666 0.9741
-5.2836 -3.2907 -2.0691 0.9741
-4.9741 -3.7511 -2.0709 0.9741
-2.3871 -5.8087 -2.0875 0.9739
-1.8612 -6.0001 -2.0882 0.9739
-0.7639 -6.2023 -2.0772 0.9740
1.4704 -6.1702 -2.1084 0.9736
2.0225 -6.0409 -2.1176 0.9735
2.5607 -5.8565 -2.1247 0.9734
3.0830 -5.6258 -2.1324 0.9733
4.0479 -5.0101 -2.1410 0.9732
4.4861 -4.6386 -2.1450 0.9732
4.8899 -4.2285 -2.1489 0.9731
5.5798 -3.3050 -2.1557 0.9730
5.8599 -2.7990 -2.1587 0.9730
6.0931 -2.2691 -2.1613 0.9730
6.2775 -1.7196 -2.1635 0.9729
6.4112 -1.1550 -2.1654 0.9729
5.9582 1.0734 -2.1650 0.9746
5.8385 1.5993 -2.1648 0.9746
5.6714 2.1121 -2.1642 0.9746
5.4584 2.6073 -2.1632 0.9746
4.9026 3.5287 -2.1601 0.9747
4.5647 3.9472 -2.1580 0.9747
4.1905 4.3330 -2.1556 0.9747
3.7834 4.6828 -2.1529 0.9748
2.4008 5.4907 -2.1430 0.9749
1.8992 5.6726 -2.1393 0.9749
1.3842 5.8085 -2.1353 0.9750
0.8601 5.8975 -2.1313 0.9750
-0.1984 5.9331 -2.1229 0.9751
-1.7482 5.6357 -2.1101 0.9752
-3.9692 4.2915 -2.0905 0.9755
-4.3284 3.9148 -2.0870 0.9755
-4.6526 3.5087 -2.0839 0.9755
-4.9395 3.0763 -2.0810 0.9756
-5.6788 1.1543 -2.0723 0.9757
-5.7553 0.6438 -2.0710 0.9757
-5.7869 0.1290 -2.0700 0.9757
-5.6132 -1.4040 -2.0691 0.9757
-5.4671 -1.8984 -2.0696 0.9757
-5.2785 -2.3784 -2.0704 0.9757
-4.1300 -4.0842 -2.0771 0.9756
-0.4579 -5.8601 -2.1020 0.9753
0.0656 -5.8878 -2.1056 0.9753
0.5906 -5.8708 -2.1100 0.9752
1.1135 -5.8090 -2.1152 0.9752
1.6304 -5.7018 -2.1207 0.9751
2.6259 -5.3437 -2.1292 0.9750
3.0971 -5.0985 -2.1333 0.9750
3.5452 -4.8116 -2.1373 0.9749
4.3574 -4.1212 -2.1448 0.9748
4.7144 -3.7229 -2.1482 0.9748
5.3147 -2.8360 -2.1543 0.9747
5.5527 -2.3546 -2.1568 0.9747
5.8936 -1.3353 -2.1610 0.9747
6.0447 -0.2696 -2.1638 0.9746
6.0469 0.2696 -2.1646 0.9746
6.0000 0.8069 -2.1650 0.9746
5.9044 1.3378 -2.1650 0.9746
5.7608 1.8576 -2.1646 0.9746
5.5706 2.3621 -2.1638 0.9746
5.3353 2.8470 -2.1626 0.9746
5.0571 3.3082 -2.1610 0.9747
4.3819 4.1444 -2.1569 0.9747
3.9909 4.5125 -2.1543 0.9747
3.1187 5.1341 -2.1482 0.9748
2.6452 5.3828 -2.1448 0.9748
2.1519 5.5873 -2.1411 0.9749
1.1231 5.8589 -2.1333 0.9750
0.5960 5.9242 -2.1292 0.9750
0.0662 5.9420 -2.1250 0.9751
-0.9844 5.8360 -2.1165 0.9752
-1.4969 5.7137 -2.1122 0.9752
-2.9360 5.0852 -2.0998 0.9754
-3.3707 4.7948 -2.0960 0.9754
-4.1530 4.1070 -2.0887 0.9755
-5.2957 2.3861 -2.0771 0.9756
-5.7859 -0.1290 -2.0696 0.9757
-5.7502 -0.6433 -2.0691 0.9757
-5.6699 -1.1525 -2.0691 0.9757
-5.1687 -2.6119 -2.0710 0.9757
-4.9189 -3.0635 -2.0723 0.9757
-4.3055 -3.8941 -2.0760 0.9756
-3.9462 -4.2666 -2.0783 0.9756
-3.5553 -4.6067 -2.0809 0.9756
-2.2220 -5.4069 -2.0904 0.9755
-0.7180 -5.8296 -2.1005 0.9754
0.3281 -5.8848 -2.1077 0.9753
1.3730 -5.7612 -2.1180 0.9752
1.8847 -5.6292 -2.1229 0.9751
2.8642 -5.2264 -2.1313 0.9750
3.3243 -4.9602 -2.1353 0.9750
3.7594 -4.6531 -2.1392 0.9749
4.1660 -4.3076 -2.1430 0.9749
5.1797 -3.0680 -2.1528 0.9748
5.4392 -2.5981 -2.1556 0.9747
5.6552 -2.1060 -2.1580 0.9747
5.9495 -1.0719 -2.1619 0.9746
6.0252 -0.5384 -2.1632 0.9746
5.6389 0.0000 -2.1609 0.9761
5.6179 0.5020 -2.1615 0.9761
5.2843 1.9679 -2.1609 0.9761
5.0861 2.4294 -2.1600 0.9761
4.2540 3.6785 -2.1552 0.9762
3.9056 4.0383 -2.1529 0.9762
3.1199 4.6551 -2.1475 0.9763
2.6893 4.9073 -2.1445 0.9763
1.7710 5.2896 -2.1377 0.9764
1.2909 5.4170 -2.1340 0.9764
-0.1851 5.5354 -2.1224 0.9766
-0.6757 5.4866 -2.1184 0.9766
-1.6317 5.2600 -2.1105 0.9767
-2.5292 4.8695 -2.1028 0.9768
-2.9473 4.6169 -2.0991 0.9768
-4.0428 3.6565 -2.0890 0.9769
-4.3460 3.2775 -2.0860 0.9770
-4.6145 2.8739 -2.0833 0.9770
-5.1935 1.5478 -2.0767 0.9771
-5.4080 0.1205 -2.0730 0.9771
-5.3958 -0.3612 -2.0724 0.9771
-5.2458 -1.3121 -2.0722 0.9771
-3.8587 -3.8159 -2.0797 0.9770
-3.5076 -4.1489 -2.0820 0.9770
-1.8496 -5.1411 -2.0938 0.9769
-1.3870 -5.2941 -2.0973 0.9768
-0.9119 -5.4059 -2.1009 0.9768
-0.4279 -5.4753 -2.1046 0.9767
1.5212 -5.3200 -2.1204 0.9766
2.4494 -4.9844 -2.1283 0.9765
2.8885 -4.7552 -2.1321 0.9764
3.6985 -4.1819 -2.1394 0.9764
4.0624 -3.8423 -2.1428 0.9763
4.3948 -3.4706 -2.1460 0.9763
4.9535 -2.6433 -2.1516 0.9762
5.1749 -2.1944 -2.1541 0.9762
5.3550 -1.7268 -2.1562 0.9762
5.4919 -1.2443 -2.1580 0.9762
5.6322 -0.2512 -2.1605 0.9761
5.5904 0.7518 -2.1616 0.9761
5.5013 1.2464 -2.1616 0.9761
5.3676 1.7308 -2.1612 0.9761
4.9714 2.6528 -2.1594 0.9762
4.0838 3.8624 -2.1541 0.9762
3.7196 4.2059 -2.1517 0.9762
3.3264 4.5146 -2.1490 0.9763
2.9073 4.7861 -2.1460 0.9763
1.0474 5.4643 -2.1322 0.9764
-0.9186 5.4459 -2.1164 0.9766
-2.7411 4.7478 -2.1009 0.9768
-3.1474 4.4772 -2.0973 0.9768
-3.5275 4.1724 -2.0938 0.9769
-4.1986 3.4703 -2.0874 0.9769
-4.7350 2.6639 -2.0820 0.9770
-5.1216 1.7784 -2.0776 0.9770
-5.3739 -0.6012 -2.0722 0.9771
-5.2988 -1.0770 -2.0721 0.9771
-4.3267 -3.2630 -2.0767 0.9771
-4.0228 -3.6384 -2.0786 0.9770
-3.3214 -4.3036 -2.0833 0.9770
-1.6201 -5.2227 -2.0955 0.9768
-1.1508 -5.3552 -2.0991 0.9768
-0.6707 -5.4459 -2.1028 0.9768
-0.1837 -5.4940 -2.1066 0.9767
0.3066 -5.4987 -2.1105 0.9767
1.2815 -5.3774 -2.1184 0.9766
1.7583 -5.2519 -2.1224 0.9766
2.2229 -5.0840 -2.1264 0.9765
2.6715 -4.8748 -2.1302 0.9765
3.1002 -4.6259 -2.1340 0.9764
3.5056 -4.3390 -2.1377 0.9764
3.8842 -4.0163 -2.1411 0.9764
4.2328 -3.6602 -2.1444 0.9763
4.5483 -3.2737 -2.1475 0.9763
4.8279 -2.8596 -2.1503 0.9762
5.4289 -1.4872 -2.1571 0.9762
5.5439 -0.9988 -2.1587 0.9762
5.6141 -0.5017 -2.1600 0.9761
5.2727 0.0000 -2.1580 0.9775
5.2531 0.4694 -2.1585 0.9775
5.0866 1.3934 -2.1585 0.9775
4.9412 1.8401 -2.1580 0.9775
4.2725 3.0751 -2.1544 0.9775
3.2985 4.0826 -2.1481 0.9776
2.9185 4.3546 -2.1455 0.9776
2.5159 4.5910 -2.1426 0.9776
0.2892 5.1858 -2.1257 0.9778
-0.1733 5.1819 -2.1220 0.9778
-0.6327 5.1369 -2.1183 0.9779
-2.7611 4.3252 -2.1001 0.9781
-3.4734 3.7554 -2.0936 0.9781
-4.7241 1.8802 -2.0810 0.9783
-4.8686 1.4510 -2.0792 0.9783
-2.1365 0.4343 -0.8923 0.9906
-2.1261 0.2378 -0.8756 0.9908
-2.1285 0.0474 -0.8714 0.9908
-2.1345 -0.3356 -0.8843 0.9907
-2.1308 -0.5329 -0.8989 0.9906
-4.7902 -1.6633 -2.0753 0.9783
-2.9319 -4.1707 -2.0865 0.9782
-2.5523 -4.4208 -2.0892 0.9782
-1.7330 -4.8170 -2.0952 0.9781
-1.2994 -4.9598 -2.0984 0.9781
-0.4007 -5.1285 -2.1054 0.9780
0.0574 -5.1526 -2.1090 0.9780
0.5167 -5.1360 -2.1127 0.9779
0.9735 -5.0786 -2.1164 0.9779
1.4242 -4.9806 -2.1201 0.9779
1.8651 -4.8425 -2.1238 0.9778
2.2926 -4.6654 -2.1275 0.9778
3.8007 -3.5947 -2.1411 0.9776
4.3896 -2.8715 -2.1468 0.9776
4.8399 -2.0523 -2.1516 0.9775
5.0080 -1.6149 -2.1536 0.9775
5.2666 -0.2348 -2.1576 0.9775
5.2682 0.2349 -2.1583 0.9775
5.1439 1.1655 -2.1586 0.9775
4.6488 2.4807 -2.1566 0.9775
4.1296 3.2611 -2.1536 0.9775
2.3073 4.6951 -2.1411 0.9776
1.4339 5.0146 -2.1346 0.9777
0.5203 5.1722 -2.1275 0.9778
-0.8601 5.0991 -2.1164 0.9779
-2.1654 4.6662 -2.1054 0.9780
-2.9487 4.1945 -2.0985 0.9781
-3.3052 3.9093 -2.0952 0.9781
-3.9347 3.2521 -2.0892 0.9782
-4.4381 2.4968 -2.0841 0.9782
-4.6379 2.0897 -2.0820 0.9783
-2.1285 -0.0474 -0.8714 0.9908
-4.8590 -1.4481 -2.0751 0.9783
-4.7121 -1.8754 -2.0757 0.9783
-4.5283 -2.2883 -2.0765 0.9783
-3.7709 -3.4106 -2.0810 0.9783
-3.4558 -3.7364 -2.0830 0.9782
-3.1130 -4.0336 -2.0853 0.9782
-2.7449 -4.2999 -2.0879 0.9782
-2.3545 -4.5332 -2.0906 0.9782
-1.0780 -5.0168 -2.1001 0.9781
-0.1720 -5.1456 -2.1072 0.9780
0.7456 -5.1124 -2.1145 0.9779
2.0807 -4.7588 -2.1257 0.9778
2.5003 -4.5625 -2.1293 0.9778
2.9013 -4.3290 -2.1329 0.9777
3.6342 -3.7577 -2.1395 0.9777
3.9599 -3.4243 -2.1426 0.9776
4.2547 -3.0623 -2.1455 0.9776
4.5159 -2.6748 -2.1481 0.9776
4.9289 -1.8355 -2.1526 0.9775
5.0770 -1.3907 -2.1544 0.9775
5.1843 -0.9340 -2.1559 0.9775
5.2497 -0.4691 -2.1571 0.9775
4.9456 0.0000 -2.1554 0.9787
4.9271 0.4403 -2.1559 0.9786
4.8687 0.8771 -2.1560 0.9786
4.7710 1.3069 -2.1559 0.9786
4.6347 1.7260 -2.1554 0.9787
4.0078 2.8846 -2.1521 0.9787
3.4270 3.5435 -2.1484 0.9787
3.0948 3.8304 -2.1461 0.9787
2.7384 4.0859 -2.1437 0.9788
2.3609 4.3081 -2.1410 0.9788
1.9654 4.4950 -2.1381 0.9788
1.5553 4.6455 -2.1350 0.9789
1.1340 4.7583 -2.1318 0.9789
0.7049 4.8328 -2.1285 0.9789
0.2715 4.8686 -2.1251 0.9789
-0.5941 4.8237 -2.1181 0.9790
-1.0194 4.7438 -2.1146 0.9791
-1.4352 4.6266 -2.1111 0.9791
-1.8383 4.4732 -2.1077 0.9791
-3.5604 3.2201 -2.0922 0.9793
-4.0651 2.5318 -2.0872 0.9793
-4.2699 2.1577 -2.0850 0.9793
-4.4409 1.7674 -2.0831 0.9794
-1.8741 0.5585 -0.8523 0.9915
-1.9433 0.2174 -0.8522 0.9915
-1.9470 0.0434 -0.8487 0.9915
-1.9479 -0.1304 -0.8508 0.9915
-1.9397 -0.3050 -0.8557 0.9915
-1.9080 -0.4772 -0.8571 0.9915
-1.8290 -0.6351 -0.8438 0.9916
-4.3481 -1.9592 -2.0784 0.9794
-4.1584 -2.3395 -2.0794 0.9794
-3.4000 -3.3623 -2.0840 0.9794
-3.0903 -3.6552 -2.0860 0.9793
-2.7557 -3.9200 -2.0883 0.9793
-2.0220 -4.3574 -2.0935 0.9793
-1.6284 -4.5263 -2.0964 0.9792
-0.3765 -4.8176 -2.1060 0.9791
0.0539 -4.8398 -2.1094 0.9791
1.3373 -4.6767 -2.1199 0.9790
1.7511 -4.5466 -2.1234 0.9790
3.5667 -3.3734 -2.1395 0.9788
4.3468 -2.3196 -2.1473 0.9787
4.5405 -1.9254 -2.1494 0.9787
4.9399 -0.2203 -2.1550 0.9787
4.8247 1.0931 -2.1560 0.9786
4.5524 1.9304 -2.1550 0.9787
4.1338 2.7042 -2.1528 0.9787
3.5831 3.3889 -2.1494 0.9787
2.1652 4.4060 -2.1395 0.9788
0.9202 4.8004 -2.1302 0.9789
0.4885 4.8556 -2.1268 0.9789
-0.8077 4.7885 -2.1164 0.9790
-1.2287 4.6898 -2.1129 0.9791
-1.6385 4.5544 -2.1094 0.9791
-3.6979 3.0564 -2.0908 0.9793
-3.9505 2.7119 -2.0883 0.9793
-1.9080 0.4772 -0.8571 0.9915
-1.9479 0.1304 -0.8508 0.9915
-1.9300 -0.3923 -0.8583 0.9914
-1.8741 -0.5585 -0.8523 0.9915
-4.4302 -1.7632 -2.0781 0.9794
-4.2574 -2.1513 -2.0789 0.9794
-3.8131 -2.8756 -2.0814 0.9794
-3.5448 -3.2061 -2.0830 0.9794
-2.2127 -4.2602 -2.0922 0.9793
-1.0129 -4.7134 -2.1011 0.9792
-0.5902 -4.7923 -2.1043 0.9792
-0.1616 -4.8335 -2.1077 0.9791
0.2697 -4.8366 -2.1111 0.9791
0.7002 -4.8013 -2.1146 0.9791
1.1267 -4.7277 -2.1181 0.9790
1.5455 -4.6163 -2.1216 0.9790
2.7232 -4.0634 -2.1318 0.9789
3.0787 -3.8106 -2.1350 0.9789
3.4105 -3.5265 -2.1381 0.9788
4.2369 -2.5096 -2.1461 0.9787
4.7625 -1.3046 -2.1520 0.9787
4.6514 0.0000 -2.1530 0.9797
4.6339 0.4141 -2.1535 0.9797
4.5789 0.8249 -2.1536 0.9797
4.4870 1.2291 -2.1535 0.9797
4.1957 2.0041 -2.1523 0.9797
3.9987 2.3684 -2.1512 0.9797
3.7697 2.7132 -2.1499 0.9797
3.5106 3.0357 -2.1483 0.9798
3.2237 3.3333 -2.1464 0.9798
2.5763 3.8441 -2.1420 0.9798
1.0672 4.4781 -2.1309 0.9799
0.6634 4.5486 -2.1278 0.9799
0.2555 4.5827 -2.1246 0.9800
-0.9598 4.4666 -2.1147 0.9801
-1.3514 4.3567 -2.1114 0.9801
-1.7312 4.2126 -2.1082 0.9801
-2.4434 3.8275 -2.1020 0.9802
-3.0749 3.3245 -2.0962 0.9802
-3.3544 3.0338 -2.0935 0.9803
-3.6068 2.7200 -2.0911 0.9803
-3.8305 2.3856 -2.0888 0.9803
-4.0236 2.0332 -2.0868 0.9803
-1.6373 0.3328 -0.7734 0.9927
-1.6521 -0.2598 -0.7741 0.9927
-1.6165 -0.4043 -0.7713 0.9927
-1.5621 -0.5424 -0.7654 0.9927
-4.0981 -1.8465 -2.0806 0.9804
-3.4705 -2.8684 -2.0841 0.9803
-3.2040 -3.1685 -2.0858 0.9803
-2.9120 -3.4443 -2.0878 0.9803
-1.1500 -4.3896 -2.1004 0.9802
-0.3545 -4.5371 -2.1066 0.9801
0.4569 -4.5420 -2.1130 0.9801
0.8607 -4.4903 -2.1163 0.9800
1.2589 -4.4028 -2.1196 0.9800
1.6483 -4.2798 -2.1229 0.9800
2.0258 -4.1224 -2.1262 0.9800
2.3882 -3.9316 -2.1293 0.9799
2.7326 -3.7088 -2.1324 0.9799
3.0561 -3.4556 -2.1353 0.9799
3.3559 -3.1740 -2.1381 0.9798
3.6296 -2.8662 -2.1408 0.9798
3.8747 -2.5347 -2.1432 0.9798
4.2710 -1.8111 -2.1474 0.9798
4.5312 -1.0267 -2.1506 0.9797
4.6072 -0.6196 -2.1518 0.9797
4.6460 -0.2072 -2.1527 0.9797
4.6473 0.2072 -2.1533 0.9797
4.4274 1.4277 -2.1533 0.9797
4.1013 2.1885 -2.1518 0.9797
3.8881 2.5435 -2.1506 0.9797
3.6438 2.8774 -2.1491 0.9797
3.3705 3.1878 -2.1474 0.9798
2.7465 3.7276 -2.1432 0.9798
2.4011 3.9527 -2.1408 0.9798
2.0372 4.1457 -2.1382 0.9798
1.6580 4.3049 -2.1354 0.9799
1.2665 4.4293 -2.1324 0.9799
0.8660 4.5179 -2.1293 0.9799
0.4598 4.5703 -2.1262 0.9800
-0.3567 4.5653 -2.1197 0.9800
-1.1569 4.4159 -2.1131 0.9801
-1.5430 4.2888 -2.1098 0.9801
-1.9157 4.1282 -2.1066 0.9801
-2.2721 3.9355 -2.1035 0.9802
-3.2179 3.1822 -2.0949 0.9802
-3.7223 2.5553 -2.0899 0.9803
-4.1084 1.8511 -2.0858 0.9803
-1.5621 0.5424 -0.7654 0.9927
-1.6373 -0.3328 -0.7734 0.9927
-1.5924 -0.4746 -0.7692 0.9927
-1.5257 -0.6072 -0.7601 0.9928
-4.0125 -2.0276 -2.0810 0.9804
-3.3406 -3.0214 -2.0849 0.9803
-2.4308 -3.8077 -2.0911 0.9803
-1.3435 -4.3310 -2.0990 0.9802
-0.9540 -4.4396 -2.1019 0.9802
-0.5559 -4.5135 -2.1050 0.9802
-0.1522 -4.5519 -2.1082 0.9801
0.2539 -4.5543 -2.1114 0.9801
0.6593 -4.5207 -2.1147 0.9801
1.4549 -4.3457 -2.1213 0.9800
2.2091 -4.0311 -2.1278 0.9799
2.8972 -3.5859 -2.1339 0.9799
3.4962 -3.0233 -2.1395 0.9798
4.1843 -1.9987 -2.1464 0.9798
4.6313 -0.4139 -2.1523 0.9797
4.3684 0.3903 -2.1513 0.9806
4.3166 0.7777 -2.1515 0.9806
4.1092 1.5303 -2.1509 0.9807
3.9554 1.8893 -2.1502 0.9807
3.3100 2.8622 -2.1465 0.9807
3.0396 3.1429 -2.1447 0.9807
2.7452 3.3978 -2.1427 0.9807
1.3805 4.1232 -2.1329 0.9808
1.0067 4.2241 -2.1300 0.9808
0.6258 4.2910 -2.1271 0.9809
-0.1445 4.3216 -2.1210 0.9809
-0.5278 4.2853 -2.1179 0.9809
-1.9786 3.8095 -2.1056 0.9811
-2.3066 3.6132 -2.1027 0.9811
-2.9032 3.1389 -2.0973 0.9811
-3.1673 2.8646 -2.0948 0.9812
-3.6172 2.2528 -2.0903 0.9812
-1.3059 0.5197 -0.6895 0.9938
-1.3200 0.3934 -0.6756 0.9939
-1.3047 0.2652 -0.6531 0.9941
-1.3513 -0.0905 -0.6643 0.9940
-1.3257 -0.2085 -0.6583 0.9940
-1.3149 -0.3289 -0.6649 0.9940
-1.2865 -0.5797 -0.6922 0.9937
-3.5036 -2.4050 -2.0845 0.9812
-3.0259 -2.9924 -2.0875 0.9812
-2.7500 -3.2527 -2.0893 0.9812
-2.4519 -3.4879 -2.0914 0.9812
-2.1340 -3.6963 -2.0936 0.9812
-1.7987 -3.8760 -2.0960 0.9811
-0.7135 -4.2299 -2.1042 0.9811
-0.3346 -4.2826 -2.1071 0.9810
0.0479 -4.3015 -2.1101 0.9810
1.1879 -4.1543 -2.1194 0.9809
1.5552 -4.0379 -2.1225 0.9809
1.9112 -3.8891 -2.1256 0.9809
2.2529 -3.7088 -2.1286 0.9809
2.5775 -3.4983 -2.1315 0.9808
2.8824 -3.2592 -2.1342 0.9808
3.4228 -2.7030 -2.1394 0.9808
3.8557 -2.0575 -2.1437 0.9807
4.0270 -1.7076 -2.1456 0.9807
4.2720 -0.9679 -2.1486 0.9807
4.3811 0.1954 -2.1512 0.9807
4.3469 0.5846 -2.1515 0.9806
4.0364 1.7116 -2.1506 0.9807
3.8665 2.0632 -2.1497 0.9807
3.4354 2.7129 -2.1472 0.9807
1.9213 3.9098 -2.1369 0.9808
0.0482 4.3269 -2.1225 0.9809
-0.7176 4.2544 -2.1163 0.9810
-1.4563 4.0478 -2.1101 0.9810
-2.1448 3.7150 -2.1042 0.9811
-2.4636 3.5046 -2.1013 0.9811
-2.7622 3.2671 -2.0986 0.9811
-3.0383 3.0046 -2.0960 0.9811
-3.2899 2.7191 -2.0936 0.9812
-3.7122 2.0885 -2.0893 0.9812
-1.3171 0.4573 -0.6839 0.9938
-1.3149 0.3289 -0.6649 0.9940
-1.3536 -0.0302 -0.6641 0.9940
-1.3047 -0.2652 -0.6531 0.9941
-1.3200 -0.3934 -0.6756 0.9939
-1.3059 -0.5197 -0.6895 0.9938
-3.7900 -1.9152 -2.0830 0.9813
-2.8908 -3.1255 -2.0884 0.9812
-1.2684 -4.0888 -2.0999 0.9811
-0.1436 -4.2963 -2.1086 0.9810
0.2397 -4.2983 -2.1117 0.9810
1.0009 -4.2000 -2.1179 0.9809
1.3728 -4.1002 -2.1210 0.9809
1.7348 -3.9675 -2.1241 0.9809
2.0840 -3.8028 -2.1271 0.9809
2.7326 -3.3822 -2.1329 0.9808
3.2971 -2.8511 -2.1381 0.9808
3.5417 -2.5492 -2.1405 0.9807
3.9453 -1.8845 -2.1447 0.9807
4.2233 -1.1569 -2.1480 0.9807
4.3121 -0.7769 -2.1492 0.9807
4.3661 -0.3902 -2.1502 0.9807
4.1424 0.0000 -2.1490 0.9815
4.1267 0.3688 -2.1494 0.9815
4.0778 0.7346 -2.1495 0.9815
3.9960 1.0946 -2.1494 0.9815
3.8819 1.4456 -2.1490 0.9815
3.7367 1.7849 -2.1483 0.9815
3.5615 2.1094 -2.1474 0.9815
2.8719 2.9695 -2.1431 0.9816
2.5939 3.2105 -2.1412 0.9816
2.2957 3.4253 -2.1392 0.9816
1.9796 3.6123 -2.1369 0.9816
1.3047 3.8969 -2.1320 0.9817
0.5916 4.0561 -2.1265 0.9817
-0.8565 3.9856 -2.1148 0.9818
-1.8713 3.6029 -2.1062 0.9819
-2.9964 2.7101 -2.0959 0.9820
-3.2223 2.4300 -2.0937 0.9820
-3.4225 2.1315 -2.0917 0.9820
-1.1070 0.4406 -0.6181 0.9946
-1.1266 0.3358 -0.6099 0.9947
-1.1649 0.1303 -0.6081 0.9947
-1.1275 -0.2820 -0.6029 0.9948
-1.1198 -0.3888 -0.6150 0.9947
-1.0898 -0.4910 -0.6201 0.9946
-3.5030 -1.9708 -2.0852 0.9821
-3.3154 -2.2759 -2.0862 0.9820
-2.3199 -3.3001 -2.0927 0.9820
-1.7016 -3.6668 -2.0971 0.9819
-1.3700 -3.8081 -2.0995 0.9819
-1.0269 -3.9197 -2.1021 0.9819
-0.6748 -4.0007 -2.1048 0.9819
-0.3165 -4.0502 -2.1076 0.9819
0.0453 -4.0678 -2.1104 0.9818
0.4078 -4.0533 -2.1134 0.9818
0.7680 -4.0064 -2.1163 0.9818
1.4702 -3.8174 -2.1222 0.9817
2.1295 -3.5056 -2.1279 0.9817
2.4362 -3.3064 -2.1306 0.9817
3.2344 -2.5542 -2.1381 0.9816
3.6431 -1.9440 -2.1422 0.9816
3.9361 -1.2692 -2.1455 0.9815
4.1033 -0.5518 -2.1479 0.9815
4.1387 0.1846 -2.1492 0.9815
4.1064 0.5523 -2.1495 0.9815
4.0409 0.9155 -2.1495 0.9815
3.9429 1.2714 -2.1492 0.9815
3.8131 1.6169 -2.1487 0.9815
3.0025 2.8398 -2.1440 0.9815
2.7356 3.0932 -2.1422 0.9816
2.1397 3.5224 -2.1381 0.9816
1.4779 3.8373 -2.1332 0.9816
1.1291 3.9487 -2.1306 0.9817
0.7722 4.0284 -2.1279 0.9817
0.0456 4.0905 -2.1222 0.9817
-0.6785 4.0226 -2.1163 0.9818
-1.3772 3.8279 -2.1105 0.9818
-1.7101 3.6852 -2.1076 0.9819
-2.0286 3.5137 -2.1048 0.9819
-2.3303 3.3149 -2.1021 0.9819
-2.6129 3.0906 -2.0995 0.9819
-2.8743 2.8424 -2.0971 0.9819
-3.5125 1.9761 -2.0908 0.9820
-1.1785 -0.0263 -0.6115 0.9947
-1.1332 -0.2304 -0.5999 0.9948
-1.1070 -0.4406 -0.6181 0.9946
-1.0665 -0.5390 -0.6199 0.9946
-3.4126 -2.1254 -2.0857 0.9820
-3.2117 -2.4221 -2.0868 0.9820
-2.9854 -2.7001 -2.0882 0.9820
-1.8622 -3.5853 -2.0959 0.9820
-1.5374 -3.7411 -2.0983 0.9819
-0.4963 -4.0294 -2.1062 0.9819
0.2266 -4.0646 -2.1119 0.9818
0.5883 -4.0339 -2.1148 0.9818
2.2850 -3.4095 -2.1293 0.9817
2.5826 -3.1966 -2.1319 0.9817
2.8603 -2.9576 -2.1345 0.9816
3.5513 -2.1034 -2.1412 0.9816
3.8743 -1.4428 -2.1448 0.9815
4.0737 -0.7339 -2.1474 0.9815
4.1246 -0.3686 -2.1483 0.9815
2.0429 -0.0000 -1.1189 0.9907
2.0036 0.3609 -1.1150 0.9908
3.1780 2.2874 -2.1446 0.9823
2.9599 2.5596 -2.1432 0.9823
2.7184 2.8108 -2.1417 0.9823
2.4554 3.0391 -2.1399 0.9823
1.8741 3.4197 -2.1358 0.9824
1.5606 3.5691 -2.1335 0.9824
0.2158 3.8706 -2.1232 0.9825
-0.1294 3.8694 -2.1205 0.9825
-1.1425 3.6832 -2.1121 0.9826
-1.4639 3.5623 -2.1094 0.9826
-2.0671 3.2381 -2.1041 0.9826
-2.6025 2.8138 -2.0992 0.9827
-2.8396 2.5682 -2.0970 0.9827
-3.0538 2.3030 -2.0949 0.9827
-0.9638 0.3835 -0.5681 0.9953
-1.0293 0.1151 -0.5673 0.9953
-0.9756 -0.3388 -0.5656 0.9953
-0.9472 -0.4268 -0.5690 0.9953
-3.1427 -2.1573 -2.0878 0.9828
-2.4661 -2.9169 -2.0921 0.9827
-1.9134 -3.3140 -2.0959 0.9827
-1.6125 -3.4748 -2.0981 0.9827
-0.6394 -3.7905 -2.1054 0.9826
-0.2998 -3.8372 -2.1080 0.9826
0.0429 -3.8536 -2.1107 0.9826
0.3862 -3.8395 -2.1135 0.9826
0.7274 -3.7948 -2.1163 0.9825
1.0637 -3.7199 -2.1191 0.9825
1.3924 -3.6152 -2.1218 0.9825
2.0164 -3.3195 -2.1272 0.9824
2.3067 -3.1306 -2.1298 0.9824
2.5792 -2.9163 -2.1323 0.9824
2.8316 -2.6781 -2.1347 0.9824
3.2681 -2.1379 -2.1389 0.9823
3.4484 -1.8402 -2.1408 0.9823
1.9895 -0.6415 -1.1449 0.9905
2.0042 -0.4541 -1.1255 0.9907
2.0226 -0.2720 -1.1178 0.9907
1.9407 0.8229 -1.1546 0.9904
3.4571 1.8447 -2.1462 0.9823
3.2776 2.1441 -2.1452 0.9823
3.0720 2.4259 -2.1439 0.9823
1.3993 3.6331 -2.1323 0.9824
1.0691 3.7388 -2.1298 0.9824
0.7312 3.8145 -2.1273 0.9824
0.0432 3.8739 -2.1219 0.9825
-0.6427 3.8101 -2.1163 0.9825
-1.3046 3.6263 -2.1108 0.9826
-1.6201 3.4913 -2.1080 0.9826
-1.9220 3.3290 -2.1054 0.9826
-2.4759 2.9285 -2.1004 0.9827
-2.7238 2.6936 -2.0981 0.9827
-3.1519 2.1636 -2.0939 0.9827
-0.9472 0.4268 -0.5690 0.9953
-1.0166 0.1599 -0.5637 0.9953
-1.0376 0.0695 -0.5696 0.9953
-1.0415 -0.0232 -0.5706 0.9953
-1.0000 -0.2033 -0.5589 0.9954
-2.5926 -2.8030 -2.0912 0.9827
-2.3347 -3.0252 -2.0930 0.9827
-2.0581 -3.2240 -2.0949 0.9827
-1.4569 -3.5451 -2.0992 0.9827
-1.1368 -3.6648 -2.1016 0.9827
-0.8071 -3.7559 -2.1041 0.9826
0.5573 -3.8209 -2.1149 0.9825
1.2291 -3.6713 -2.1205 0.9825
2.1636 -3.2284 -2.1286 0.9824
2.4453 -3.0266 -2.1311 0.9824
2.9497 -2.5507 -2.1358 0.9824
3.3616 -1.9911 -2.1399 0.9823
1.9715 -0.7342 -1.1522 0.9905
2.0356 -0.1819 -1.1193 0.9907
1.8267 0.5004 -1.0935 0.9913
1.7194 0.8213 -1.1001 0.9912
3.1953 1.8926 -2.1441 0.9830
3.0127 2.1684 -2.1431 0.9830
2.8061 2.4265 -2.1418 0.9830
2.0605 3.0744 -2.1368 0.9831
1.7770 3.2425 -2.1348 0.9831
0.8544 3.5853 -2.1279 0.9831
0.5313 3.6428 -2.1254 0.9831
0.2047 3.6712 -2.1229 0.9832
-0.1227 3.6703 -2.1202 0.9832
-0.4483 3.6403 -2.1176 0.9832
-0.7696 3.5815 -2.1150 0.9832
-1.9616 3.0727 -2.1047 0.9833
-2.6950 2.4375 -2.0979 0.9834
-0.8491 0.5288 -0.5776 0.9954
-0.8932 0.3555 -0.5550 0.9956
-0.9012 0.2686 -0.5429 0.9957
-0.9120 0.1854 -0.5373 0.9957
-0.9237 0.1033 -0.5366 0.9957
-0.9306 0.0207 -0.5374 0.9957
-0.9273 -0.0621 -0.5366 0.9957
-0.9189 -0.1445 -0.5370 0.9957
-0.9030 -0.2259 -0.5374 0.9957
-0.8858 -0.3991 -0.5609 0.9955
-0.8638 -0.4860 -0.5722 0.9954
-2.9833 -2.0479 -2.0892 0.9834
-2.7908 -2.3066 -2.0904 0.9834
-2.5761 -2.5475 -2.0917 0.9834
-2.3408 -2.7687 -2.0933 0.9834
-1.5303 -3.2978 -2.0990 0.9833
-1.2320 -3.4245 -2.1012 0.9833
-0.9234 -3.5244 -2.1035 0.9833
-0.6067 -3.5968 -2.1059 0.9833
-0.2845 -3.6408 -2.1084 0.9833
0.0407 -3.6561 -2.1110 0.9833
1.0090 -3.5286 -2.1189 0.9832
1.3207 -3.4291 -2.1215 0.9832
1.6226 -3.3020 -2.1241 0.9832
1.9124 -3.1482 -2.1267 0.9831
2.6850 -2.5395 -2.1337 0.9831
2.9032 -2.2927 -2.1358 0.9831
3.0986 -2.0270 -2.1377 0.9830
1.8108 -0.5839 -1.0985 0.9913
1.8755 0.0836 -1.0839 0.9914
1.8592 0.2500 -1.0831 0.9914
1.8108 0.5839 -1.0985 0.9913
1.7564 0.7448 -1.1014 0.9912
1.6860 0.8997 -1.1034 0.9912
3.1071 2.0326 -2.1436 0.9830
2.9123 2.2998 -2.1425 0.9830
2.4550 2.7759 -2.1395 0.9830
1.9206 3.1617 -2.1358 0.9831
1.6299 3.3168 -2.1337 0.9831
1.0139 3.5456 -2.1291 0.9831
0.6934 3.6177 -2.1267 0.9831
0.3683 3.6606 -2.1241 0.9832
-1.2378 3.4405 -2.1110 0.9833
-1.5372 3.3126 -2.1084 0.9833
-1.8238 3.1589 -2.1059 0.9833
-2.3497 2.7792 -2.1012 0.9833
-2.5850 2.5564 -2.0990 0.9833
-0.8638 0.4859 -0.5722 0.9954
-0.8858 0.3991 -0.5609 0.9955
-0.9030 0.2259 -0.5374 0.9957
-0.9189 0.1445 -0.5370 0.9957
-0.9273 0.0621 -0.5366 0.9957
-0.9306 -0.0207 -0.5374 0.9957
-0.9120 -0.1854 -0.5373 0.9957
-0.9012 -0.2686 -0.5429 0.9957
-0.8932 -0.3555 -0.5550 0.9956
-2.8899 -2.1794 -2.0898 0.9834
-2.6861 -2.4294 -2.0910 0.9834
-2.4609 -2.6607 -2.0925 0.9834
-1.9534 -3.0599 -2.0960 0.9834
-1.3826 -3.3644 -2.1001 0.9833
-0.4461 -3.6224 -2.1072 0.9833
0.8503 -3.5679 -2.1176 0.9832
1.1659 -3.4824 -2.1202 0.9832
1.7194 -0.8213 -1.1001 0.9912
1.8267 -0.5004 -1.0935 0.9913
1.8700 -0.1671 -1.0839 0.9914
