ply
format ascii 1.0
element vertex 1354
property float32 x
property float32 y
property float32 z
property float32 I
end_header
-15.5437 11.7221 -1.8690 0.9248
-16.4638 10.2537 -1.8621 0.9250
-18.1575 -6.3050 -1.8453 0.9257
-17.8758 -7.1144 -1.8471 0.9256
18.7495 3.3779 -2.2630 0.9261
17.1128 8.1741 -2.2528 0.9265
16.2773 9.6411 -2.2472 0.9266
15.3103 11.0197 -2.2407 0.9268
12.7818 13.2163 -2.1840 0.9286
10.8858 13.4735 -2.0576 0.9326
-11.8326 10.7020 -1.8952 0.9378
-12.8909 9.7215 -1.9179 0.9370
-14.4930 9.0264 -2.0282 0.9335
-15.1983 7.6801 -2.0228 0.9337
-15.7858 6.2826 -2.0182 0.9339
-16.2522 4.8437 -2.0145 0.9340
-16.5953 3.3731 -2.0116 0.9341
-16.9047 0.3767 -2.0085 0.9342
-16.8696 -1.1293 -2.0084 0.9342
-16.7082 -2.6272 -2.0091 0.9341
-16.0105 -5.5594 -2.0132 0.9340
-14.3699 -6.4748 -1.8722 0.9385
-13.7655 -7.7443 -1.8762 0.9384
17.2229 -3.9022 -2.0977 0.9313
17.5234 -2.3567 -2.1003 0.9313
18.8875 2.5401 -2.2638 0.9261
18.5720 4.2079 -2.2620 0.9262
18.1006 5.8367 -2.2591 0.9263
17.4784 7.4115 -2.2551 0.9264
14.7806 11.6721 -2.2372 0.9269
13.6353 12.8962 -2.2294 0.9272
11.4988 13.0019 -2.0618 0.9325
-12.2761 10.1465 -1.8918 0.9379
-15.5070 6.9871 -2.0204 0.9338
-16.4393 4.1118 -2.0129 0.9340
-16.9030 -0.3767 -2.0083 0.9342
-16.8046 -1.8799 -2.0086 0.9342
-16.5803 -3.3701 -2.0098 0.9341
-15.5826 -6.2017 -1.9922 0.9347
-13.4230 -8.3599 -1.8784 0.9383
17.3914 -3.1332 -2.0991 0.9313
18.7176 -1.6726 -2.2323 0.9271
15.5600 2.8033 -2.2402 0.9381
14.7851 5.5060 -2.2354 0.9383
14.2127 6.7888 -2.2317 0.9383
13.5244 8.0106 -2.2272 0.9385
12.7272 9.1605 -2.2218 0.9386
9.2998 11.5105 -2.0967 0.9420
8.0023 11.9402 -2.0366 0.9436
-7.3198 11.4663 -1.9275 0.9465
-12.2438 7.6255 -2.0438 0.9434
-12.8449 6.4908 -2.0392 0.9435
-13.3461 5.3116 -2.0353 0.9436
-14.3026 0.3187 -2.0270 0.9438
-14.1358 -2.2227 -2.0275 0.9438
-13.0728 -5.8903 -2.0316 0.9437
-11.6357 -6.5461 -1.8916 0.9475
-11.0302 -7.5718 -1.8957 0.9474
13.4525 -5.7044 -2.0704 0.9427
14.9402 -3.3850 -2.1705 0.9400
15.8028 0.7047 -2.2413 0.9381
15.6737 2.1079 -2.2408 0.9381
15.0259 4.8452 -2.2370 0.9382
14.5138 6.1544 -2.2337 0.9383
13.8827 7.4080 -2.2296 0.9384
11.3445 10.7296 -2.2124 0.9389
8.5419 11.5932 -2.0404 0.9435
7.4483 12.2616 -2.0328 0.9437
-7.8088 11.1082 -1.9239 0.9466
-8.7355 10.3324 -1.9171 0.9468
-9.8268 9.7180 -1.9582 0.9457
-11.1625 9.2260 -2.0519 0.9432
-11.9068 8.1736 -2.0463 0.9433
-13.1082 5.9063 -2.0371 0.9436
-14.1442 2.2241 -2.0287 0.9438
-14.2768 0.9557 -2.0274 0.9438
-13.3272 -5.3041 -2.0324 0.9437
-12.2963 -6.2136 -1.9521 0.9459
-11.3440 -7.0651 -1.8936 0.9474
-10.6946 -8.0652 -1.8979 0.9473
15.5313 -2.7981 -2.2360 0.9382
15.7488 -1.4073 -2.2403 0.9381
13.4509 1.2020 -2.2247 0.9467
13.2855 2.3935 -2.2239 0.9467
12.6278 4.7026 -2.2199 0.9468
12.1419 5.7997 -2.2167 0.9469
10.8798 7.8308 -2.2083 0.9471
8.3587 10.3457 -2.1911 0.9475
5.8966 10.7599 -2.0213 0.9515
4.8985 11.2032 -2.0143 0.9516
3.8680 11.5532 -2.0071 0.9518
2.8139 11.8077 -1.9997 0.9520
-5.4297 10.4541 -1.9406 0.9534
-6.3175 9.8962 -1.9342 0.9535
-9.2964 8.4081 -2.0650 0.9505
-9.9829 7.5285 -2.0598 0.9506
-11.5497 4.5967 -2.0478 0.9509
-11.8968 3.5456 -2.0451 0.9509
-12.1526 2.4701 -2.0429 0.9510
-12.0266 -3.0080 -2.0423 0.9510
-11.3269 -5.1037 -2.0467 0.9509
-10.8154 -6.0846 -2.0443 0.9509
-8.9394 -7.3886 -1.9106 0.9541
-8.2660 -8.1745 -1.9152 0.9540
10.9937 -5.8664 -2.0528 0.9507
13.1510 -2.9796 -2.2214 0.9468
13.4918 0.6016 -2.2248 0.9467
13.1615 2.9820 -2.2232 0.9468
12.3975 5.2570 -2.2184 0.9469
11.8616 6.3295 -2.2149 0.9470
11.2298 7.3462 -2.2107 0.9471
10.5082 8.2983 -2.2058 0.9472
7.8668 10.6770 -2.1848 0.9477
6.4167 10.5634 -2.0361 0.9511
5.4022 10.9931 -2.0178 0.9516
3.3434 11.6924 -2.0034 0.9519
2.2808 11.8989 -1.9959 0.9521
-1.9845 11.7649 -1.9655 0.9528
-4.9672 10.7041 -1.9440 0.9533
-5.8801 10.1846 -1.9374 0.9534
-6.8343 9.7219 -1.9577 0.9530
-8.1049 9.5866 -2.0681 0.9504
-9.6494 7.9754 -2.0623 0.9505
-10.2966 7.0682 -2.0575 0.9506
-11.3424 5.1106 -2.0495 0.9508
-11.7346 4.0747 -2.0464 0.9509
-12.0363 3.0105 -2.0439 0.9509
-12.3615 0.8275 -2.0410 0.9510
-12.3108 -1.3772 -2.0407 0.9510
-12.1445 -2.4685 -2.0416 0.9510
-9.9860 -6.2193 -1.9381 0.9534
-8.6114 -7.7885 -1.9128 0.9540
11.2551 -5.3761 -2.0548 0.9507
11.9270 -4.4417 -2.0967 0.9497
13.2770 -2.3920 -2.2225 0.9468
13.4466 -1.2016 -2.2240 0.9467
11.7238 1.0476 -2.2124 0.9532
11.5802 2.0863 -2.2117 0.9532
11.0094 4.1000 -2.2082 0.9533
10.5877 5.0573 -2.2054 0.9534
10.0802 5.9705 -2.2021 0.9534
1.5281 10.4772 -1.9901 0.9578
0.5875 10.5362 -1.9835 0.9580
-1.2813 10.4030 -1.9701 0.9582
-2.1948 10.2136 -1.9636 0.9584
-5.0412 9.7060 -2.0557 0.9565
-5.9746 9.3590 -2.0870 0.9558
-6.7709 8.7733 -2.0830 0.9559
-8.1781 7.3967 -2.0726 0.9561
-9.7841 4.9441 -2.0605 0.9564
-10.1705 4.0478 -2.0575 0.9564
-10.4779 3.1228 -2.0550 0.9565
-10.7044 2.1758 -2.0532 0.9565
-10.8487 1.2136 -2.0519 0.9565
-10.5939 -2.6497 -2.0526 0.9565
-9.5483 -5.3718 -2.0592 0.9564
7.8465 -7.4212 -2.0300 0.9570
8.4960 -6.7093 -2.0348 0.9569
9.0789 -5.9392 -2.0392 0.9568
9.5896 -5.1172 -2.0430 0.9567
11.1760 -3.6038 -2.2072 0.9533
11.4646 -2.5975 -2.2095 0.9533
11.7577 -0.5243 -2.2122 0.9532
11.6640 1.5687 -2.2121 0.9532
10.8096 4.5837 -2.2069 0.9533
9.7958 6.4081 -2.2002 0.9535
9.1689 7.2406 -2.1960 0.9536
8.4697 8.0106 -2.1912 0.9537
6.8807 9.3386 -2.1803 0.9539
5.0184 10.2122 -2.1387 0.9547
3.8611 10.0253 -2.0193 0.9572
2.9253 10.2305 -2.0000 0.9576
1.9966 10.4161 -1.9935 0.9578
1.0580 10.5172 -1.9868 0.9579
0.1174 10.5341 -1.9801 0.9580
-0.8179 10.4673 -1.9734 0.9582
-1.7405 10.3183 -1.9668 0.9583
-2.6432 10.0891 -1.9604 0.9584
-3.5193 9.7822 -1.9540 0.9586
-4.5080 9.7146 -2.0130 0.9573
-5.5486 9.6105 -2.0859 0.9558
-7.8497 7.7627 -2.0751 0.9561
-8.4899 7.0171 -2.0703 0.9562
-9.5621 5.3795 -2.0622 0.9563
-9.9870 4.4999 -2.0589 0.9564
-10.3342 3.5884 -2.0562 0.9565
-10.8898 0.7290 -2.0514 0.9566
-10.8452 -1.2132 -2.0512 0.9566
-10.6982 -2.1745 -2.0520 0.9565
-10.1595 -4.0434 -2.0553 0.9565
-9.3034 -5.7942 -2.0601 0.9564
-8.2491 -6.2209 -1.9420 0.9588
-7.5776 -6.8535 -1.9204 0.9593
-6.2714 -8.1261 -1.9294 0.9591
8.7961 -6.3311 -2.0371 0.9568
9.3436 -5.5342 -2.0412 0.9568
10.3796 0.9275 -2.2028 0.9583
10.2529 1.8471 -2.2022 0.9583
10.0422 2.7508 -2.2009 0.9583
9.7493 3.6307 -2.1991 0.9584
9.3772 4.4791 -2.1967 0.9584
8.4098 6.0530 -2.1902 0.9585
7.1757 7.4197 -2.1818 0.9587
5.7201 8.5349 -2.1718 0.9589
4.9251 8.9873 -2.1663 0.9590
2.3384 9.8125 -2.1323 0.9596
-0.3247 9.7123 -2.0541 0.9610
-2.0848 9.7020 -2.0976 0.9602
-3.7842 9.2083 -2.1044 0.9601
-5.3283 8.3466 -2.0932 0.9603
-6.6916 7.2349 -2.0831 0.9605
-7.8362 5.9095 -2.0746 0.9607
-9.3529 2.7875 -2.0629 0.9609
-9.6855 1.0835 -2.0601 0.9609
-9.7405 0.2171 -2.0595 0.9610
-9.7207 -0.6507 -2.0594 0.9610
-9.6262 -1.5136 -2.0598 0.9609
-9.4576 -2.3655 -2.0607 0.9609
-6.4864 -6.4146 -1.9283 0.9634
-5.9020 -6.9809 -1.9323 0.9633
-4.5921 -7.9537 -1.9414 0.9631
5.6526 -7.6718 -2.0143 0.9618
9.8974 -3.1915 -2.1982 0.9584
10.3230 -1.3883 -2.2017 0.9583
10.4111 0.4642 -2.2029 0.9583
10.3269 1.3888 -2.2025 0.9583
10.1579 2.3015 -2.2016 0.9583
9.9058 3.1942 -2.2001 0.9583
9.1625 4.8892 -2.1953 0.9584
7.5069 7.1000 -2.1841 0.9586
6.8307 7.7236 -2.1795 0.9587
5.3275 8.7702 -2.1691 0.9589
4.5139 9.1856 -2.1634 0.9590
3.6682 9.5242 -2.1574 0.9591
2.7903 9.7583 -2.1454 0.9594
1.8740 9.7764 -2.1042 0.9601
0.9791 9.7327 -2.0677 0.9608
0.1082 9.7143 -2.0535 0.9611
-1.6372 9.7057 -2.0806 0.9606
-2.5260 9.6417 -2.1068 0.9601
-3.3717 9.3718 -2.1053 0.9601
-4.1848 9.0181 -2.1015 0.9602
-4.9576 8.5868 -2.0959 0.9603
-5.6877 8.0908 -2.0905 0.9604
-8.0843 5.5496 -2.0728 0.9607
-8.5322 4.8001 -2.0694 0.9608
-9.6827 -1.0832 -2.0595 0.9609
-9.5511 -1.9413 -2.0602 0.9609
-9.0686 -3.6092 -2.0631 0.9609
-8.3050 -5.1724 -2.0681 0.9608
-5.5913 -7.2448 -1.9344 0.9633
-4.9358 -7.7318 -1.9390 0.9632
6.6488 -6.8748 -2.0216 0.9617
7.2502 -6.2695 -2.0261 0.9616
7.7951 -5.6105 -2.0301 0.9615
9.3660 -4.4738 -2.1940 0.9585
9.1896 1.6556 -2.1945 0.9624
9.0012 2.4657 -2.1934 0.9624
8.4069 4.0156 -2.1896 0.9624
7.5418 5.4283 -2.1839 0.9625
7.0173 6.0681 -2.1803 0.9626
5.8081 7.1888 -2.1721 0.9627
5.1342 7.6607 -2.1674 0.9628
2.9068 8.6822 -2.1518 0.9631
1.3145 9.0127 -2.1406 0.9633
-1.1044 8.9671 -2.1234 0.9636
-2.6627 8.5837 -2.1122 0.9637
-4.1217 7.9357 -2.1016 0.9639
-6.5752 5.9469 -2.0836 0.9642
-7.5003 4.6712 -2.0767 0.9643
-7.8754 3.9796 -2.0738 0.9644
-8.4382 2.5149 -2.0694 0.9645
-8.7395 0.9777 -2.0668 0.9645
-8.7715 -0.5872 -2.0661 0.9645
-8.3151 -2.8873 -2.0687 0.9645
-8.0322 -3.6191 -2.0705 0.9644
-7.6865 -4.3244 -2.0728 0.9644
-5.3201 -6.2927 -1.9366 0.9667
-4.7486 -6.7549 -1.9406 0.9666
-4.1375 -7.1663 -1.9448 0.9666
-2.8146 -7.8233 -1.9540 0.9664
-2.1124 -8.0631 -1.9590 0.9663
-0.6528 -8.3536 -1.9693 0.9662
2.3285 -8.1432 -1.9905 0.9658
3.7547 -7.6406 -2.0008 0.9656
5.0741 -6.8867 -2.0104 0.9655
6.2413 -5.9030 -2.0190 0.9653
7.0795 -5.5906 -2.1201 0.9636
7.7661 -5.0804 -2.1811 0.9626
8.5735 -3.6355 -2.1886 0.9625
8.8726 -2.8610 -2.1910 0.9624
9.2526 -1.2444 -2.1942 0.9624
9.3300 -0.4160 -2.1949 0.9624
9.1047 2.0629 -2.1940 0.9624
6.1288 6.9299 -2.1743 0.9627
3.2949 8.5549 -2.1546 0.9630
0.9105 9.0502 -2.1377 0.9633
-0.7048 9.0195 -2.1262 0.9635
-2.2806 8.7051 -2.1149 0.9637
-3.7687 8.1213 -2.1042 0.9639
-4.4658 7.7350 -2.0991 0.9640
-5.7408 6.7903 -2.0898 0.9641
-6.3097 6.2398 -2.0856 0.9642
-7.6954 4.3294 -2.0752 0.9644
-8.0399 3.6226 -2.0725 0.9644
-8.5385 2.1356 -2.0686 0.9645
-8.6892 1.3663 -2.0673 0.9645
-8.7889 -0.1958 -2.0661 0.9645
-8.7372 -0.9774 -2.0663 0.9645
-8.6182 -1.7517 -2.0669 0.9645
-7.8670 -3.9754 -2.0716 0.9644
-7.4909 -4.6654 -2.0741 0.9644
-4.4477 -6.9672 -1.9427 0.9666
-2.4664 -7.9508 -1.9565 0.9664
-1.0229 -8.3051 -1.9666 0.9662
-0.2804 -8.3856 -1.9719 0.9661
2.6924 -8.0419 -1.9931 0.9658
3.4063 -7.7904 -1.9983 0.9657
4.0964 -7.4750 -2.0033 0.9656
4.7568 -7.0977 -2.0081 0.9655
5.3819 -6.6613 -2.0127 0.9654
7.5096 -5.4051 -2.1746 0.9627
7.9963 -4.7362 -2.1842 0.9625
8.3978 -4.0113 -2.1873 0.9625
8.9953 -2.4641 -2.1920 0.9624
9.1855 -1.6548 -2.1936 0.9624
8.1476 2.2319 -2.1873 0.9657
7.9113 2.9462 -2.1858 0.9657
7.6109 3.6354 -2.1839 0.9657
6.8295 4.9156 -2.1787 0.9658
4.6525 6.9421 -2.1638 0.9661
3.3338 7.6245 -2.1546 0.9662
0.4589 8.2304 -2.1343 0.9665
-1.7192 8.0004 -2.1187 0.9668
-3.7457 7.2118 -2.1041 0.9670
-4.3634 6.8351 -2.0996 0.9670
-5.9800 5.4086 -2.0877 0.9672
-6.4274 4.8471 -2.0843 0.9673
-6.8235 4.2497 -2.0814 0.9673
-7.8472 1.5950 -2.0733 0.9675
-7.9837 -0.5344 -2.0717 0.9675
-7.7667 -1.9426 -2.0729 0.9675
-7.5674 -2.6277 -2.0741 0.9674
-7.3093 -3.2934 -2.0758 0.9674
-6.6240 -4.5471 -2.0803 0.9673
-6.2014 -5.1256 -2.0831 0.9673
-3.7612 -6.5146 -1.9477 0.9694
-2.5575 -7.1087 -1.9561 0.9693
-1.9190 -7.3248 -1.9605 0.9692
-1.2624 -7.4842 -1.9652 0.9691
-0.5927 -7.5851 -1.9699 0.9691
2.1122 -7.3867 -1.9892 0.9688
4.0163 -6.6117 -2.0030 0.9685
5.2077 -5.8884 -2.0353 0.9680
6.5898 -5.2039 -2.1741 0.9659
7.0377 -4.6038 -2.1774 0.9658
7.7621 -3.2914 -2.1830 0.9658
8.0321 -2.5900 -2.1851 0.9657
8.2370 -1.8662 -2.1868 0.9657
8.3749 -1.1263 -2.1879 0.9657
8.4455 0.3766 -2.1889 0.9657
8.3775 1.1267 -2.1886 0.9657
8.0376 2.5918 -2.1866 0.9657
7.7690 3.2943 -2.1849 0.9657
7.4375 3.9688 -2.1827 0.9658
6.5990 5.2112 -2.1771 0.9659
6.0995 5.7688 -2.1737 0.9659
5.5522 6.2780 -2.1700 0.9660
2.9874 7.7567 -2.1522 0.9662
2.2799 7.9733 -2.1472 0.9663
1.5575 8.1253 -2.1421 0.9664
0.0917 8.2326 -2.1317 0.9666
-1.3627 8.0788 -2.1213 0.9667
-2.0714 7.9064 -2.1162 0.9668
-4.0589 7.0301 -2.1018 0.9670
-4.6587 6.6271 -2.0974 0.9671
-5.2198 6.1740 -2.0933 0.9671
-5.7381 5.6745 -2.0895 0.9672
-6.2099 5.1326 -2.0860 0.9673
-7.0015 3.9390 -2.0800 0.9674
-7.3158 3.2963 -2.0776 0.9674
-7.9848 0.5345 -2.0720 0.9675
-7.9995 -0.1783 -2.0717 0.9675
-7.9524 -0.8896 -2.0719 0.9675
-7.8438 -1.5943 -2.0724 0.9675
-7.6745 -2.2872 -2.0734 0.9675
-7.4456 -2.9633 -2.0749 0.9674
-7.1587 -3.6175 -2.0767 0.9674
-6.8158 -4.2449 -2.0790 0.9674
-5.9714 -5.4008 -2.0847 0.9673
-5.4687 -5.9127 -2.0853 0.9673
-2.2408 -7.2237 -1.9583 0.9692
-1.5927 -7.4117 -1.9628 0.9692
-0.9289 -7.5420 -1.9675 0.9691
1.1047 -7.5747 -1.9820 0.9689
1.7789 -7.4645 -1.9868 0.9688
3.7137 -6.7766 -2.0008 0.9686
4.3114 -6.4331 -2.0051 0.9685
4.8769 -6.0362 -2.0093 0.9684
5.6278 -5.8191 -2.0960 0.9671
6.3347 -5.4778 -2.1684 0.9660
6.8205 -4.9091 -2.1758 0.9659
7.2409 -4.2888 -2.1790 0.9658
7.6035 -3.6319 -2.1817 0.9658
8.1428 -2.2305 -2.1860 0.9657
8.3144 -1.4979 -2.1874 0.9657
8.4184 -0.7523 -2.1884 0.9657
7.5893 1.3673 -2.1831 0.9685
7.4344 2.0365 -2.1822 0.9685
6.9456 3.3176 -2.1790 0.9685
6.6161 3.9188 -2.1769 0.9685
6.2338 4.4868 -2.1743 0.9686
4.2493 6.3403 -2.1607 0.9688
3.6611 6.6807 -2.1566 0.9688
3.0459 6.9662 -2.1523 0.9689
0.4196 7.5258 -2.1338 0.9692
-0.2513 7.5165 -2.1290 0.9692
-1.5730 7.3201 -2.1196 0.9694
-2.2135 7.1355 -2.1150 0.9694
-3.4292 6.6024 -2.1062 0.9695
-3.9954 6.2587 -2.1020 0.9696
-5.0237 5.4316 -2.0945 0.9697
-5.8890 4.4411 -2.0881 0.9698
-6.2527 3.8942 -2.0853 0.9698
-6.5669 3.3184 -2.0829 0.9699
-6.8295 2.7181 -2.0809 0.9699
-7.1930 1.4621 -2.0779 0.9699
-7.2915 0.8157 -2.0771 0.9700
-7.3335 0.1634 -2.0766 0.9700
-7.2471 -1.1396 -2.0768 0.9700
-7.1194 -1.7807 -2.0775 0.9700
-6.9364 -2.4086 -2.0787 0.9699
-4.2493 -6.0447 -2.0917 0.9698
-2.9052 -6.2605 -1.9538 0.9717
-2.3411 -6.5073 -1.9578 0.9717
-0.5422 -6.9393 -1.9704 0.9715
0.0777 -6.9755 -1.9748 0.9714
0.6998 -6.9565 -1.9793 0.9714
1.9307 -6.7522 -1.9881 0.9712
2.5295 -6.5677 -1.9924 0.9712
3.6798 -6.0577 -2.0065 0.9710
5.0508 -5.7110 -2.1583 0.9688
5.5607 -5.2593 -2.1667 0.9687
6.7811 -3.6185 -2.1759 0.9686
7.5161 -1.7029 -2.1817 0.9685
7.7057 0.3436 -2.1836 0.9684
7.5195 1.7037 -2.1827 0.9685
7.3342 2.3650 -2.1815 0.9685
6.7877 3.6220 -2.1780 0.9685
6.0238 4.7569 -2.1729 0.9686
5.5685 5.2667 -2.1698 0.9686
4.5316 6.1503 -2.1627 0.9687
3.9589 6.5172 -2.1587 0.9688
2.7297 7.0876 -2.1501 0.9689
-1.2467 7.3911 -2.1219 0.9693
-1.8955 7.2349 -2.1173 0.9694
-2.5264 7.0223 -2.1127 0.9695
-4.2662 6.0688 -2.1001 0.9696
-4.7808 5.6548 -2.0963 0.9697
-5.6894 4.7024 -2.0896 0.9698
-6.4161 3.6097 -2.0841 0.9699
-6.9409 2.4101 -2.0800 0.9699
-7.1228 1.7815 -2.0785 0.9699
-7.2493 1.1399 -2.0774 0.9700
-7.2899 -0.8155 -2.0766 0.9700
-6.8245 -2.7161 -2.0794 0.9699
-6.5611 -3.3155 -2.0811 0.9699
-5.4711 -4.9483 -2.0884 0.9698
-4.5174 -5.8533 -2.0931 0.9697
-2.6260 -6.3901 -1.9558 0.9717
-1.4575 -6.7828 -1.9640 0.9716
-0.8499 -6.9006 -1.9683 0.9715
0.3888 -6.9730 -1.9771 0.9714
1.6262 -6.8239 -1.9859 0.9713
2.2320 -6.6667 -1.9903 0.9712
4.0328 -6.0173 -2.0506 0.9703
4.7800 -5.9162 -2.1532 0.9689
5.7941 -5.0103 -2.1685 0.9687
6.2263 -4.4814 -2.1717 0.9686
7.2140 -2.6865 -2.1792 0.9685
7.4303 -2.0354 -2.1810 0.9685
7.6811 -0.6864 -2.1831 0.9684
7.0847 0.0000 -2.1791 0.9708
7.0565 0.6306 -2.1791 0.9708
6.9710 1.2559 -2.1786 0.9708
6.8289 1.8706 -2.1778 0.9708
6.3807 3.0478 -2.1749 0.9708
6.0785 3.6003 -2.1730 0.9709
5.7277 4.1226 -2.1706 0.9709
4.8932 5.0596 -2.1649 0.9710
4.4168 5.4667 -2.1617 0.9710
3.9063 5.8286 -2.1581 0.9711
2.8009 6.4059 -2.1504 0.9712
2.2154 6.6172 -2.1463 0.9712
1.6145 6.7747 -2.1421 0.9713
1.0031 6.8776 -2.1378 0.9713
-0.2313 6.9180 -2.1290 0.9714
-2.0383 6.5709 -2.1161 0.9716
-4.1725 5.4065 -2.1005 0.9718
-4.6297 5.0056 -2.0972 0.9719
-5.0493 4.5669 -2.0941 0.9719
-5.7643 3.5900 -2.0887 0.9720
-6.0545 3.0595 -2.0865 0.9720
-6.4904 1.9343 -2.0831 0.9721
-6.6330 1.3482 -2.0819 0.9721
-6.7240 0.7522 -2.0811 0.9721
-6.6831 -1.0509 -2.0808 0.9721
-6.5652 -1.6421 -2.0815 0.9721
-6.3962 -2.2210 -2.0826 0.9721
-6.1773 -2.7833 -2.0840 0.9720
-5.9100 -3.3249 -2.0857 0.9720
-5.2381 -4.3294 -2.0902 0.9720
-4.8382 -4.7846 -2.0929 0.9719
-3.9249 -5.5833 -2.0992 0.9718
-1.6304 -6.2232 -1.9787 0.9734
-1.0637 -6.3058 -1.9669 0.9736
-0.4992 -6.3884 -1.9709 0.9735
0.0715 -6.4206 -1.9750 0.9735
1.2138 -6.3322 -1.9831 0.9734
1.7762 -6.2117 -1.9871 0.9733
2.3680 -6.1483 -2.0265 0.9728
2.9966 -6.0978 -2.0898 0.9720
3.6229 -5.9641 -2.1463 0.9712
5.1107 -4.8337 -2.1637 0.9710
5.9029 -3.8615 -2.1696 0.9709
6.9040 -1.5642 -2.1774 0.9708
7.0191 -0.9440 -2.1784 0.9708
7.0772 -0.3156 -2.1789 0.9708
7.0208 0.9442 -2.1789 0.9708
6.7370 2.1724 -2.1772 0.9708
6.2358 3.3275 -2.1740 0.9709
5.9090 3.8655 -2.1718 0.9709
5.1174 4.8400 -2.1665 0.9710
1.3098 6.8330 -2.1400 0.9713
0.6950 6.9084 -2.1356 0.9714
0.0772 6.9286 -2.1312 0.9714
-0.5387 6.8937 -2.1268 0.9715
-1.1478 6.8044 -2.1225 0.9715
-2.3267 6.4672 -2.1140 0.9716
-2.8875 6.2225 -2.1099 0.9717
-4.8444 4.7907 -2.0956 0.9719
-5.9152 3.3279 -2.0876 0.9720
-6.1819 2.7854 -2.0855 0.9720
-6.4000 2.2223 -2.0838 0.9720
-6.5681 1.6428 -2.0824 0.9721
-6.6850 1.0512 -2.0814 0.9721
-6.7500 0.4519 -2.0808 0.9721
-6.7227 -0.7520 -2.0807 0.9721
-6.2929 -2.5045 -2.0832 0.9721
-6.0495 -3.0569 -2.0848 0.9720
-5.7587 -3.5866 -2.0867 0.9720
-5.0432 -4.5613 -2.0915 0.9719
-4.6235 -4.9989 -2.0944 0.9719
-3.6751 -5.7570 -2.1008 0.9718
-1.9290 -6.2183 -2.0025 0.9731
-0.7825 -6.3533 -1.9689 0.9736
0.3578 -6.4177 -1.9770 0.9735
1.4962 -6.2783 -1.9851 0.9734
2.0662 -6.1715 -2.0018 0.9731
2.6776 -6.1238 -2.0557 0.9724
3.3235 -6.0647 -2.1271 0.9715
4.8866 -5.0527 -2.1620 0.9710
5.3249 -4.6046 -2.1653 0.9710
5.7214 -4.1180 -2.1682 0.9709
6.0726 -3.5968 -2.1709 0.9709
6.3755 -3.0453 -2.1732 0.9709
6.6272 -2.4680 -2.1751 0.9708
6.9686 -1.2555 -2.1779 0.9708
7.0553 -0.6305 -2.1787 0.9708
6.5439 0.0000 -2.1752 0.9728
6.5179 0.5824 -2.1752 0.9728
6.4390 1.1600 -2.1748 0.9728
6.1259 2.2813 -2.1729 0.9728
5.2921 3.8091 -2.1674 0.9729
4.5220 4.6757 -2.1622 0.9730
3.6108 5.3877 -2.1559 0.9730
3.1119 5.6786 -2.1524 0.9731
-1.3405 6.2381 -2.1209 0.9735
-1.8869 6.0828 -2.1170 0.9735
-2.9251 5.6318 -2.1095 0.9736
-3.4090 5.3402 -2.1060 0.9736
-4.2887 4.6369 -2.0995 0.9737
-5.0296 3.7930 -2.0940 0.9738
-5.3412 3.3265 -2.0916 0.9738
-5.6106 2.8352 -2.0896 0.9739
-5.8358 2.3226 -2.0878 0.9739
-6.2322 0.6972 -2.0846 0.9739
-6.2683 0.1397 -2.0841 0.9739
-6.2557 -0.4188 -2.0841 0.9739
-6.1944 -0.9740 -2.0843 0.9739
-6.0849 -1.5219 -2.0850 0.9739
-4.8534 -4.0114 -2.0930 0.9738
-4.4825 -4.4328 -2.0955 0.9738
-3.6356 -5.1717 -2.1014 0.9737
-2.6694 -5.7525 -2.1080 0.9736
-1.6079 -6.1373 -2.1089 0.9736
-1.0463 -6.2032 -2.0911 0.9738
-0.4851 -6.2079 -2.0698 0.9741
0.0692 -6.2088 -2.0640 0.9742
1.1859 -6.1867 -2.0939 0.9738
1.7612 -6.1592 -2.1294 0.9734
4.7232 -4.4672 -2.1610 0.9730
5.4542 -3.5680 -2.1665 0.9729
6.0122 -2.5494 -2.1707 0.9728
6.2199 -2.0057 -2.1724 0.9728
6.4835 -0.8719 -2.1746 0.9728
6.3800 1.4455 -2.1745 0.9728
5.7609 3.0741 -2.1705 0.9729
5.1144 4.0388 -2.1662 0.9729
4.7289 4.4726 -2.1636 0.9729
3.8502 5.2255 -2.1576 0.9730
3.3646 5.5388 -2.1542 0.9731
2.3213 6.0272 -2.1469 0.9731
1.7725 6.1987 -2.1431 0.9732
1.2115 6.3202 -2.1391 0.9732
0.0714 6.4105 -2.1310 0.9733
-1.0623 6.2976 -2.1229 0.9734
-1.6155 6.1665 -2.1190 0.9735
-2.6736 5.7615 -2.1113 0.9736
-3.6406 5.1788 -2.1043 0.9737
-4.4878 4.4381 -2.0980 0.9737
-4.8586 4.0157 -2.0953 0.9738
-5.1906 3.5631 -2.0928 0.9738
-5.7288 2.5813 -2.0887 0.9739
-5.9313 2.0596 -2.0871 0.9739
-6.1960 0.9743 -2.0849 0.9739
-6.2681 -0.1397 -2.0841 0.9739
-5.3365 -3.3236 -2.0898 0.9738
-5.0245 -3.7891 -2.0919 0.9738
-3.8595 -5.0009 -2.0998 0.9737
-3.4042 -5.3325 -2.1030 0.9737
-2.9207 -5.6233 -2.1063 0.9736
-1.8792 -6.0580 -2.1084 0.9736
-0.7643 -6.2059 -2.0785 0.9740
-0.2076 -6.2091 -2.0651 0.9742
0.9037 -6.1962 -2.0814 0.9740
3.1063 -5.6682 -2.1485 0.9731
4.9209 -4.2552 -2.1625 0.9730
5.2868 -3.8052 -2.1652 0.9729
5.6108 -3.3233 -2.1677 0.9729
5.8901 -2.8135 -2.1698 0.9729
6.1222 -2.2799 -2.1716 0.9728
6.3051 -1.7271 -2.1730 0.9728
6.4370 -1.1597 -2.1741 0.9728
6.5169 -0.5824 -2.1749 0.9728
6.0734 0.0000 -2.1719 0.9745
5.9761 1.0766 -2.1715 0.9745
5.8546 1.6038 -2.1708 0.9745
5.6859 2.1175 -2.1697 0.9746
5.4714 2.6135 -2.1684 0.9746
4.9129 3.5361 -2.1646 0.9746
4.5738 3.9551 -2.1624 0.9746
4.1987 4.3414 -2.1598 0.9747
3.7907 4.6918 -2.1570 0.9747
3.3533 5.0035 -2.1540 0.9747
2.8904 5.2742 -2.1508 0.9748
1.9033 5.6848 -2.1438 0.9749
0.8622 5.9119 -2.1365 0.9749
0.3320 5.9547 -2.1327 0.9750
-0.1989 5.9501 -2.1290 0.9750
-2.2473 5.4685 -2.1143 0.9752
-2.7207 5.2382 -2.1108 0.9752
-3.5954 4.6587 -2.1044 0.9753
-3.9903 4.3142 -2.1015 0.9753
-4.9709 3.0959 -2.0942 0.9754
-5.4319 2.1618 -2.0907 0.9755
-5.7227 1.1632 -2.0883 0.9755
-5.8352 0.1300 -2.0872 0.9755
-5.8234 -0.3898 -2.0872 0.9755
-5.7663 -0.9067 -2.0874 0.9755
-5.6643 -1.4167 -2.0880 0.9755
-5.5181 -1.9161 -2.0889 0.9755
-3.3824 -4.8115 -2.1033 0.9753
-2.0002 -5.5595 -2.1129 0.9752
-1.4999 -5.7250 -2.1164 0.9752
-0.9853 -5.8415 -2.1185 0.9751
-0.4620 -5.9129 -2.1210 0.9751
0.0662 -5.9398 -2.1242 0.9751
1.6438 -5.7486 -2.1381 0.9749
3.1205 -5.1371 -2.1494 0.9748
3.5708 -4.8463 -2.1527 0.9748
3.9937 -4.5158 -2.1558 0.9747
4.7433 -3.7457 -2.1614 0.9747
5.0635 -3.3124 -2.1638 0.9746
5.5807 -2.3664 -2.1677 0.9746
5.7732 -1.8616 -2.1692 0.9746
5.9192 -1.3411 -2.1704 0.9745
6.0175 -0.8093 -2.1713 0.9745
5.3475 2.8535 -2.1675 0.9746
5.0680 3.3153 -2.1657 0.9746
4.3906 4.1526 -2.1611 0.9747
1.1257 5.8727 -2.1384 0.9749
0.5975 5.9392 -2.1346 0.9750
-0.9876 5.8549 -2.1233 0.9751
-1.5022 5.7338 -2.1196 0.9751
-2.4866 5.3585 -2.1125 0.9752
-3.7967 4.4908 -2.1030 0.9753
-4.1758 4.1295 -2.1002 0.9754
-5.3322 2.4025 -2.0914 0.9755
-5.5209 1.9171 -2.0900 0.9755
-5.7677 0.9069 -2.0879 0.9755
-5.8240 0.3899 -2.0874 0.9755
-5.7209 -1.1628 -2.0877 0.9755
-5.5967 -1.6680 -2.0884 0.9755
-5.4287 -2.1606 -2.0895 0.9755
-4.6761 -3.5264 -2.0944 0.9754
-4.3483 -3.9328 -2.0966 0.9754
-3.1670 -4.9610 -2.1047 0.9753
-2.7169 -5.2309 -2.1079 0.9753
-2.2440 -5.4605 -2.1112 0.9752
-1.7520 -5.6477 -2.1146 0.9752
-1.2440 -5.7892 -2.1175 0.9752
0.8598 -5.8952 -2.1305 0.9750
2.8863 -5.2668 -2.1477 0.9748
3.3488 -4.9968 -2.1511 0.9748
3.7859 -4.6859 -2.1543 0.9747
4.5690 -3.9509 -2.1601 0.9747
4.9082 -3.5327 -2.1626 0.9746
5.9744 -1.0763 -2.1709 0.9745
6.0484 -0.5405 -2.1716 0.9745
5.6598 0.0000 -2.1690 0.9760
5.6373 0.5038 -2.1689 0.9760
5.4562 1.4946 -2.1679 0.9761
5.0994 2.4358 -2.1657 0.9761
4.2636 3.6869 -2.1601 0.9761
3.5342 4.3743 -2.1551 0.9762
3.1267 4.6654 -2.1523 0.9762
2.2436 5.1312 -2.1461 0.9763
1.7752 5.3024 -2.1428 0.9763
0.8044 5.5155 -2.1360 0.9764
-0.1856 5.5523 -2.1289 0.9765
-0.6780 5.5047 -2.1254 0.9765
-1.1633 5.4136 -2.1220 0.9766
-1.6379 5.2801 -2.1185 0.9766
-2.0981 5.1053 -2.1152 0.9766
-2.5403 4.8909 -2.1120 0.9767
-3.3577 4.3507 -2.1060 0.9767
-4.3722 3.2972 -2.0985 0.9768
-4.8785 2.4652 -2.0947 0.9769
-5.2314 1.5591 -2.0919 0.9769
-5.3470 1.0868 -2.0910 0.9769
-5.3879 -0.8472 -2.0901 0.9769
-5.1558 -1.7903 -2.0915 0.9769
-4.5087 -3.0950 -2.0957 0.9768
-4.2192 -3.4873 -2.0977 0.9768
-3.8962 -3.8530 -2.0999 0.9768
-3.5419 -4.1893 -2.1023 0.9768
-2.7501 -4.7633 -2.1078 0.9767
-2.3185 -4.9963 -2.1108 0.9767
-1.8674 -5.1906 -2.1139 0.9766
-1.4002 -5.3444 -2.1172 0.9766
-0.9204 -5.4565 -2.1206 0.9766
0.0618 -5.5514 -2.1275 0.9765
1.5339 -5.3643 -2.1381 0.9764
2.0084 -5.2148 -2.1415 0.9763
2.4684 -5.0231 -2.1448 0.9763
2.9101 -4.7906 -2.1480 0.9763
3.7236 -4.2104 -2.1540 0.9762
4.0887 -3.8671 -2.1567 0.9762
4.9805 -2.6577 -2.1634 0.9761
5.2014 -2.2056 -2.1651 0.9761
5.3805 -1.7350 -2.1665 0.9761
5.6543 0.2521 -2.1690 0.9760
5.6090 0.7543 -2.1688 0.9760
5.5183 1.2503 -2.1683 0.9761
4.9841 2.6596 -2.1649 0.9761
4.0930 3.8711 -2.1589 0.9762
3.7278 4.2151 -2.1564 0.9762
3.3337 4.5245 -2.1537 0.9762
2.9138 4.7968 -2.1508 0.9762
1.5361 5.3720 -2.1411 0.9764
0.5575 5.5413 -2.1342 0.9764
0.0619 5.5597 -2.1307 0.9765
-0.4324 5.5340 -2.1272 0.9765
-1.4022 5.3521 -2.1202 0.9766
-1.8700 5.1978 -2.1169 0.9766
-2.7536 4.7694 -2.1105 0.9767
-3.1627 4.4990 -2.1075 0.9767
-3.9002 3.8570 -2.1020 0.9768
-4.5124 3.0976 -2.0975 0.9768
-5.2944 1.3242 -2.0914 0.9769
-5.4199 -0.6063 -2.0900 0.9769
-5.3454 -1.0865 -2.0904 0.9769
-5.2292 -1.5585 -2.0910 0.9769
-5.0722 -2.0187 -2.0920 0.9769
-4.8753 -2.4636 -2.0933 0.9769
-3.7228 -4.0250 -2.1011 0.9768
-2.9575 -4.6329 -2.1063 0.9767
-2.5370 -4.8845 -2.1092 0.9767
-2.0952 -5.0984 -2.1123 0.9767
-1.6356 -5.2726 -2.1156 0.9766
-1.1616 -5.4058 -2.1189 0.9766
-0.6770 -5.4966 -2.1223 0.9766
-0.1854 -5.5441 -2.1258 0.9765
0.3093 -5.5478 -2.1293 0.9765
1.2923 -5.4229 -2.1363 0.9764
1.7727 -5.2949 -2.1398 0.9764
2.2405 -5.1241 -2.1432 0.9763
2.6918 -4.9119 -2.1464 0.9763
3.1228 -4.6596 -2.1496 0.9763
3.9100 -4.0429 -2.1554 0.9762
4.5754 -3.2931 -2.1603 0.9761
4.8550 -2.8756 -2.1624 0.9761
5.2963 -1.9724 -2.1658 0.9761
5.4540 -1.4940 -2.1671 0.9761
5.5677 -1.0031 -2.1680 0.9761
5.6366 -0.5037 -2.1686 0.9761
5.2721 0.4711 -2.1663 0.9774
5.1028 1.3978 -2.1654 0.9774
4.7694 2.2782 -2.1633 0.9774
4.5446 2.6918 -2.1618 0.9774
2.5222 4.6024 -2.1479 0.9776
2.0996 4.8020 -2.1450 0.9776
1.2114 5.0834 -2.1388 0.9777
0.7530 5.1632 -2.1355 0.9777
-0.1738 5.1988 -2.1289 0.9778
-0.6349 5.1547 -2.1256 0.9778
-1.0895 5.0700 -2.1224 0.9778
-1.5341 4.9454 -2.1192 0.9779
-3.1460 4.0764 -2.1075 0.9780
-4.0975 3.0901 -2.1004 0.9781
-4.3523 2.7106 -2.0985 0.9781
-4.7569 1.8932 -2.0954 0.9781
-4.9038 1.4615 -2.0942 0.9781
-2.1261 0.2378 -0.8756 0.9908
-2.1345 -0.3356 -0.8843 0.9907
-2.1308 -0.5330 -0.8989 0.9906
-4.6667 -2.1027 -2.0949 0.9781
-3.9543 -3.2683 -2.0996 0.9781
-3.6513 -3.6108 -2.1017 0.9781
-3.3190 -3.9257 -2.1040 0.9780
-2.9599 -4.2105 -2.1064 0.9780
-2.5766 -4.4628 -2.1091 0.9780
-1.7493 -4.8622 -2.1149 0.9779
-1.3115 -5.0059 -2.1179 0.9779
0.9817 -5.1214 -2.1342 0.9777
1.8798 -4.8809 -2.1407 0.9776
2.7232 -4.4830 -2.1468 0.9776
3.1156 -4.2285 -2.1496 0.9776
3.4839 -3.9393 -2.1523 0.9775
3.8252 -3.6179 -2.1549 0.9775
5.0323 -1.6227 -2.1640 0.9774
5.2456 0.7055 -2.1662 0.9774
4.8676 2.0640 -2.1639 0.9774
4.4185 2.8904 -2.1609 0.9774
3.8289 3.6214 -2.1570 0.9775
3.4876 3.9435 -2.1546 0.9775
2.7265 4.4884 -2.1494 0.9776
0.5219 5.1876 -2.1339 0.9777
0.0580 5.2054 -2.1306 0.9778
-0.8632 5.1174 -2.1240 0.9778
-1.3132 5.0126 -2.1208 0.9779
-2.5797 4.4682 -2.1116 0.9779
-2.9632 4.2152 -2.1088 0.9780
-3.3225 3.9298 -2.1062 0.9780
-4.2291 2.9031 -2.0994 0.9781
-4.6693 2.1039 -2.0961 0.9781
-2.1308 0.5329 -0.8989 0.9906
-2.1302 0.1426 -0.8738 0.9908
-2.1285 -0.0474 -0.8714 0.9908
-2.1365 -0.4343 -0.8923 0.9906
-4.5698 -2.3092 -2.0955 0.9781
-4.0941 -3.0875 -2.0987 0.9781
-3.8066 -3.4428 -2.1006 0.9781
-3.4886 -3.7719 -2.1028 0.9780
-2.7711 -4.3408 -2.1077 0.9780
-2.3768 -4.5762 -2.1105 0.9780
-1.5321 -4.9389 -2.1164 0.9779
-1.0880 -5.0631 -2.1195 0.9779
-0.6340 -5.1476 -2.1227 0.9778
-0.1736 -5.1916 -2.1260 0.9778
0.7520 -5.1560 -2.1326 0.9777
1.2098 -5.0764 -2.1358 0.9777
1.6593 -4.9561 -2.1391 0.9777
2.5191 -4.5967 -2.1453 0.9776
2.9222 -4.3602 -2.1482 0.9776
3.3030 -4.0881 -2.1510 0.9775
3.9848 -3.4458 -2.1561 0.9775
4.2800 -3.0806 -2.1583 0.9775
4.5414 -2.6898 -2.1602 0.9774
4.7665 -2.2768 -2.1619 0.9774
5.1009 -1.3973 -2.1646 0.9774
5.2071 -0.9381 -2.1655 0.9774
5.2714 -0.4711 -2.1661 0.9774
4.8860 0.8803 -2.1637 0.9786
4.7870 1.3113 -2.1631 0.9786
4.6495 1.7315 -2.1623 0.9786
4.4745 2.1373 -2.1611 0.9786
4.0191 2.8927 -2.1581 0.9786
3.7424 3.2362 -2.1562 0.9786
2.7457 4.0969 -2.1494 0.9787
2.3673 4.3197 -2.1468 0.9787
-1.8463 4.4926 -2.1168 0.9790
-2.6067 4.0834 -2.1113 0.9791
-2.9562 3.8305 -2.1087 0.9791
-3.2817 3.5481 -2.1064 0.9791
-4.0908 2.5477 -2.1003 0.9792
-1.8741 0.5585 -0.8523 0.9915
-1.9300 0.3923 -0.8583 0.9914
-1.9470 0.0434 -0.8487 0.9915
-1.9479 -0.1304 -0.8508 0.9915
-1.9397 -0.3050 -0.8557 0.9915
-4.3867 -1.9766 -2.0969 0.9792
-3.4315 -3.3935 -2.1033 0.9792
-0.3798 -4.8602 -2.1246 0.9790
1.3480 -4.7143 -2.1369 0.9788
1.7648 -4.5821 -2.1399 0.9788
2.5560 -4.2078 -2.1457 0.9787
2.9241 -3.9686 -2.1484 0.9787
3.2696 -3.6970 -2.1509 0.9787
3.5896 -3.3950 -2.1533 0.9787
4.1426 -2.7099 -2.1574 0.9786
4.3708 -2.3323 -2.1591 0.9786
4.5642 -1.9354 -2.1606 0.9786
4.7211 -1.5223 -2.1618 0.9786
4.8400 -1.0966 -2.1628 0.9786
4.9199 -0.6617 -2.1635 0.9786
4.9606 0.2212 -2.1640 0.9786
4.9208 0.6618 -2.1639 0.9786
4.8414 1.0969 -2.1634 0.9786
4.5666 1.9364 -2.1617 0.9786
4.3736 2.3338 -2.1605 0.9786
4.1456 2.7119 -2.1590 0.9786
3.8846 3.0676 -2.1572 0.9786
3.2728 3.7006 -2.1530 0.9787
2.9272 3.9728 -2.1506 0.9787
2.1711 4.4181 -2.1454 0.9787
0.4900 4.8710 -2.1336 0.9789
0.0545 4.8881 -2.1305 0.9789
-1.2335 4.7084 -2.1213 0.9790
-1.6454 4.5735 -2.1183 0.9790
-2.0432 4.4029 -2.1154 0.9790
-3.1221 3.6929 -2.1075 0.9791
-3.4347 3.3966 -2.1052 0.9791
-1.8290 0.6351 -0.8438 0.9916
-1.9080 0.4772 -0.8571 0.9915
-1.9397 0.3050 -0.8557 0.9915
-1.9479 0.1304 -0.8508 0.9915
-1.9470 -0.0434 -0.8487 0.9915
-4.4693 -1.7787 -2.0964 0.9792
-4.2955 -2.1706 -2.0975 0.9792
-3.8481 -2.9020 -2.1005 0.9792
-2.9532 -3.8266 -2.1066 0.9791
-2.6039 -4.0789 -2.1090 0.9791
-1.8440 -4.4872 -2.1143 0.9791
-1.4393 -4.6397 -2.1171 0.9790
-1.0220 -4.7560 -2.1201 0.9790
0.2720 -4.8780 -2.1292 0.9789
1.5578 -4.6529 -2.1384 0.9788
1.9685 -4.5020 -2.1414 0.9788
2.3645 -4.3147 -2.1443 0.9788
2.7427 -4.0924 -2.1470 0.9787
3.4329 -3.5496 -2.1521 0.9787
3.7392 -3.2334 -2.1544 0.9787
4.0160 -2.8905 -2.1564 0.9786
4.7853 -1.3108 -2.1624 0.9786
4.8849 -0.8800 -2.1632 0.9786
4.9451 -0.4419 -2.1637 0.9786
4.6520 0.4157 -2.1619 0.9796
4.5028 1.2335 -2.1611 0.9796
4.3735 1.6287 -2.1603 0.9796
4.0111 2.3758 -2.1579 0.9797
2.9197 3.6137 -2.1505 0.9797
1.0705 4.4922 -2.1376 0.9799
0.6656 4.5635 -2.1347 0.9799
0.2564 4.5984 -2.1318 0.9799
-0.5614 4.5585 -2.1260 0.9800
-0.9636 4.4843 -2.1231 0.9800
-1.3571 4.3749 -2.1203 0.9800
-1.7389 4.2313 -2.1175 0.9800
-2.1059 4.0546 -2.1149 0.9801
-3.6285 2.7364 -2.1037 0.9802
-3.8545 2.4006 -2.1020 0.9802
-1.5257 0.6072 -0.7601 0.9928
-1.6373 0.3328 -0.7734 0.9927
-1.6675 0.1865 -0.7767 0.9926
-1.6716 0.0373 -0.7739 0.9927
-1.6738 -0.1120 -0.7765 0.9926
-1.6165 -0.4043 -0.7713 0.9927
-3.9538 -2.2244 -2.0999 0.9802
-3.7427 -2.5692 -2.1013 0.9802
-3.5018 -2.8944 -2.1030 0.9802
-3.2331 -3.1973 -2.1048 0.9802
-2.9385 -3.4757 -2.1068 0.9801
-2.6202 -3.7273 -2.1090 0.9801
-1.9223 -4.1424 -2.1138 0.9801
-0.7625 -4.5204 -2.1220 0.9800
0.0512 -4.5964 -2.1277 0.9799
0.4607 -4.5799 -2.1307 0.9799
0.8677 -4.5269 -2.1336 0.9799
1.2689 -4.4377 -2.1365 0.9799
1.6610 -4.3128 -2.1393 0.9798
2.4055 -3.9599 -2.1447 0.9798
3.0765 -3.4786 -2.1496 0.9797
3.3774 -3.1943 -2.1518 0.9797
4.1118 -2.1941 -2.1573 0.9797
4.2935 -1.8206 -2.1587 0.9797
4.5527 -1.0315 -2.1608 0.9796
4.6278 -0.6224 -2.1614 0.9796
4.6657 -0.2081 -2.1618 0.9796
4.6286 0.6225 -2.1618 0.9796
4.5539 1.0318 -2.1614 0.9796
4.4426 1.4326 -2.1607 0.9796
4.1142 2.1954 -2.1586 0.9797
3.3803 3.1970 -2.1536 0.9797
2.7544 3.7383 -2.1493 0.9797
2.4080 3.9641 -2.1469 0.9798
2.0432 4.1578 -2.1444 0.9798
1.6630 4.3178 -2.1417 0.9798
0.8688 4.5324 -2.1362 0.9799
0.4613 4.5855 -2.1333 0.9799
-0.3581 4.5821 -2.1274 0.9799
-1.9244 4.1470 -2.1162 0.9801
-2.6229 3.7311 -2.1111 0.9801
-2.9413 3.4790 -2.1088 0.9801
-3.2359 3.2001 -2.1066 0.9801
-3.5046 2.8966 -2.1046 0.9802
-3.7452 2.5710 -2.1028 0.9802
-3.9562 2.2257 -2.1012 0.9802
-4.1359 1.8635 -2.0998 0.9802
-1.5621 0.5424 -0.7654 0.9927
-1.6521 0.2598 -0.7741 0.9927
-1.6716 -0.0373 -0.7739 0.9927
-1.6373 -0.3328 -0.7734 0.9927
-1.5257 -0.6072 -0.7601 0.9928
-4.0478 -2.0455 -2.0993 0.9802
-3.8521 -2.3991 -2.1006 0.9802
-3.6259 -2.7344 -2.1021 0.9802
-3.0889 -3.3397 -2.1058 0.9801
-2.4530 -3.8425 -2.1101 0.9801
-1.7369 -4.2265 -2.1151 0.9801
-1.3555 -4.3698 -2.1178 0.9800
-0.9625 -4.4790 -2.1206 0.9800
-0.1535 -4.5910 -2.1263 0.9800
0.6648 -4.5579 -2.1321 0.9799
1.4663 -4.3796 -2.1379 0.9798
2.5810 -3.8511 -2.1460 0.9798
2.9169 -3.6103 -2.1484 0.9797
3.2301 -3.3399 -2.1507 0.9797
3.5180 -3.0421 -2.1528 0.9797
3.7782 -2.7194 -2.1548 0.9797
4.0085 -2.3742 -2.1565 0.9797
4.2069 -2.0095 -2.1580 0.9797
4.5013 -1.2330 -2.1604 0.9796
4.5949 -0.8278 -2.1611 0.9796
4.4035 0.0000 -2.1600 0.9806
4.3860 0.3919 -2.1600 0.9806
4.3332 0.7807 -2.1597 0.9806
4.2455 1.1630 -2.1592 0.9806
4.1237 1.5357 -2.1585 0.9806
3.7821 2.2402 -2.1562 0.9806
3.3202 2.8711 -2.1531 0.9806
3.0489 3.1525 -2.1513 0.9807
2.7536 3.4082 -2.1492 0.9807
2.4368 3.6360 -2.1471 0.9807
2.1013 3.8343 -2.1447 0.9807
1.7496 4.0015 -2.1423 0.9807
0.2419 4.3389 -2.1316 0.9808
-0.1450 4.3376 -2.1289 0.9808
-0.9095 4.2323 -2.1234 0.9809
-1.2809 4.1293 -2.1208 0.9809
-2.3181 3.6313 -2.1132 0.9810
-2.9191 3.1561 -2.1088 0.9810
-3.1855 2.8811 -2.1068 0.9810
-3.4263 2.5839 -2.1051 0.9811
-3.8247 1.9327 -2.1020 0.9811
-1.3200 0.3934 -0.6756 0.9939
-1.3047 0.2652 -0.6531 0.9941
-1.3419 0.1501 -0.6624 0.9940
-1.3513 -0.0905 -0.6643 0.9940
-1.3257 -0.2085 -0.6583 0.9940
-3.7339 -2.1007 -2.1015 0.9811
-3.0529 -3.0191 -2.1061 0.9811
-2.7746 -3.2818 -2.1080 0.9810
-1.8147 -3.9105 -2.1147 0.9810
-1.4611 -4.0612 -2.1171 0.9810
-1.0952 -4.1802 -2.1197 0.9809
0.0483 -4.3375 -2.1278 0.9809
0.4348 -4.3216 -2.1305 0.9808
1.5670 -4.0687 -2.1387 0.9808
1.9253 -3.9178 -2.1413 0.9807
2.2690 -3.7352 -2.1438 0.9807
2.5953 -3.5224 -2.1461 0.9807
3.4437 -2.7195 -2.1524 0.9806
3.6750 -2.4041 -2.1541 0.9806
3.8772 -2.0689 -2.1557 0.9806
4.1873 -1.3502 -2.1581 0.9806
4.3633 -0.5868 -2.1596 0.9806
4.3989 -0.1962 -2.1599 0.9806
4.3992 0.1962 -2.1600 0.9806
4.2936 0.9728 -2.1595 0.9806
4.1888 1.3507 -2.1589 0.9806
2.9041 3.2837 -2.1503 0.9807
2.5977 3.5257 -2.1482 0.9807
1.9273 3.9219 -2.1435 0.9807
1.5687 4.0731 -2.1410 0.9807
0.8197 4.2761 -2.1357 0.9808
0.4353 4.3266 -2.1330 0.9808
-1.4627 4.0657 -2.1194 0.9809
-1.8166 3.9146 -2.1169 0.9810
-2.1553 3.7330 -2.1144 0.9810
-2.4762 3.5225 -2.1121 0.9810
-3.5366 2.4278 -2.1042 0.9811
-3.7360 2.1019 -2.1027 0.9811
-1.2865 0.5797 -0.6922 0.9937
-1.3171 0.4573 -0.6839 0.9938
-1.3149 0.3289 -0.6649 0.9940
-1.3419 -0.1501 -0.6624 0.9940
-1.3200 -0.3934 -0.6756 0.9939
-1.3059 -0.5198 -0.6895 0.9938
-3.4240 -2.5821 -2.1036 0.9811
-3.1830 -2.8789 -2.1052 0.9811
-2.9167 -3.1535 -2.1070 0.9810
-2.6269 -3.4038 -2.1090 0.9810
-0.9084 -4.2275 -2.1210 0.9809
-0.5292 -4.2970 -2.1237 0.9809
1.0088 -4.2333 -2.1347 0.9808
1.3834 -4.1319 -2.1374 0.9808
1.7478 -3.9972 -2.1400 0.9808
2.4345 -3.6325 -2.1450 0.9807
2.7511 -3.4051 -2.1473 0.9807
3.0463 -3.1499 -2.1495 0.9807
3.7799 -2.2388 -2.1549 0.9806
4.1603 0.0000 -2.1583 0.9814
3.7498 1.7911 -2.1559 0.9814
3.3689 2.4248 -2.1533 0.9815
1.6538 3.7823 -2.1415 0.9816
1.3091 3.9100 -2.1391 0.9816
0.9548 4.0064 -2.1366 0.9816
0.5937 4.0706 -2.1341 0.9816
-0.5010 4.0679 -2.1263 0.9817
-0.8600 4.0023 -2.1237 0.9817
-1.2114 3.9052 -2.1212 0.9817
-2.1927 3.4349 -2.1141 0.9818
-2.4872 3.2228 -2.1119 0.9818
-2.7615 2.9858 -2.1099 0.9818
-3.0137 2.7257 -2.1080 0.9819
-3.2417 2.4447 -2.1063 0.9819
-3.4439 2.1449 -2.1048 0.9819
-1.0665 0.5390 -0.6199 0.9946
-1.1266 0.3358 -0.6099 0.9947
-1.1332 0.2303 -0.5999 0.9948
-1.1517 -0.1811 -0.6048 0.9948
-1.1275 -0.2820 -0.6029 0.9948
-1.0898 -0.4910 -0.6201 0.9946
-3.5330 -1.9876 -2.1030 0.9819
-3.3441 -2.2955 -2.1042 0.9819
-3.1286 -2.5859 -2.1057 0.9819
-2.3403 -3.3291 -2.1111 0.9818
-2.0367 -3.5277 -2.1132 0.9818
-1.3819 -3.8412 -2.1178 0.9818
-1.0358 -3.9535 -2.1202 0.9818
-0.6806 -4.0347 -2.1227 0.9817
-0.3191 -4.0842 -2.1253 0.9817
0.0457 -4.1014 -2.1278 0.9817
0.4111 -4.0860 -2.1304 0.9817
0.7740 -4.0381 -2.1330 0.9816
1.1318 -3.9580 -2.1356 0.9816
1.8198 -3.7032 -2.1406 0.9816
2.1445 -3.5304 -2.1429 0.9816
2.4528 -3.3290 -2.1452 0.9815
2.7421 -3.1005 -2.1473 0.9815
3.2542 -2.5698 -2.1511 0.9815
3.4726 -2.2717 -2.1527 0.9815
3.6635 -1.9549 -2.1542 0.9815
3.8251 -1.6220 -2.1554 0.9815
3.9562 -1.2757 -2.1565 0.9814
4.0556 -0.9189 -2.1573 0.9814
4.1224 -0.5544 -2.1579 0.9814
4.1560 -0.1853 -2.1582 0.9814
4.1230 0.5545 -2.1582 0.9814
3.9576 1.2762 -2.1572 0.9814
3.6654 1.9559 -2.1553 0.9815
2.4550 3.3320 -2.1471 0.9815
1.8216 3.7069 -2.1427 0.9816
1.4828 3.8500 -2.1403 0.9816
1.1330 3.9622 -2.1379 0.9816
0.7749 4.0425 -2.1354 0.9816
-0.6813 4.0391 -2.1250 0.9817
-1.0369 3.9576 -2.1224 0.9817
-1.3834 3.8451 -2.1199 0.9818
-1.7181 3.7025 -2.1175 0.9818
-2.3424 3.3320 -2.1130 0.9818
-2.6270 3.1073 -2.1109 0.9818
-2.8905 2.8585 -2.1089 0.9818
-3.1308 2.5877 -2.1072 0.9819
-3.3461 2.2970 -2.1055 0.9819
-3.5349 1.9887 -2.1041 0.9819
-1.1198 0.3888 -0.6150 0.9947
-1.1739 0.0786 -0.6103 0.9947
-1.1785 -0.0263 -0.6115 0.9947
-1.1070 -0.4406 -0.6181 0.9946
-1.0665 -0.5390 -0.6199 0.9946
-3.4419 -2.1437 -2.1036 0.9819
-3.2396 -2.4431 -2.1049 0.9819
-3.0115 -2.7237 -2.1065 0.9819
-2.4851 -3.2200 -2.1101 0.9818
-2.1907 -3.4317 -2.1121 0.9818
-1.5508 -3.7737 -2.1166 0.9818
-0.8591 -3.9980 -2.1214 0.9817
-0.1370 -4.0968 -2.1265 0.9817
2.3009 -3.4332 -2.1441 0.9815
2.6000 -3.2181 -2.1463 0.9815
3.1351 -2.7111 -2.1502 0.9815
3.5716 -2.1155 -2.1535 0.9815
3.7481 -1.7903 -2.1548 0.9815
3.8946 -1.4503 -2.1560 0.9814
2.0429 0.0000 -1.1189 0.9907
2.0356 0.1819 -1.1193 0.9907
2.0036 0.3610 -1.1150 0.9908
3.3827 2.0036 -2.1533 0.9822
3.1890 2.2953 -2.1520 0.9822
2.9700 2.5683 -2.1505 0.9823
2.7276 2.8203 -2.1489 0.9823
2.4636 3.0493 -2.1471 0.9823
1.8804 3.4313 -2.1430 0.9823
1.5659 3.5814 -2.1408 0.9823
1.2396 3.7026 -2.1386 0.9824
0.2166 3.8854 -2.1313 0.9824
-0.1299 3.8847 -2.1289 0.9824
-0.4746 3.8533 -2.1264 0.9824
-0.8147 3.7914 -2.1240 0.9825
-1.1477 3.6997 -2.1216 0.9825
-2.3568 3.0538 -2.1128 0.9826
-3.0722 2.3169 -2.1075 0.9826
-0.9638 0.3836 -0.5681 0.9953
-0.9825 0.2928 -0.5615 0.9953
-1.0293 0.1151 -0.5673 0.9953
-1.0415 0.0232 -0.5706 0.9953
-1.0376 -0.0695 -0.5696 0.9953
-2.7372 -2.7069 -2.1084 0.9826
-2.4874 -2.9421 -2.1102 0.9826
-2.2176 -3.1546 -2.1120 0.9826
-1.9299 -3.3426 -2.1140 0.9826
-0.6447 -3.8222 -2.1230 0.9825
0.0433 -3.8849 -2.1279 0.9824
1.4027 -3.6421 -2.1376 0.9824
1.7232 -3.5066 -2.1399 0.9823
2.0306 -3.3428 -2.1422 0.9823
2.3224 -3.1519 -2.1443 0.9823
3.4678 -1.8505 -2.1528 0.9822
1.9895 -0.6416 -1.1449 0.9905
2.0226 0.2720 -1.1178 0.9907
2.0041 0.4541 -1.1255 0.9907
1.9407 0.8229 -1.1546 0.9904
3.2891 2.1517 -2.1527 0.9822
1.7248 3.5099 -2.1420 0.9823
0.3897 3.8741 -2.1326 0.9824
0.0433 3.8889 -2.1301 0.9824
-0.3026 3.8729 -2.1276 0.9824
-0.6454 3.8261 -2.1252 0.9825
-0.9823 3.7492 -2.1228 0.9825
-1.3106 3.6429 -2.1204 0.9825
-1.6279 3.5080 -2.1181 0.9825
-1.9316 3.3456 -2.1159 0.9825
-2.2195 3.1573 -2.1138 0.9826
-2.4894 2.9445 -2.1118 0.9826
-2.7392 2.7088 -2.1100 0.9826
-0.9472 0.4268 -0.5690 0.9953
-1.0166 0.1598 -0.5637 0.9953
-1.0293 -0.1152 -0.5673 0.9953
-1.0000 -0.2032 -0.5589 0.9954
-0.9825 -0.2928 -0.5615 0.9953
-0.9364 -0.4732 -0.5746 0.9952
-3.0703 -2.3154 -2.1062 0.9826
-2.8540 -2.5813 -2.1077 0.9826
-2.3549 -3.0513 -2.1111 0.9826
-2.0759 -3.2518 -2.1130 0.9826
-1.7799 -3.4270 -2.1150 0.9825
-1.4694 -3.5755 -2.1172 0.9825
-0.8139 -3.7876 -2.1218 0.9825
-0.1297 -3.8807 -2.1267 0.9824
0.9032 -3.7902 -2.1340 0.9824
1.2384 -3.6989 -2.1364 0.9824
1.5644 -3.5780 -2.1388 0.9823
1.8787 -3.4282 -2.1411 0.9823
2.1786 -3.2506 -2.1433 0.9823
2.7255 -2.8181 -2.1473 0.9823
2.9680 -2.5665 -2.1491 0.9823
3.1871 -2.2939 -2.1507 0.9823
1.8700 0.1671 -1.0839 0.9914
1.8426 0.3320 -1.0810 0.9914
1.7869 0.6655 -1.1009 0.9912
3.2071 1.8996 -2.1520 0.9829
3.0236 2.1762 -2.1508 0.9829
2.8160 2.4351 -2.1494 0.9830
2.0677 3.0852 -2.1443 0.9830
1.7832 3.2540 -2.1423 0.9830
1.4851 3.3965 -2.1402 0.9830
1.1757 3.5116 -2.1381 0.9830
0.8576 3.5986 -2.1358 0.9831
0.5333 3.6567 -2.1335 0.9831
-0.4502 3.6556 -2.1265 0.9831
-0.7730 3.5971 -2.1242 0.9831
-1.0889 3.5103 -2.1219 0.9832
-1.3956 3.3959 -2.1197 0.9832
-1.6906 3.2549 -2.1176 0.9832
-1.9717 3.0886 -2.1155 0.9832
-2.4836 2.6853 -2.1118 0.9832
-2.7106 2.4516 -2.1101 0.9833
-2.9159 2.1990 -2.1086 0.9833
-0.8760 0.4427 -0.5667 0.9955
-0.8932 0.3555 -0.5550 0.9956
-0.9237 0.1033 -0.5366 0.9957
-0.8984 -0.3119 -0.5490 0.9956
-0.8638 -0.4860 -0.5722 0.9954
-3.0083 -2.0651 -2.1067 0.9833
-2.8143 -2.3261 -2.1080 0.9833
-2.1046 -2.9938 -2.1129 0.9832
-1.8314 -3.1721 -2.1148 0.9832
-1.5433 -3.3257 -2.1168 0.9832
-1.2424 -3.4533 -2.1189 0.9832
-0.9311 -3.5538 -2.1211 0.9832
-0.6117 -3.6265 -2.1233 0.9832
0.0411 -3.6855 -2.1279 0.9831
0.3693 -3.6712 -2.1303 0.9831
0.6954 -3.6277 -2.1326 0.9831
1.0166 -3.5553 -2.1349 0.9831
1.3304 -3.4543 -2.1372 0.9830
2.4617 -2.7835 -2.1454 0.9830
2.7020 -2.5555 -2.1472 0.9830
1.8108 -0.5839 -1.0985 0.9913
1.8592 -0.2500 -1.0831 0.9914
1.8755 0.0836 -1.0839 0.9914
1.8108 0.5839 -1.0985 0.9913
3.1184 2.0400 -2.1515 0.9829
2.2040 2.9914 -2.1452 0.9830
1.6357 3.3286 -2.1413 0.9830
1.3316 3.4575 -2.1391 0.9830
0.6961 3.6313 -2.1347 0.9831
0.3697 3.6748 -2.1324 0.9831
-0.9319 3.5572 -2.1231 0.9832
-1.2435 3.4565 -2.1208 0.9832
-1.8330 3.1748 -2.1166 0.9832
-2.1063 2.9963 -2.1146 0.9832
-2.3625 2.7944 -2.1127 0.9832
-2.5997 2.5709 -2.1109 0.9833
-2.8161 2.3276 -2.1093 0.9833
-0.8984 0.3119 -0.5490 0.9956
-0.9030 0.2258 -0.5374 0.9957
-0.9274 0.0621 -0.5366 0.9957
-0.9306 -0.0207 -0.5374 0.9957
-0.9120 -0.1854 -0.5373 0.9957
-0.9012 -0.2686 -0.5429 0.9957
-0.8760 -0.4427 -0.5667 0.9955
-2.9142 -2.1977 -2.1073 0.9833
-2.2349 -2.8959 -2.1120 0.9832
-1.3943 -3.3928 -2.1178 0.9832
-1.0879 -3.5070 -2.1200 0.9832
-0.7722 -3.5937 -2.1222 0.9832
-0.1231 -3.6816 -2.1268 0.9831
0.5328 -3.6531 -2.1314 0.9831
0.8568 -3.5951 -2.1338 0.9831
1.7194 -0.8213 -1.1001 0.9912
