ply
format ascii 1.0
element vertex 1132
property float32 x
property float32 y
property float32 z
property float32 I
end_header
19.3630 0.0000 -3.1898 0.9245
18.1456 6.7575 -3.1898 0.9245
17.4721 8.3457 -3.1898 0.9245
16.6599 9.8677 -3.1898 0.9245
15.7155 11.3114 -3.1898 0.9245
12.8381 13.2745 -3.0422 0.9279
11.5874 14.3419 -3.0374 0.9280
-15.6507 9.7474 -3.0374 0.9280
-17.2818 8.7329 -3.1898 0.9245
-19.3582 0.4314 -3.1898 0.9245
-19.3197 -1.2933 -3.1898 0.9245
17.9821 -4.0742 -3.0374 0.9280
18.2734 -2.4575 -3.0374 0.9280
19.3409 -0.8624 -3.1894 0.9245
17.8265 7.5591 -3.1898 0.9245
16.2038 10.6000 -3.1898 0.9245
15.1961 12.0002 -3.1898 0.9245
-14.2119 11.7464 -3.0374 0.9280
-15.2010 10.4349 -3.0374 0.9280
-17.6537 7.9544 -3.1898 0.9245
-18.2916 6.3515 -3.1898 0.9245
-19.1280 3.0077 -3.1898 0.9245
-19.3197 1.2933 -3.1898 0.9245
-18.9750 -3.8568 -3.1898 0.9245
-18.5564 -5.5304 -3.1898 0.9245
16.9708 0.0000 -3.1898 0.9333
16.7019 3.0090 -3.1898 0.9333
16.3678 4.4836 -3.1898 0.9333
14.6017 8.6486 -3.1898 0.9333
11.7950 12.1960 -3.1890 0.9333
10.1558 12.5700 -3.0374 0.9363
8.9967 13.4240 -3.0374 0.9363
-11.9851 10.8399 -3.0374 0.9363
-14.4054 8.9718 -3.1898 0.9333
-16.2638 4.8472 -3.1898 0.9333
-16.8656 1.8867 -3.1898 0.9333
-16.9666 0.3781 -3.1898 0.9333
-16.9329 -1.1335 -3.1898 0.9333
-16.7648 -2.6361 -3.1898 0.9333
-16.4636 -4.1178 -3.1898 0.9333
-14.7334 -6.6386 -3.0374 0.9363
15.3801 -4.9595 -3.0374 0.9363
15.7605 -3.5709 -3.0374 0.9363
16.9539 -0.7560 -3.1898 0.9333
16.9539 0.7560 -3.1898 0.9333
16.1518 5.2083 -3.1898 0.9333
14.2019 9.2905 -3.1898 0.9333
13.3187 10.5176 -3.1898 0.9333
-14.7907 8.3211 -3.1898 0.9333
-15.4727 6.9717 -3.1898 0.9333
-16.4636 4.1178 -3.1898 0.9333
-16.7648 2.6361 -3.1898 0.9333
-16.9666 -0.3781 -3.1898 0.9333
-16.8656 -1.8867 -3.1898 0.9333
-16.6307 -3.3803 -3.1898 0.9333
-16.2639 -4.8471 -3.1898 0.9333
-15.5897 -6.2045 -3.1538 0.9340
16.1337 -2.9066 -3.0813 0.9355
16.9034 -1.5105 -3.1898 0.9333
15.0906 0.0000 -3.1898 0.9402
15.0307 1.3431 -3.1898 0.9402
14.8515 2.6756 -3.1898 0.9402
14.5544 3.9869 -3.1898 0.9402
13.6169 6.5042 -3.1898 0.9402
12.9839 7.6904 -3.1898 0.9402
11.4147 9.8707 -3.1898 0.9402
10.4908 10.8475 -3.1898 0.9402
7.9999 11.9368 -3.0374 0.9429
-9.7570 10.5492 -3.0374 0.9429
-12.0485 9.0862 -3.1898 0.9402
-12.8094 7.9778 -3.1898 0.9402
-13.4686 6.8060 -3.1898 0.9402
-14.0209 5.5802 -3.1898 0.9402
-14.7882 3.0058 -3.1898 0.9402
-14.6396 -3.6616 -3.1898 0.9402
-14.2556 -4.9501 -3.1898 0.9402
-12.5237 -7.0457 -3.0374 0.9429
-11.8469 -8.1324 -3.0374 0.9429
13.2294 -5.6098 -3.0374 0.9429
13.6761 -4.4100 -3.0374 0.9429
14.9559 -2.0114 -3.1898 0.9402
15.0756 -0.6722 -3.1898 0.9402
14.3623 4.6313 -3.1898 0.9402
13.8931 5.8912 -3.1898 0.9402
12.6285 8.2612 -3.1898 0.9402
11.8431 9.3524 -3.1898 0.9402
8.5238 11.5685 -3.0374 0.9429
7.4603 12.2813 -3.0374 0.9429
-8.2639 11.7556 -3.0374 0.9429
-9.2774 10.9734 -3.0374 0.9429
-10.2173 10.1041 -3.0374 0.9429
-13.7584 6.1993 -3.1898 0.9402
-14.2556 4.9501 -3.1898 0.9402
-15.0569 1.0079 -3.1898 0.9402
-14.9970 -1.6777 -3.1898 0.9402
-14.4620 -4.3101 -3.1898 0.9402
13.8810 -3.8024 -3.0423 0.9429
14.8515 -2.6756 -3.1898 0.9402
13.5725 0.0000 -3.1898 0.9458
13.5186 1.2080 -3.1898 0.9458
13.3574 2.4065 -3.1898 0.9458
13.0902 3.5858 -3.1898 0.9458
12.7191 4.7367 -3.1898 0.9458
12.2471 5.8499 -3.1898 0.9458
10.2664 8.8777 -3.1898 0.9458
9.4355 9.7562 -3.1898 0.9458
7.2337 10.7935 -3.0537 0.9480
5.1776 11.8416 -3.0374 0.9483
-6.9542 10.8936 -3.0374 0.9483
-7.8962 10.2314 -3.0374 0.9483
-8.9838 9.7132 -3.1096 0.9471
-10.0660 9.1042 -3.1898 0.9458
-10.8364 8.1721 -3.1898 0.9458
-12.6104 5.0188 -3.1898 0.9458
-13.0071 3.8765 -3.1898 0.9458
-13.5422 -0.9065 -3.1898 0.9458
-13.1669 -3.2933 -3.1898 0.9458
-12.3744 -5.5756 -3.1898 0.9458
-9.9618 -8.2336 -3.0374 0.9483
13.2370 -2.9991 -3.1898 0.9458
13.4514 -1.8090 -3.1898 0.9458
13.5590 -0.6046 -3.1898 0.9458
13.5590 0.6046 -3.1898 0.9458
13.4514 1.8090 -3.1898 0.9458
13.2370 2.9991 -3.1898 0.9458
11.9743 6.3897 -3.1898 0.9458
10.6517 8.4115 -3.1898 0.9458
8.0364 10.9071 -3.1841 0.9459
6.7098 11.0458 -3.0374 0.9483
5.7000 11.5992 -3.0374 0.9483
4.6450 12.0605 -3.0374 0.9483
-7.4326 10.5729 -3.0374 0.9483
-8.3441 9.8695 -3.0374 0.9483
-10.4616 8.6467 -3.1898 0.9458
-11.1897 7.6813 -3.1898 0.9458
-11.8290 6.6549 -3.1898 0.9458
-12.8215 4.4521 -3.1898 0.9458
-13.1669 3.2933 -3.1898 0.9458
-13.5422 0.9065 -3.1898 0.9458
-13.5691 -0.3024 -3.1898 0.9458
-13.4883 -1.5089 -3.1898 0.9458
-13.3005 -2.7034 -3.1898 0.9458
-12.0905 -6.1096 -3.1837 0.9459
11.1198 -6.5863 -3.0374 0.9483
11.6619 -5.5704 -3.0374 0.9483
12.1114 -4.5104 -3.0374 0.9483
13.3574 -2.4065 -3.1898 0.9458
12.3199 -0.0000 -3.1898 0.9504
12.2710 1.0965 -3.1898 0.9504
11.8822 3.2549 -3.1898 0.9504
11.5453 4.2995 -3.1898 0.9504
11.1168 5.3100 -3.1898 0.9504
10.6001 6.2784 -3.1898 0.9504
9.3189 8.0584 -3.1898 0.9504
8.5647 8.8558 -3.1898 0.9504
7.7425 9.5830 -3.1898 0.9504
4.6998 10.7487 -3.0374 0.9527
1.6931 11.6085 -3.0374 0.9527
-0.3920 11.7248 -3.0374 0.9527
-5.4072 10.4108 -3.0374 0.9527
-6.3124 9.8882 -3.0374 0.9527
-9.1371 8.2640 -3.1898 0.9504
-10.4576 6.5130 -3.1898 0.9504
-10.9957 5.5564 -3.1898 0.9504
-11.4467 4.5557 -3.1898 0.9504
-11.8067 3.5188 -3.1898 0.9504
-12.2435 1.3696 -3.1898 0.9504
-10.7212 -6.0317 -3.1851 0.9504
-9.6718 -6.6393 -3.0374 0.9527
-9.0425 -7.4738 -3.0374 0.9527
9.8173 -6.4222 -3.0374 0.9527
10.3499 -5.5229 -3.0374 0.9527
11.7254 -3.7810 -3.1898 0.9504
12.2100 -1.6421 -3.1898 0.9504
12.3077 0.5488 -3.1898 0.9504
12.2100 1.6421 -3.1898 0.9504
12.0154 2.7223 -3.1898 0.9504
11.7254 3.7810 -3.1898 0.9504
11.3423 4.8095 -3.1898 0.9504
10.3099 6.7444 -3.1898 0.9504
9.6687 7.6353 -3.1898 0.9504
8.1617 9.2286 -3.1898 0.9504
7.3079 9.9184 -3.1898 0.9504
5.1740 10.5287 -3.0374 0.9527
4.2163 10.9474 -3.0374 0.9527
3.2252 11.2793 -3.0374 0.9527
-0.9139 11.6956 -3.0374 0.9527
-2.9731 11.3483 -3.0374 0.9527
-4.9381 10.6414 -3.0374 0.9527
-7.9477 9.4006 -3.1873 0.9504
-8.7599 8.6628 -3.1898 0.9504
-9.4962 7.8488 -3.1898 0.9504
-10.1570 6.9724 -3.1898 0.9504
-10.7373 6.0407 -3.1898 0.9504
-11.2323 5.0610 -3.1898 0.9504
-11.6382 4.0412 -3.1898 0.9504
-11.9517 2.9893 -3.1898 0.9504
-12.2924 0.8229 -3.1898 0.9504
-12.3169 -0.2745 -3.1898 0.9504
-12.2435 -1.3696 -3.1898 0.9504
-12.0730 -2.4540 -3.1898 0.9504
-10.9958 -5.5564 -3.1898 0.9504
-9.3664 -7.0635 -3.0374 0.9527
9.5215 -6.8531 -3.0374 0.9527
11.8822 -3.2549 -3.1898 0.9504
12.1247 -2.1844 -3.1898 0.9504
12.2710 -1.0965 -3.1898 0.9504
11.2231 1.0029 -3.1898 0.9542
10.8675 2.9769 -3.1898 0.9542
10.1675 4.8566 -3.1898 0.9542
9.6949 5.7423 -3.1898 0.9542
9.1453 6.5824 -3.1898 0.9542
8.5231 7.3702 -3.1898 0.9542
7.0813 8.7646 -3.1898 0.9542
6.2731 9.3601 -3.1898 0.9542
5.4138 9.8790 -3.1891 0.9542
4.4179 10.1040 -3.1218 0.9552
3.4064 10.1744 -3.0374 0.9564
0.5973 10.7129 -3.0374 0.9564
-3.1789 10.2478 -3.0374 0.9564
-5.0459 9.7151 -3.0991 0.9555
-6.0554 9.4857 -3.1859 0.9543
-6.8843 8.9202 -3.1898 0.9542
-7.6509 8.2721 -3.1898 0.9542
-8.9964 6.7845 -3.1898 0.9542
-9.5645 5.9568 -3.1898 0.9542
-11.0420 2.2444 -3.1898 0.9542
-11.2650 0.2510 -3.1898 0.9542
-10.9311 -2.7340 -3.1898 0.9542
-10.6444 -3.6961 -3.1898 0.9542
-10.2732 -4.6289 -3.1898 0.9542
-9.8204 -5.5249 -3.1898 0.9542
-8.2703 -6.8356 -3.0374 0.9564
-7.6290 -7.5445 -3.0374 0.9564
7.7952 -7.3727 -3.0374 0.9564
10.3736 -4.3988 -3.1898 0.9542
11.2566 0.5020 -3.1898 0.9542
11.1673 1.5019 -3.1898 0.9542
10.7241 3.4581 -3.1898 0.9542
9.9410 5.3047 -3.1898 0.9542
9.4294 6.1684 -3.1898 0.9542
8.8430 6.9832 -3.1898 0.9542
8.1863 7.7426 -3.1898 0.9542
6.6839 9.0714 -3.1898 0.9542
5.8499 9.6303 -3.1898 0.9542
4.9603 10.0940 -3.1839 0.9543
3.8625 10.0287 -3.0423 0.9563
2.9498 10.3160 -3.0374 0.9564
2.0199 10.5376 -3.0374 0.9564
0.1195 10.7288 -3.0374 0.9564
-2.7192 10.3792 -3.0374 0.9564
-4.5164 9.7326 -3.0374 0.9564
-5.6013 9.7017 -3.1714 0.9545
-6.4801 9.2181 -3.1898 0.9542
-8.0118 7.9231 -3.1898 0.9542
-9.2897 6.3770 -3.1898 0.9542
-10.6444 3.6961 -3.1898 0.9542
-10.9311 2.7341 -3.1898 0.9542
-11.1311 1.7503 -3.1898 0.9542
-10.4692 -4.1666 -3.1898 0.9542
-10.0568 -5.0819 -3.1898 0.9542
-8.5666 -6.4604 -3.0374 0.9564
-7.9575 -7.1972 -3.0374 0.9564
-7.2854 -7.8769 -3.0374 0.9564
7.4591 -7.7126 -3.0374 0.9564
8.1159 -7.0181 -3.0374 0.9564
8.7084 -6.2679 -3.0374 0.9564
10.1471 -4.8469 -3.1835 0.9543
10.5594 -3.9324 -3.1898 0.9542
11.0893 -1.9978 -3.1898 0.9542
11.2231 -1.0029 -3.1898 0.9542
10.3297 0.9231 -3.1898 0.9575
10.2065 1.8388 -3.1898 0.9575
10.0023 2.7399 -3.1898 0.9575
9.7188 3.6193 -3.1898 0.9575
9.3581 4.4700 -3.1898 0.9575
8.9231 5.2851 -3.1898 0.9575
6.5176 8.0669 -3.1898 0.9575
4.9840 9.0947 -3.1898 0.9575
4.1548 9.5022 -3.1898 0.9575
3.2864 9.8160 -3.1839 0.9576
2.3414 9.8249 -3.1066 0.9586
1.4255 9.7741 -3.0381 0.9595
0.5498 9.8600 -3.0374 0.9595
-0.3300 9.8698 -3.0374 0.9595
-1.2071 9.8013 -3.0374 0.9595
-2.0892 9.7225 -3.0587 0.9592
-3.0120 9.7099 -3.1269 0.9583
-3.9352 9.5758 -3.1843 0.9576
-4.7802 9.2035 -3.1898 0.9575
-6.3362 8.2101 -3.1898 0.9575
-7.0418 7.6136 -3.1898 0.9575
-8.2802 6.2444 -3.1898 0.9575
-9.2562 4.6773 -3.1898 0.9575
-10.1630 2.0657 -3.1898 0.9575
-10.3065 1.1530 -3.1898 0.9575
-10.3682 0.2311 -3.1898 0.9575
-10.3477 -0.6927 -3.1898 0.9575
-10.2449 -1.6109 -3.1898 0.9575
-9.0386 -5.0850 -3.1898 0.9575
-7.6119 -6.2914 -3.0374 0.9595
-6.3758 -7.5413 -3.0374 0.9595
-5.6793 -8.0789 -3.0374 0.9595
6.5422 -7.3974 -3.0374 0.9595
7.7502 -6.1202 -3.0374 0.9595
8.2641 -5.4062 -3.0374 0.9595
9.5479 -4.0487 -3.1898 0.9575
9.8704 -3.1828 -3.1898 0.9575
10.2783 -1.3823 -3.1898 0.9575
10.3605 0.4620 -3.1898 0.9575
10.2783 1.3823 -3.1898 0.9575
10.1145 2.2916 -3.1898 0.9575
9.1497 4.8824 -3.1898 0.9575
8.6788 5.6774 -3.1898 0.9575
8.1390 6.4273 -3.1898 0.9575
6.8705 7.7686 -3.1898 0.9575
5.3842 8.8636 -3.1898 0.9575
4.5739 9.3077 -3.1898 0.9575
2.8210 9.8658 -3.1561 0.9580
1.8769 9.7916 -3.0665 0.9591
0.9885 9.8257 -3.0374 0.9595
-3.4904 9.7017 -3.1713 0.9578
-4.3620 9.3998 -3.1873 0.9576
-5.1854 8.9814 -3.1898 0.9575
-5.9642 8.4842 -3.1898 0.9575
-7.9938 6.6071 -3.1898 0.9575
-8.5501 5.8693 -3.1898 0.9575
-9.4553 4.2604 -3.1898 0.9575
-10.0609 2.5164 -3.1898 0.9575
-10.3682 -0.2310 -3.1898 0.9575
-10.1630 -2.0657 -3.1898 0.9575
-8.8031 -5.4826 -3.1898 0.9575
-7.3241 -6.6242 -3.0374 0.9595
-6.0335 -7.8179 -3.0374 0.9595
6.2062 -7.6815 -3.0374 0.9595
6.8653 -7.0986 -3.0374 0.9595
7.4698 -6.4594 -3.0374 0.9595
8.8391 -5.2354 -3.1598 0.9579
10.2065 -1.8388 -3.1898 0.9575
10.3297 -0.9231 -3.1898 0.9575
9.5581 0.8541 -3.1898 0.9604
9.4442 1.7015 -3.1898 0.9604
8.9929 3.3490 -3.1898 0.9604
8.2566 4.8904 -3.1898 0.9604
6.6712 6.8980 -3.1898 0.9604
5.3425 7.9715 -3.1898 0.9604
4.6118 8.4154 -3.1898 0.9604
3.8445 8.7925 -3.1898 0.9604
3.0466 9.0998 -3.1898 0.9604
2.2246 9.3348 -3.1898 0.9604
1.3835 9.4858 -3.1865 0.9604
-0.3201 9.5743 -3.1843 0.9604
-1.1714 9.5111 -3.1854 0.9604
-2.0147 9.3758 -3.1877 0.9604
-3.6476 8.8760 -3.1898 0.9604
-4.4231 8.5161 -3.1898 0.9604
-5.1636 8.0886 -3.1898 0.9604
-5.8630 7.5969 -3.1898 0.9604
-7.6618 5.7780 -3.1898 0.9604
-9.4039 1.9114 -3.1898 0.9604
-9.5939 0.2138 -3.1898 0.9604
-9.5748 -0.6409 -3.1898 0.9604
-9.4798 -1.4906 -3.1898 0.9604
-9.3095 -2.3285 -3.1898 0.9604
-6.4973 -6.4253 -3.0374 0.9622
-5.8996 -6.9781 -3.0374 0.9622
6.0536 -6.8449 -3.0374 0.9622
8.0181 -5.2452 -3.1849 0.9604
8.4663 -4.5177 -3.1898 0.9604
8.8348 -3.7463 -3.1898 0.9604
9.5106 -1.2791 -3.1898 0.9604
9.5867 -0.4275 -3.1898 0.9604
9.5867 0.4275 -3.1898 0.9604
9.5106 1.2791 -3.1898 0.9604
9.3590 2.1205 -3.1898 0.9604
9.1331 2.9451 -3.1898 0.9604
8.8348 3.7463 -3.1898 0.9604
8.4663 4.5177 -3.1898 0.9604
6.9719 6.5940 -3.1898 0.9604
5.6923 7.7256 -3.1898 0.9604
4.9821 8.2016 -3.1898 0.9604
3.4490 8.9550 -3.1898 0.9604
2.6382 9.2264 -3.1898 0.9604
1.8056 9.4194 -3.1881 0.9604
0.9592 9.5346 -3.1854 0.9604
-1.5944 9.4524 -3.1864 0.9604
-3.2486 9.0296 -3.1898 0.9604
-4.0394 8.7047 -3.1898 0.9604
-5.5188 7.8505 -3.1898 0.9604
-8.3635 4.7052 -3.1898 0.9604
-8.7491 3.9422 -3.1898 0.9604
-9.0653 3.1478 -3.1898 0.9604
-9.3095 2.3284 -3.1898 0.9604
-9.5748 0.6410 -3.1898 0.9604
-9.5939 -0.2138 -3.1898 0.9604
-9.5367 -1.0668 -3.1898 0.9604
-9.4039 -1.9114 -3.1898 0.9604
-8.5648 -4.3280 -3.1898 0.9604
-8.1456 -5.0731 -3.1898 0.9604
-6.2046 -6.7083 -3.0374 0.9622
-4.9169 -7.7021 -3.0374 0.9622
-4.2118 -8.1092 -3.0374 0.9622
8.2566 -4.8904 -3.1898 0.9604
8.6591 -4.1361 -3.1898 0.9604
8.9929 -3.3490 -3.1898 0.9604
9.2553 -2.5353 -3.1898 0.9604
9.4442 -1.7015 -3.1898 0.9604
8.9200 0.0000 -3.1898 0.9628
8.6030 2.3566 -3.1898 0.9628
8.0489 3.8446 -3.1898 0.9628
6.7472 5.8345 -3.1898 0.9628
6.2011 6.4119 -3.1898 0.9628
5.6058 6.9384 -3.1898 0.9628
4.9660 7.4098 -3.1898 0.9628
3.5735 8.1729 -3.1898 0.9628
2.0678 8.6770 -3.1898 0.9628
1.2873 8.8266 -3.1898 0.9628
0.4966 8.9061 -3.1898 0.9628
-1.0904 8.8531 -3.1898 0.9628
-1.8740 8.7209 -3.1898 0.9628
-2.6428 8.5195 -3.1898 0.9628
-4.1114 7.9159 -3.1898 0.9628
-5.4498 7.0615 -3.1898 0.9628
-6.0567 6.5484 -3.1898 0.9628
-6.6155 5.9834 -3.1898 0.9628
-7.1218 5.3708 -3.1898 0.9628
-7.5716 4.7156 -3.1898 0.9628
-7.9612 4.0230 -3.1898 0.9628
-8.7412 1.7767 -3.1898 0.9628
-8.8117 -1.3856 -3.1898 0.9628
-8.6534 -2.1644 -3.1898 0.9628
-7.7741 -4.3736 -3.1898 0.9628
-7.3540 -5.0482 -3.1898 0.9628
-6.8755 -5.6827 -3.1898 0.9628
-6.2739 -6.2044 -3.1554 0.9632
-5.4838 -6.4863 -3.0374 0.9646
-4.8848 -6.9486 -3.0374 0.9646
-4.2469 -7.3558 -3.0374 0.9646
-3.5753 -7.7046 -3.0374 0.9646
-2.8754 -7.9923 -3.0374 0.9646
-2.1526 -8.2165 -3.0374 0.9646
-1.4128 -8.3755 -3.0374 0.9646
1.5990 -8.3419 -3.0374 0.9646
2.3351 -8.1665 -3.0374 0.9646
3.7461 -7.6231 -3.0374 0.9646
4.4097 -7.2594 -3.0374 0.9646
5.0383 -6.8381 -3.0374 0.9646
5.6270 -6.3625 -3.0374 0.9646
7.4646 -4.8831 -3.1898 0.9628
7.8696 -4.1994 -3.1898 0.9628
8.4895 -2.7375 -3.1898 0.9628
8.8404 1.1889 -3.1898 0.9628
8.6995 1.9710 -3.1898 0.9628
7.8696 4.1994 -3.1898 0.9628
7.0004 5.5281 -3.1898 0.9628
6.4806 6.1293 -3.1898 0.9628
5.2911 7.1812 -3.1898 0.9628
3.2059 8.3239 -3.1898 0.9628
2.4523 8.5762 -3.1898 0.9628
1.6792 8.7605 -3.1898 0.9628
0.8928 8.8752 -3.1898 0.9628
-0.6949 8.8929 -3.1898 0.9628
-2.2606 8.6287 -3.1898 0.9628
-3.7547 8.0912 -3.1898 0.9628
-4.4600 7.7249 -3.1898 0.9628
-6.3424 6.2721 -3.1898 0.9628
-6.8755 5.6827 -3.1898 0.9628
-7.3540 5.0482 -3.1898 0.9628
-7.7741 4.3736 -3.1898 0.9628
-8.1325 3.6644 -3.1898 0.9628
-8.4264 2.9260 -3.1898 0.9628
-8.8117 1.3856 -3.1898 0.9628
-8.9000 0.5958 -3.1898 0.9628
-8.9177 -0.1987 -3.1898 0.9628
-8.8647 -0.9917 -3.1898 0.9628
-8.7412 -1.7767 -3.1898 0.9628
-8.5484 -2.5477 -3.1898 0.9628
-8.2877 -3.2984 -3.1898 0.9628
-7.5716 -4.7156 -3.1898 0.9628
-7.1218 -5.3708 -3.1898 0.9628
-6.6076 -5.9762 -3.1860 0.9629
-5.7673 -6.2356 -3.0374 0.9646
-3.2286 -7.8563 -3.0374 0.9646
-2.5165 -8.1124 -3.0374 0.9646
-1.7845 -8.3042 -3.0374 0.9646
1.9690 -8.2624 -3.0374 0.9646
3.4028 -7.7824 -3.0374 0.9646
4.7287 -7.0558 -3.0374 0.9646
5.3380 -6.6069 -3.0374 0.9646
7.2355 -5.2078 -3.1880 0.9628
8.0489 -3.8446 -3.1898 0.9628
8.3591 -3.1130 -3.1898 0.9628
8.2908 0.7409 -3.1898 0.9650
8.1919 1.4759 -3.1898 0.9650
7.8005 2.9049 -3.1898 0.9650
7.5110 3.5877 -3.1898 0.9650
7.1618 4.2420 -3.1898 0.9650
6.7559 4.8626 -3.1898 0.9650
6.2962 5.4446 -3.1898 0.9650
5.7867 5.9834 -3.1898 0.9650
5.2311 6.4747 -3.1898 0.9650
4.6341 6.9146 -3.1898 0.9650
4.0003 7.2996 -3.1898 0.9650
3.3347 7.6267 -3.1898 0.9650
2.6427 7.8932 -3.1898 0.9650
1.9296 8.0971 -3.1898 0.9650
1.2013 8.2367 -3.1898 0.9650
0.4634 8.3109 -3.1898 0.9650
-0.2781 8.3192 -3.1898 0.9650
-1.0175 8.2614 -3.1898 0.9650
-1.7488 8.1381 -3.1898 0.9650
-2.4661 7.9501 -3.1898 0.9650
-5.0856 6.5896 -3.1898 0.9650
-6.6458 5.0119 -3.1898 0.9650
-7.0656 4.4005 -3.1898 0.9650
-7.4292 3.7541 -3.1898 0.9650
-7.7338 3.0780 -3.1898 0.9650
-7.9771 2.3774 -3.1898 0.9650
-8.2722 0.9254 -3.1898 0.9650
-8.3218 0.1854 -3.1898 0.9650
-8.3052 -0.5560 -3.1898 0.9650
-7.8633 -2.7304 -3.1898 0.9650
-7.5890 -3.4194 -3.1898 0.9650
-7.2546 -4.0814 -3.1898 0.9650
-6.8625 -4.7109 -3.1898 0.9650
-6.4160 -5.3029 -3.1898 0.9650
-5.9154 -5.8498 -3.1881 0.9650
-5.2515 -6.2115 -3.1171 0.9658
-4.5583 -6.4843 -3.0374 0.9666
-2.6832 -7.4581 -3.0374 0.9666
-2.0088 -7.6674 -3.0374 0.9666
-0.6175 -7.9021 -3.0374 0.9666
0.0883 -7.9257 -3.0374 0.9666
1.4921 -7.7844 -3.0374 0.9666
2.1791 -7.6207 -3.0374 0.9666
3.4957 -7.1136 -3.0374 0.9666
4.1150 -6.7743 -3.0374 0.9666
6.5325 -5.1587 -3.1898 0.9650
7.3437 -3.9187 -3.1898 0.9650
8.1181 -1.8393 -3.1898 0.9650
8.2496 -1.1095 -3.1898 0.9650
8.3156 -0.3708 -3.1898 0.9650
8.3156 0.3708 -3.1898 0.9650
8.1181 1.8393 -3.1898 0.9650
7.3437 3.9187 -3.1898 0.9650
6.0475 5.7196 -3.1898 0.9650
5.5144 6.2352 -3.1898 0.9650
2.9916 7.7676 -3.1898 0.9650
0.8332 8.2820 -3.1898 0.9650
0.0927 8.3233 -3.1898 0.9650
-0.6485 8.2985 -3.1898 0.9650
-2.1096 8.0521 -3.1898 0.9650
-3.5038 7.5505 -3.1898 0.9650
-4.1619 7.2086 -3.1898 0.9650
-5.3741 6.3565 -3.1898 0.9650
-5.9185 5.8530 -3.1898 0.9650
-6.4160 5.3029 -3.1898 0.9650
-6.8625 4.7109 -3.1898 0.9650
-7.2546 4.0814 -3.1898 0.9650
-7.5890 3.4194 -3.1898 0.9650
-7.8633 2.7304 -3.1898 0.9650
-8.0751 2.0197 -3.1898 0.9650
-8.2228 1.2930 -3.1898 0.9650
-7.9771 -2.3774 -3.1898 0.9650
-7.7338 -3.0780 -3.1898 0.9650
-7.4292 -3.7541 -3.1898 0.9650
-7.0656 -4.4005 -3.1898 0.9650
-6.6459 -5.0119 -3.1898 0.9650
-6.1734 -5.5835 -3.1898 0.9650
-2.3483 -7.5703 -3.0374 0.9666
0.4413 -7.9139 -3.0374 0.9666
1.1439 -7.8432 -3.0374 0.9666
1.8374 -7.7102 -3.0374 0.9666
2.5164 -7.5161 -3.0374 0.9666
3.8092 -6.9508 -3.0374 0.9666
4.9812 -6.1653 -3.0374 0.9666
6.2902 -5.4394 -3.1868 0.9650
8.1919 -1.4759 -3.1898 0.9650
8.2908 -0.7409 -3.1898 0.9650
7.7630 0.6937 -3.1898 0.9669
7.6704 1.3819 -3.1898 0.9669
7.3039 2.7200 -3.1898 0.9669
7.0328 3.3593 -3.1898 0.9669
6.7059 3.9719 -3.1898 0.9669
5.8954 5.0979 -3.1898 0.9669
5.4183 5.6024 -3.1898 0.9669
4.3391 6.4743 -3.1898 0.9669
3.7456 6.8349 -3.1898 0.9669
1.8068 7.5816 -3.1898 0.9669
1.1248 7.7123 -3.1898 0.9669
-0.2604 7.7895 -3.1898 0.9669
-0.9527 7.7354 -3.1898 0.9669
-2.9625 7.2089 -3.1898 0.9669
-3.5924 6.9166 -3.1898 0.9669
-4.1938 6.5694 -3.1898 0.9669
-5.2921 5.7217 -3.1898 0.9669
-5.7804 5.2280 -3.1898 0.9669
-6.6157 4.1203 -3.1898 0.9669
-6.9562 3.5151 -3.1898 0.9669
-7.2414 2.8820 -3.1898 0.9669
-2.1365 0.4343 -0.8923 0.9906
-2.1261 0.2378 -0.8756 0.9908
-2.1285 0.0474 -0.8714 0.9908
-2.1302 -0.1426 -0.8738 0.9908
-2.1308 -0.5329 -0.8989 0.9906
-7.3626 -2.5566 -3.1898 0.9669
-6.7927 -3.8215 -3.1898 0.9669
-5.0267 -5.9456 -3.1865 0.9669
-4.3677 -6.2132 -3.1083 0.9677
-3.7108 -6.4272 -3.0374 0.9684
-3.1240 -6.7320 -3.0374 0.9684
-2.5124 -6.9833 -3.0374 0.9684
-1.2344 -7.3181 -3.0374 0.9684
-0.5782 -7.3990 -3.0374 0.9684
1.3971 -7.2888 -3.0374 0.9684
2.0403 -7.1355 -3.0374 0.9684
2.6673 -6.9256 -3.0374 0.9684
4.4106 -5.9861 -3.0432 0.9684
6.1166 -4.8303 -3.1898 0.9669
6.5223 -4.2667 -3.1898 0.9669
7.1754 -3.0427 -3.1898 0.9669
7.4178 -2.3919 -3.1898 0.9669
7.7243 -1.0388 -3.1898 0.9669
7.7861 0.3472 -3.1898 0.9669
7.6012 1.7222 -3.1898 0.9669
7.1754 3.0426 -3.1898 0.9669
6.8762 3.6692 -3.1898 0.9669
6.5223 4.2667 -3.1898 0.9669
6.1166 4.8303 -3.1898 0.9669
5.1633 5.8382 -3.1898 0.9669
4.6232 6.2746 -3.1898 0.9669
3.4374 6.9949 -3.1898 0.9669
2.8012 7.2731 -3.1898 0.9669
2.1427 7.4936 -3.1898 0.9669
1.4673 7.6545 -3.1898 0.9669
0.0868 7.7934 -3.1898 0.9669
-0.6072 7.7702 -3.1898 0.9669
-2.6385 7.3337 -3.1898 0.9669
-3.2807 7.0698 -3.1898 0.9669
-3.8969 6.7497 -3.1898 0.9669
-4.4822 6.3761 -3.1898 0.9669
-5.5417 5.4803 -3.1898 0.9669
-6.4256 4.4109 -3.1898 0.9669
-6.7927 3.8215 -3.1898 0.9669
-7.1059 3.2017 -3.1898 0.9669
-7.3626 2.5566 -3.1898 0.9669
-2.1308 0.5329 -0.8989 0.9906
-2.1345 0.3356 -0.8843 0.9907
-2.1302 0.1426 -0.8738 0.9908
-2.1285 -0.0474 -0.8714 0.9908
-2.1365 -0.4343 -0.8923 0.9906
-7.4692 -2.2261 -3.1898 0.9669
-6.9562 -3.5151 -3.1898 0.9669
-6.2227 -4.6928 -3.1898 0.9669
-5.2921 -5.7217 -3.1898 0.9669
-3.9934 -6.2555 -3.0374 0.9684
-1.5592 -7.2559 -3.0374 0.9684
-0.2480 -7.4174 -3.0374 0.9684
1.0711 -7.3438 -3.0374 0.9684
1.7205 -7.2194 -3.0374 0.9684
2.3562 -7.0376 -3.0374 0.9684
2.9732 -6.7999 -3.0374 0.9684
4.7890 -5.9275 -3.1188 0.9676
5.8954 -5.0979 -3.1898 0.9669
6.7059 -3.9719 -3.1898 0.9669
7.3039 -2.7200 -3.1898 0.9669
7.7630 -0.6937 -3.1898 0.9669
7.2902 0.6515 -3.1898 0.9686
7.0592 1.9337 -3.1898 0.9686
6.8590 2.5543 -3.1898 0.9686
5.9405 4.2757 -3.1898 0.9686
5.0883 5.2612 -3.1898 0.9686
4.0748 6.0800 -3.1898 0.9686
3.5175 6.4186 -3.1898 0.9686
2.9322 6.7062 -3.1898 0.9686
1.6967 7.1198 -3.1898 0.9686
0.4075 7.3079 -3.1898 0.9686
-0.2446 7.3151 -3.1898 0.9686
-0.8947 7.2643 -3.1898 0.9686
-1.5377 7.1559 -3.1898 0.9686
-2.1685 6.9906 -3.1898 0.9686
-3.9384 6.1693 -3.1898 0.9686
-5.8438 4.4070 -3.1898 0.9686
-6.2128 3.8694 -3.1898 0.9686
-6.8004 2.7065 -3.1898 0.9686
-1.9300 0.3923 -0.8583 0.9914
-1.9433 0.2174 -0.8522 0.9915
-1.9479 -0.1304 -0.8508 0.9915
-6.6731 -3.0068 -3.1898 0.9686
-6.0343 -4.1423 -3.1898 0.9686
-5.6416 -4.6629 -3.1898 0.9686
-4.2041 -5.9804 -3.1859 0.9686
-2.9337 -6.3220 -3.0374 0.9700
-1.7663 -6.7420 -3.0374 0.9700
-0.5430 -6.9484 -3.0374 0.9700
0.6976 -6.9345 -3.0374 0.9700
1.3121 -6.8449 -3.0374 0.9700
1.9161 -6.7010 -3.0374 0.9700
3.0738 -6.2551 -3.0374 0.9700
3.6747 -6.0493 -3.0847 0.9696
4.3332 -5.8811 -3.1837 0.9686
4.8482 -5.4819 -3.1894 0.9686
5.3176 -5.0293 -3.1898 0.9686
6.7384 -2.8574 -3.1898 0.9686
6.9660 -2.2463 -3.1898 0.9686
7.1383 -1.6173 -3.1898 0.9686
7.2539 -0.9756 -3.1898 0.9686
7.3120 -0.3260 -3.1898 0.9686
7.3120 0.3261 -3.1898 0.9686
7.2539 0.9756 -3.1898 0.9686
7.1383 1.6173 -3.1898 0.9686
6.9660 2.2462 -3.1898 0.9686
6.4574 3.4458 -3.1898 0.9686
6.1251 4.0068 -3.1898 0.9686
4.8489 5.4827 -3.1898 0.9686
4.3416 5.8925 -3.1898 0.9686
1.3779 7.1884 -3.1898 0.9686
0.7326 7.2825 -3.1898 0.9686
0.0815 7.3188 -3.1898 0.9686
-0.5702 7.2970 -3.1898 0.9686
-1.2174 7.2173 -3.1898 0.9686
-1.8549 7.0803 -3.1898 0.9686
-2.4778 6.8871 -3.1898 0.9686
-3.0809 6.6392 -3.1898 0.9686
-4.2093 5.9878 -3.1898 0.9686
-4.7255 5.5894 -3.1898 0.9686
-5.6416 4.6629 -3.1898 0.9686
-6.6731 3.0068 -3.1898 0.9686
-1.8290 0.6351 -0.8438 0.9916
-1.9397 0.3050 -0.8557 0.9915
-1.9479 0.1304 -0.8508 0.9915
-1.9470 -0.0434 -0.8487 0.9915
-1.9300 -0.3923 -0.8583 0.9914
-1.8741 -0.5585 -0.8523 0.9915
-6.8004 -2.7065 -3.1898 0.9686
-5.8438 -4.4070 -3.1898 0.9686
-4.9698 -5.3733 -3.1898 0.9686
-3.2321 -6.2229 -3.0560 0.9699
-1.4642 -6.8140 -3.0374 0.9700
-0.2329 -6.9656 -3.0374 0.9700
1.0058 -6.8966 -3.0374 0.9700
2.2127 -6.6090 -3.0374 0.9700
2.7921 -6.3858 -3.0374 0.9700
3.3494 -6.1119 -3.0374 0.9700
4.0252 -6.0060 -3.1510 0.9689
4.5949 -5.6872 -3.1864 0.9686
5.5364 -4.7875 -3.1898 0.9686
5.9405 -4.2757 -3.1898 0.9686
6.8590 -2.5543 -3.1898 0.9686
7.2033 -1.2977 -3.1898 0.9686
6.7820 1.2218 -3.1898 0.9701
6.2183 2.9702 -3.1898 0.9701
5.2126 4.5075 -3.1898 0.9701
4.7907 4.9536 -3.1898 0.9701
2.7608 6.3140 -3.1898 0.9701
0.9945 6.8191 -3.1898 0.9701
0.3837 6.8805 -3.1898 0.9701
-0.8424 6.8395 -3.1898 0.9701
-1.4478 6.7374 -3.1898 0.9701
-2.0417 6.5818 -3.1898 0.9701
-3.1763 6.1155 -3.1898 0.9701
-3.7080 5.8086 -3.1898 0.9701
-4.2103 5.4555 -3.1898 0.9701
-4.6792 5.0591 -3.1898 0.9701
-5.8495 3.6431 -3.1898 0.9701
-1.5257 0.6072 -0.7601 0.9928
-1.5924 0.4746 -0.7692 0.9927
-1.6373 0.3328 -0.7734 0.9927
-1.6675 0.1865 -0.7767 0.9926
-1.6716 0.0373 -0.7739 0.9927
-1.6521 -0.2598 -0.7741 0.9927
-6.2829 -2.8309 -3.1898 0.9701
-6.0060 -3.3789 -3.1898 0.9701
-4.8999 -4.8456 -3.1898 0.9701
-4.4492 -5.2625 -3.1898 0.9701
-3.9631 -5.6376 -3.1898 0.9701
-3.4417 -5.9613 -3.1863 0.9701
-2.2385 -6.2220 -3.0608 0.9713
-1.6630 -6.3478 -3.0374 0.9715
-1.0915 -6.4706 -3.0374 0.9715
0.0731 -6.5616 -3.0374 0.9715
0.6568 -6.5290 -3.0374 0.9715
1.2353 -6.4447 -3.0374 0.9715
1.8040 -6.3091 -3.0374 0.9715
2.3696 -6.1524 -3.0518 0.9714
2.9956 -6.0959 -3.1440 0.9705
4.5653 -5.1621 -3.1898 0.9701
5.0066 -4.7353 -3.1898 0.9701
6.3444 -2.6903 -3.1898 0.9701
6.5587 -2.1149 -3.1898 0.9701
6.8297 -0.9185 -3.1898 0.9701
6.8844 0.3070 -3.1898 0.9701
6.7209 1.5227 -3.1898 0.9701
6.3444 2.6903 -3.1898 0.9701
5.4082 4.2708 -3.1898 0.9701
4.5653 5.1621 -3.1898 0.9701
3.5777 5.8897 -3.1898 0.9701
1.8946 6.6257 -3.1898 0.9701
1.2973 6.7680 -3.1898 0.9701
0.6898 6.8566 -3.1898 0.9701
-0.5369 6.8703 -3.1898 0.9701
-1.7465 6.6662 -3.1898 0.9701
-2.3329 6.4843 -3.1898 0.9701
-2.9008 6.2510 -3.1898 0.9701
-4.4492 5.2625 -3.1898 0.9701
-4.8999 4.8456 -3.1898 0.9701
-5.6814 3.9001 -3.1898 0.9701
-1.5621 0.5424 -0.7654 0.9927
-1.6165 0.4043 -0.7713 0.9927
-1.6738 0.1120 -0.7765 0.9926
-1.6716 -0.0373 -0.7739 0.9927
-1.6373 -0.3328 -0.7734 0.9927
-1.5924 -0.4746 -0.7692 0.9927
-6.1505 -3.1080 -3.1898 0.9701
-5.8495 -3.6431 -3.1898 0.9701
-5.5020 -4.1493 -3.1898 0.9701
-4.6792 -5.0591 -3.1898 0.9701
-4.2103 -5.4555 -3.1898 0.9701
-2.5533 -6.2130 -3.1093 0.9708
-1.9442 -6.2674 -3.0374 0.9715
0.9470 -6.4933 -3.0374 0.9715
1.5212 -6.3832 -3.0374 0.9715
2.0833 -6.2225 -3.0374 0.9715
2.6781 -6.1251 -3.0944 0.9710
3.3045 -6.0299 -3.1828 0.9701
3.8334 -5.7198 -3.1872 0.9701
4.3308 -5.3603 -3.1898 0.9701
4.7907 -4.9536 -3.1898 0.9701
5.2126 -4.5075 -3.1898 0.9701
5.5931 -4.0257 -3.1898 0.9701
5.9292 -3.5119 -3.1898 0.9701
6.2183 -2.9702 -3.1898 0.9701
6.7820 -1.2218 -3.1898 0.9701
6.5029 0.0000 -3.1898 0.9714
6.4771 0.5788 -3.1898 0.9714
6.3999 1.1530 -3.1898 0.9714
6.2719 1.7180 -3.1898 0.9714
6.0941 2.2695 -3.1898 0.9714
5.8679 2.8029 -3.1898 0.9714
5.5951 3.3140 -3.1898 0.9714
4.9189 4.2535 -3.1898 0.9714
4.5208 4.6745 -3.1898 0.9714
3.6204 5.4020 -3.1898 0.9714
3.1252 5.7027 -3.1898 0.9714
2.0646 6.1665 -3.1898 0.9714
0.3620 6.4929 -3.1898 0.9714
-0.2173 6.4993 -3.1898 0.9714
-2.4718 6.0148 -3.1898 0.9714
-3.4991 5.4813 -3.1898 0.9714
-4.4155 4.7740 -3.1898 0.9714
-5.1920 3.9155 -3.1898 0.9714
-5.5199 3.4378 -3.1898 0.9714
-5.8040 2.9329 -3.1898 0.9714
-1.3419 0.1501 -0.6624 0.9940
-1.3513 -0.0905 -0.6643 0.9940
-1.3171 -0.4573 -0.6839 0.9938
-1.2865 -0.5797 -0.6922 0.9937
-5.3613 -3.6803 -3.1898 0.9714
-5.0124 -4.1429 -3.1898 0.9714
-4.1985 -4.9660 -3.1898 0.9714
-3.2515 -5.6317 -3.1898 0.9714
-2.1972 -6.1074 -3.1838 0.9715
-1.6259 -6.2061 -3.1470 0.9718
0.0693 -6.2227 -3.0526 0.9727
1.1878 -6.1968 -3.0950 0.9723
2.8652 -5.8306 -3.1867 0.9715
3.3761 -5.5579 -3.1898 0.9714
5.4419 -3.5600 -3.1898 0.9714
5.7372 -3.0615 -3.1898 0.9714
5.9869 -2.5387 -3.1898 0.9714
6.1891 -1.9957 -3.1898 0.9714
6.4965 -0.2897 -3.1898 0.9714
6.4449 0.8668 -3.1898 0.9714
6.3422 1.4369 -3.1898 0.9714
6.1891 1.9957 -3.1898 0.9714
5.7372 3.0615 -3.1898 0.9714
5.4420 3.5600 -3.1898 0.9714
5.1035 4.0302 -3.1898 0.9714
4.7245 4.4684 -3.1898 0.9714
3.3761 5.5579 -3.1898 0.9714
2.8680 5.8363 -3.1898 0.9714
0.0724 6.5025 -3.1898 0.9714
-1.6481 6.2906 -3.1898 0.9714
-2.2014 6.1190 -3.1898 0.9714
-3.7398 5.3200 -3.1898 0.9714
-1.2865 0.5797 -0.6922 0.9937
-1.3171 0.4573 -0.6839 0.9938
-1.3149 0.3289 -0.6649 0.9940
-1.3257 0.2085 -0.6583 0.9940
-1.3513 0.0905 -0.6643 0.9940
-1.3047 -0.2652 -0.6531 0.9941
-1.3059 -0.5198 -0.6895 0.9938
-5.1920 -3.9155 -3.1898 0.9714
-4.8229 -4.3621 -3.1898 0.9714
-2.9970 -5.7703 -3.1895 0.9714
-2.4685 -6.0066 -3.1855 0.9715
-1.9221 -6.1962 -3.1823 0.9715
-1.3348 -6.2117 -3.1165 0.9721
-0.2081 -6.2233 -3.0544 0.9726
0.3468 -6.2187 -3.0552 0.9726
1.4732 -6.1819 -3.1173 0.9721
2.0584 -6.1481 -3.1803 0.9715
2.6013 -5.9492 -3.1850 0.9715
3.1240 -5.7006 -3.1886 0.9715
4.5208 -4.6745 -3.1898 0.9714
6.0941 -2.2695 -3.1898 0.9714
6.3999 -1.1530 -3.1898 0.9714
6.4771 -0.5788 -3.1898 0.9714
6.1487 0.0000 -3.1898 0.9727
5.9303 1.6245 -3.1898 0.9727
5.7622 2.1459 -3.1898 0.9727
5.2904 3.1335 -3.1898 0.9727
4.9905 3.5919 -3.1898 0.9727
4.6510 4.0219 -3.1898 0.9727
4.2746 4.4199 -3.1898 0.9727
3.8642 4.7828 -3.1898 0.9727
2.9550 5.3921 -3.1898 0.9727
1.9521 5.8306 -3.1898 0.9727
1.4254 5.9812 -3.1898 0.9727
0.8874 6.0844 -3.1898 0.9727
0.3423 6.1392 -3.1898 0.9727
-0.2055 6.1453 -3.1898 0.9727
-2.8341 5.4566 -3.1898 0.9727
-3.3085 5.1827 -3.1898 0.9727
-5.2193 3.2506 -3.1898 0.9727
-1.1266 0.3358 -0.6099 0.9947
-1.1332 0.2303 -0.5999 0.9948
-1.1649 0.1303 -0.6081 0.9947
-1.1785 0.0263 -0.6115 0.9947
-1.1739 -0.0786 -0.6103 0.9947
-1.1517 -0.1811 -0.6048 0.9948
-1.1275 -0.2820 -0.6029 0.9948
-5.3589 -3.0149 -3.1898 0.9727
-5.0693 -3.4799 -3.1898 0.9727
-4.3720 -4.3235 -3.1898 0.9727
-3.5361 -5.0302 -3.1898 0.9727
-3.0744 -5.3250 -3.1898 0.9727
-2.5882 -5.5775 -3.1898 0.9727
-2.0811 -5.7846 -3.1893 0.9727
-1.0211 -6.0533 -3.1847 0.9727
-0.4781 -6.1181 -3.1836 0.9727
3.1922 -5.2552 -3.1898 0.9727
3.6473 -4.9502 -3.1898 0.9727
4.0734 -4.6059 -3.1898 0.9727
5.4247 -2.8947 -3.1898 0.9727
5.8520 -1.8870 -3.1898 0.9727
5.9968 -1.3587 -3.1898 0.9727
6.0939 -0.8196 -3.1898 0.9727
6.1426 -0.2739 -3.1898 0.9727
6.0939 0.8196 -3.1898 0.9727
5.4247 2.8947 -3.1898 0.9727
5.1456 3.3661 -3.1898 0.9727
4.4672 4.2251 -3.1898 0.9727
3.6473 4.9502 -3.1898 0.9727
3.1922 5.2552 -3.1898 0.9727
2.7118 5.5184 -3.1898 0.9727
1.6904 5.9118 -3.1898 0.9727
-1.0227 6.0631 -3.1898 0.9727
-1.5583 5.9480 -3.1898 0.9727
-2.0815 5.7857 -3.1898 0.9727
-2.5882 5.5775 -3.1898 0.9727
-3.0744 5.3250 -3.1898 0.9727
-3.9698 4.6955 -3.1898 0.9727
-4.3720 4.3235 -3.1898 0.9727
-4.7394 3.9173 -3.1898 0.9727
-1.0898 0.4910 -0.6201 0.9946
-1.1198 0.3889 -0.6150 0.9947
-1.1275 0.2820 -0.6029 0.9948
-1.1739 0.0786 -0.6103 0.9947
-1.1785 -0.0263 -0.6115 0.9947
-1.1332 -0.2303 -0.5999 0.9948
-1.1266 -0.3358 -0.6099 0.9947
-1.0665 -0.5389 -0.6199 0.9946
-4.5602 -4.1245 -3.1898 0.9727
-3.7567 -4.8677 -3.1898 0.9727
-2.8341 -5.4566 -3.1898 0.9727
-1.2901 -6.0034 -3.1855 0.9727
-0.7502 -6.0916 -3.1841 0.9727
-0.2050 -6.1328 -3.1834 0.9727
0.3416 -6.1268 -3.1834 0.9727
0.8858 -6.0736 -3.1842 0.9727
1.9508 -5.8268 -3.1877 0.9727
2.4633 -5.6338 -3.1898 0.9727
3.4232 -5.1077 -3.1898 0.9727
3.8642 -4.7828 -3.1898 0.9727
4.6510 -4.0219 -3.1898 0.9727
6.1243 -0.5473 -3.1898 0.9727
2.0356 0.1819 -1.1193 0.9907
2.0004 0.5480 -1.1360 0.9906
5.2553 2.5102 -3.1898 0.9738
5.0110 2.9680 -3.1898 0.9738
4.4054 3.8095 -3.1898 0.9738
3.6601 4.5302 -3.1898 0.9738
2.7989 5.1074 -3.1898 0.9738
2.3332 5.3362 -3.1898 0.9738
1.8490 5.5227 -3.1898 0.9738
1.3501 5.6654 -3.1898 0.9738
-0.1946 5.8208 -3.1898 0.9738
-1.2236 5.6940 -3.1898 0.9738
-1.7255 5.5625 -3.1898 0.9738
-2.6844 5.1685 -3.1898 0.9738
-3.5583 4.6106 -3.1898 0.9738
-3.9545 4.2756 -3.1898 0.9738
-4.3194 3.9067 -3.1898 0.9738
-4.6500 3.5067 -3.1898 0.9738
-4.9436 3.0789 -3.1898 0.9738
-0.9364 0.4732 -0.5746 0.9952
-1.0000 0.2033 -0.5589 0.9954
-1.0376 -0.0695 -0.5696 0.9953
-1.0166 -0.1599 -0.5637 0.9953
-0.9756 -0.3388 -0.5656 0.9953
-4.8016 -3.2961 -3.1898 0.9738
-3.7602 -4.4475 -3.1898 0.9738
-2.9120 -5.0438 -3.1898 0.9738
-1.9716 -5.4802 -3.1898 0.9738
-0.4536 -5.8046 -3.1889 0.9738
1.0964 -5.7199 -3.1898 0.9738
2.0932 -5.4349 -3.1898 0.9738
2.5686 -5.2270 -3.1898 0.9738
3.0237 -4.9776 -3.1898 0.9738
3.4547 -4.6887 -3.1898 0.9738
3.8583 -4.3627 -3.1898 0.9738
4.2313 -4.0019 -3.1898 0.9738
4.5707 -3.6094 -3.1898 0.9738
5.1382 -2.7419 -3.1898 0.9738
1.9895 -0.6415 -1.1449 0.9905
2.0434 -0.0911 -1.1203 0.9907
2.0226 0.2720 -1.1178 0.9907
1.9407 0.8229 -1.1546 0.9904
4.8738 3.1883 -3.1898 0.9738
3.8583 4.3627 -3.1898 0.9738
3.4547 4.6887 -3.1898 0.9738
2.5686 5.2270 -3.1898 0.9738
2.0932 5.4349 -3.1898 0.9738
1.0964 5.7199 -3.1898 0.9738
0.5830 5.7948 -3.1898 0.9738
0.0649 5.8237 -3.1898 0.9738
-1.4760 5.6339 -3.1898 0.9738
-1.9716 5.4802 -3.1898 0.9738
-2.9120 5.0438 -3.1898 0.9738
-3.3494 4.7646 -3.1898 0.9738
-4.1411 4.0952 -3.1898 0.9738
-1.0166 0.1599 -0.5637 0.9953
-1.0376 0.0695 -0.5696 0.9953
-0.9825 -0.2928 -0.5615 0.9953
-0.9638 -0.3836 -0.5681 0.9953
-0.9364 -0.4732 -0.5746 0.9952
-4.9436 -3.0789 -3.1898 0.9738
-4.6500 -3.5067 -3.1898 0.9738
-3.9546 -4.2756 -3.1898 0.9738
-3.5583 -4.6106 -3.1898 0.9738
-1.7255 -5.5625 -3.1898 0.9738
-0.7118 -5.7794 -3.1893 0.9738
0.3241 -5.8129 -3.1887 0.9738
1.3501 -5.6654 -3.1898 0.9738
2.3332 -5.3362 -3.1898 0.9738
2.7989 -5.1074 -3.1898 0.9738
3.6601 -4.5302 -3.1898 0.9738
4.0488 -4.1865 -3.1898 0.9738
4.4054 -3.8095 -3.1898 0.9738
4.7269 -3.4023 -3.1898 0.9738
1.9714 -0.7342 -1.1522 0.9905
2.0004 -0.5480 -1.1360 0.9906
1.8754 0.0000 -1.0828 0.9914
1.8700 0.1671 -1.0839 0.9914
1.8267 0.5004 -1.0935 0.9913
1.7194 0.8213 -1.1001 0.9912
4.7537 2.8156 -3.1898 0.9748
3.4722 4.2976 -3.1898 0.9748
2.6552 4.8451 -3.1898 0.9748
2.2134 5.0622 -3.1898 0.9748
1.7541 5.2391 -3.1898 0.9748
0.7974 5.4671 -3.1898 0.9748
-0.6754 5.4835 -3.1898 0.9748
-2.9729 4.6569 -3.1898 0.9748
-3.7515 4.0561 -3.1898 0.9748
-4.0976 3.7061 -3.1898 0.9748
-0.9012 0.2686 -0.5429 0.9957
-0.9189 -0.1445 -0.5370 0.9957
-0.9030 -0.2259 -0.5374 0.9957
-0.8983 -0.3119 -0.5490 0.9956
-0.8858 -0.3991 -0.5609 0.9955
-0.8638 -0.4859 -0.5722 0.9954
-4.5550 -3.1268 -3.1898 0.9748
-4.2586 -3.5199 -3.1898 0.9748
-2.7625 -4.7848 -3.1898 0.9748
-1.4002 -5.3446 -3.1898 0.9748
-0.9190 -5.4480 -3.1898 0.9748
0.0615 -5.5246 -3.1898 0.9748
2.4367 -4.9586 -3.1898 0.9748
3.2773 -4.4480 -3.1898 0.9748
4.0140 -3.7964 -3.1898 0.9748
1.6861 -0.8997 -1.1034 0.9912
1.8108 -0.5839 -1.0985 0.9913
1.8755 -0.0836 -1.0839 0.9914
1.8592 0.2500 -1.0831 0.9914
1.8108 0.5839 -1.0985 0.9913
1.7564 0.7448 -1.1014 0.9912
4.6235 3.0246 -3.1898 0.9748
4.0140 3.7964 -3.1898 0.9748
3.6602 4.1386 -3.1898 0.9748
2.8684 4.7220 -3.1898 0.9748
1.9857 5.1558 -3.1898 0.9748
1.0401 5.4262 -3.1898 0.9748
0.5530 5.4972 -3.1898 0.9748
0.0615 5.5246 -3.1898 0.9748
-0.4304 5.5082 -3.1898 0.9748
-0.9190 5.4480 -3.1898 0.9748
-2.3257 5.0117 -3.1898 0.9748
-3.5671 4.2192 -3.1898 0.9748
-4.5550 3.1268 -3.1898 0.9748
-0.8638 0.4860 -0.5722 0.9954
-0.8858 0.3991 -0.5609 0.9955
-0.8983 0.3119 -0.5490 0.9956
-0.9189 0.1445 -0.5370 0.9957
-0.9273 0.0621 -0.5366 0.9957
-0.9237 -0.1033 -0.5366 0.9957
-0.8932 -0.3555 -0.5550 0.9956
-0.8491 -0.5288 -0.5776 0.9954
-4.0976 -3.7061 -3.1898 0.9748
-2.9729 -4.6570 -3.1898 0.9748
-2.5466 -4.9031 -3.1898 0.9748
-2.1001 -5.1103 -3.1898 0.9748
-1.1607 -5.4017 -3.1898 0.9748
-0.6754 -5.4835 -3.1898 0.9748
-0.1846 -5.5219 -3.1898 0.9748
1.2808 -5.3745 -3.1898 0.9748
1.7541 -5.2391 -3.1898 0.9748
2.2134 -5.0622 -3.1898 0.9748
3.0759 -4.5896 -3.1898 0.9748
4.4842 -3.2276 -3.1898 0.9748
1.8700 -0.1671 -1.0839 0.9914
