ply
format ascii 1.0
element vertex 1365
property float32 x
property float32 y
property float32 z
property float32 I
end_header
-18.1310 -6.2957 -1.8426 0.9258
-17.5334 -7.9002 -1.8463 0.9256
-17.8491 -7.1037 -1.8443 0.9257
18.9946 1.6974 -2.2653 0.9261
18.7597 3.3797 -2.2643 0.9261
18.3668 5.0312 -2.2621 0.9262
17.8202 6.6363 -2.2588 0.9263
16.2901 9.6487 -2.2490 0.9266
15.3229 11.0288 -2.2426 0.9268
14.2338 12.3085 -2.2353 0.9270
-11.8298 10.6994 -1.8947 0.9378
-14.4871 9.0227 -2.0273 0.9336
-16.2409 4.8403 -2.0130 0.9340
-16.5822 3.3705 -2.0100 0.9341
-16.8521 -1.1281 -2.0063 0.9342
-15.9906 -5.5525 -2.0107 0.9341
-14.3509 -6.4662 -1.8697 0.9386
19.0460 -0.8493 -2.2646 0.9261
19.0520 0.8496 -2.2654 0.9261
18.1124 5.8405 -2.2606 0.9262
16.7249 8.9247 -2.2518 0.9265
13.6470 12.9073 -2.2313 0.9271
11.5085 13.0129 -2.0635 0.9324
10.2616 13.9272 -2.0549 0.9327
-12.2726 10.1436 -1.8913 0.9379
-14.0482 9.6436 -2.0241 0.9337
-14.8534 8.3564 -2.0244 0.9337
-15.4984 6.9833 -2.0192 0.9338
-16.8593 1.1286 -2.0071 0.9342
-16.5613 -3.3662 -2.0075 0.9342
-15.5814 -6.2012 -1.9920 0.9347
-14.0623 -7.1060 -1.8716 0.9385
-13.4043 -8.3483 -1.8758 0.9384
17.0194 -4.6621 -2.0961 0.9314
17.3942 -3.1337 -2.0994 0.9313
15.7599 1.4083 -2.2419 0.9381
15.5661 2.8044 -2.2411 0.9381
11.8365 10.2354 -2.2172 0.9387
10.8455 11.2142 -2.2104 0.9389
9.3001 11.5109 -2.0968 0.9420
6.8857 12.5648 -2.0301 0.9438
-7.3198 11.4662 -1.9275 0.9465
-8.2802 10.7290 -1.9203 0.9467
-9.1701 9.9146 -1.9135 0.9469
-12.2389 7.6225 -2.0429 0.9434
-14.2599 -0.9546 -2.0250 0.9439
-14.1217 -2.2205 -2.0255 0.9439
-11.6215 -6.5382 -1.8893 0.9476
13.4505 -5.7035 -2.0701 0.9427
14.9402 -3.3850 -2.1705 0.9400
15.8032 -0.7047 -2.2414 0.9381
15.6794 2.1087 -2.2416 0.9381
15.0332 4.8476 -2.2380 0.9382
14.5215 6.1577 -2.2349 0.9383
13.8907 7.4123 -2.2308 0.9384
13.1470 8.6004 -2.2260 0.9385
12.2980 9.7116 -2.2203 0.9387
-7.8084 11.1077 -1.9238 0.9466
-8.7343 10.3310 -1.9168 0.9468
-11.1594 9.2235 -2.0513 0.9432
-11.9026 8.1707 -2.0456 0.9433
-12.5511 7.0612 -2.0405 0.9435
-13.5501 4.7051 -2.0324 0.9437
-13.8948 3.4753 -2.0294 0.9438
-14.1335 2.2224 -2.0272 0.9438
-14.2650 0.9549 -2.0257 0.9439
-12.2955 -6.2131 -1.9519 0.9459
-11.3301 -7.0564 -1.8912 0.9475
13.7049 -5.1038 -2.0721 0.9426
15.5327 -2.7983 -2.2362 0.9382
15.7516 -1.4076 -2.2407 0.9381
13.5070 0.0000 -2.2251 0.9467
13.2893 2.3942 -2.2245 0.9467
12.6326 4.7045 -2.2207 0.9468
12.1470 5.8022 -2.2177 0.9469
11.5626 6.8486 -2.2139 0.9470
10.8851 7.8346 -2.2094 0.9471
10.1210 8.7520 -2.2043 0.9472
9.2777 9.5931 -2.1985 0.9473
8.3631 10.3511 -2.1922 0.9475
7.2202 10.7733 -2.1365 0.9488
5.8995 10.7652 -2.0223 0.9515
3.8698 11.5583 -2.0080 0.9518
-2.5024 11.6451 -1.9622 0.9529
-5.4298 10.4542 -1.9407 0.9534
-7.4933 9.7094 -2.0205 0.9515
-8.5329 9.2257 -2.0702 0.9503
-9.9798 7.5261 -2.0592 0.9506
-10.5856 6.5928 -2.0544 0.9507
-11.1080 5.6131 -2.0503 0.9508
-11.8897 3.5435 -2.0438 0.9509
-12.1444 2.4685 -2.0416 0.9510
-12.3744 0.2758 -2.0390 0.9511
-12.0151 -3.0052 -2.0403 0.9510
-9.5306 -6.5423 -1.9044 0.9542
-8.9291 -7.3801 -1.9084 0.9541
10.9909 -5.8649 -2.0523 0.9508
13.1509 -2.9796 -2.2214 0.9468
13.3765 -1.7990 -2.2235 0.9468
13.1656 2.9829 -2.2239 0.9467
12.4025 5.2591 -2.2193 0.9469
11.2351 7.3497 -2.2117 0.9470
9.7088 9.1825 -2.2015 0.9473
7.8707 10.6822 -2.1859 0.9476
6.4169 10.5636 -2.0362 0.9511
4.3888 11.3953 -2.0117 0.9517
-1.9849 11.7675 -1.9660 0.9528
-5.8799 10.1844 -1.9373 0.9534
-8.1039 9.5854 -2.0678 0.9504
-9.6466 7.9732 -2.0617 0.9505
-10.2929 7.0657 -2.0567 0.9506
-12.2371 1.9242 -2.0407 0.9510
-12.3521 0.8269 -2.0394 0.9511
-12.3000 -1.3759 -2.0389 0.9511
-11.0847 -5.6013 -2.0460 0.9509
-9.9853 -6.2189 -1.9379 0.9534
-9.2390 -6.9675 -1.9063 0.9542
-8.6014 -7.7795 -1.9106 0.9541
10.7071 -6.3418 -2.0501 0.9508
12.9973 -3.5603 -2.2201 0.9468
11.7719 0.0000 -2.2127 0.9532
11.5826 2.0867 -2.2121 0.9532
11.3442 3.1075 -2.2108 0.9533
11.0126 4.1012 -2.2088 0.9533
10.5912 5.0590 -2.2062 0.9534
9.4954 6.8344 -2.1990 0.9535
8.8315 7.6369 -2.1945 0.9536
7.3026 9.0385 -2.1841 0.9538
6.4517 9.6266 -2.1782 0.9539
5.5424 10.1136 -2.1677 0.9541
3.3848 10.1099 -2.0039 0.9575
2.4635 10.3372 -1.9974 0.9577
-0.3515 10.5134 -1.9772 0.9581
-1.2815 10.4049 -1.9705 0.9582
-3.0852 9.9459 -1.9573 0.9585
-5.9742 9.3584 -2.0869 0.9558
-7.5039 8.1131 -2.0772 0.9560
-9.3176 5.8031 -2.0632 0.9563
-9.7797 4.9419 -2.0596 0.9564
-10.6977 2.1744 -2.0519 0.9565
-10.8413 1.2128 -2.0505 0.9566
-10.9018 0.2429 -2.0496 0.9566
-10.7730 -1.6940 -2.0498 0.9566
-10.5845 -2.6474 -2.0508 0.9566
-9.5389 -5.3665 -2.0572 0.9564
-9.0066 -6.1826 -2.0534 0.9565
-7.2648 -7.1843 -1.9204 0.9593
9.0758 -5.9371 -2.0385 0.9568
9.5870 -5.1158 -2.0425 0.9567
10.7712 -4.5674 -2.1991 0.9535
11.1748 -3.6034 -2.2069 0.9533
11.4640 -2.5974 -2.2094 0.9533
11.6593 -1.5680 -2.2112 0.9532
11.7586 -0.5243 -2.2123 0.9532
11.6661 1.5689 -2.2125 0.9532
11.4752 2.5999 -2.2116 0.9532
11.1899 3.6083 -2.2099 0.9533
10.8129 4.5851 -2.2076 0.9533
7.7078 8.7154 -2.1869 0.9537
3.8612 10.0254 -2.0193 0.9572
0.1174 10.5366 -1.9806 0.9580
-1.7408 10.3199 -1.9671 0.9583
-4.5080 9.7146 -2.0130 0.9573
-8.4875 7.0151 -2.0697 0.9562
-9.0588 6.2185 -2.0653 0.9563
-9.5581 5.3773 -2.0613 0.9563
-9.9822 4.4978 -2.0579 0.9564
-10.7799 1.6951 -2.0511 0.9566
-10.8820 0.7285 -2.0500 0.9566
-10.8364 -1.2122 -2.0495 0.9566
-10.4597 -3.1173 -2.0515 0.9566
-8.2486 -6.2206 -1.9419 0.9588
-7.5695 -6.8462 -1.9184 0.9593
-6.9454 -7.5092 -1.9226 0.9592
-6.2646 -8.1172 -1.9273 0.9591
8.1756 -7.0697 -2.0316 0.9570
10.2620 -4.9017 -2.1376 0.9548
10.9958 -4.0949 -2.2054 0.9534
11.3310 -3.1039 -2.2082 0.9533
11.5735 -2.0851 -2.2104 0.9533
11.7210 -1.0474 -2.2119 0.9532
10.4217 0.0000 -2.2029 0.9583
10.3807 0.9276 -2.2030 0.9583
10.2544 1.8474 -2.2025 0.9583
9.3796 4.4802 -2.1972 0.9584
8.9318 5.2903 -2.1943 0.9584
7.1781 7.4221 -2.1826 0.9587
4.0960 9.3677 -2.1612 0.9591
3.2318 9.6529 -2.1518 0.9592
2.3385 9.8127 -2.1323 0.9596
1.4222 9.7514 -2.0831 0.9605
-3.7842 9.2083 -2.1044 0.9601
-4.5760 8.8104 -2.0985 0.9602
-5.3278 8.3458 -2.0930 0.9603
-6.6902 7.2334 -2.0827 0.9605
-7.2914 6.5947 -2.0781 0.9606
-7.8336 5.9076 -2.0740 0.9607
-9.7337 0.2169 -2.0580 0.9610
-9.4498 -2.3635 -2.0590 0.9610
-9.2082 -3.1974 -2.0604 0.9609
-8.5134 -4.7896 -2.0648 0.9609
-7.5017 -6.2003 -2.0572 0.9610
-6.4799 -6.4081 -1.9264 0.9634
-5.8960 -6.9738 -1.9304 0.9634
-4.5875 -7.9457 -1.9394 0.9632
5.6493 -7.6673 -2.0131 0.9618
6.3252 -7.1521 -2.0182 0.9617
9.1361 -4.8752 -2.1889 0.9585
9.5607 -4.0541 -2.1951 0.9584
9.8960 -3.1910 -2.1979 0.9584
10.1509 -2.2999 -2.2001 0.9583
10.3228 -1.3883 -2.2017 0.9583
10.4119 0.4643 -2.2031 0.9583
10.3281 1.3890 -2.2028 0.9583
10.1596 2.3019 -2.2020 0.9583
8.6807 5.6787 -2.1927 0.9585
8.1271 6.4179 -2.1890 0.9585
5.3292 8.7731 -2.1698 0.9589
4.5153 9.1885 -2.1641 0.9590
2.7910 9.7609 -2.1459 0.9593
0.9791 9.7328 -2.0677 0.9608
-0.7588 9.7109 -2.0589 0.9610
-2.5262 9.6423 -2.1070 0.9601
-3.3718 9.3720 -2.1054 0.9601
-4.1848 9.0179 -2.1014 0.9602
-6.9979 6.9204 -2.0804 0.9606
-7.5701 6.2569 -2.0760 0.9606
-8.5287 4.7982 -2.0685 0.9608
-8.9088 4.0141 -2.0655 0.9608
-9.2193 3.2013 -2.0629 0.9609
-9.4582 2.3657 -2.0609 0.9609
-9.7158 0.6504 -2.0583 0.9610
-9.7329 -0.2169 -2.0579 0.9610
-9.3381 -2.7830 -2.0597 0.9609
-9.0606 -3.6060 -2.0613 0.9609
-7.8077 -5.8881 -2.0671 0.9608
-6.8762 -6.2191 -1.9598 0.9628
-6.1943 -6.6972 -1.9283 0.9634
-5.5857 -7.2375 -1.9325 0.9633
5.9929 -7.4175 -2.0157 0.9618
6.6455 -6.8714 -2.0206 0.9617
7.2471 -6.2668 -2.0252 0.9616
7.7922 -5.6084 -2.0294 0.9615
10.0337 -2.7485 -2.1991 0.9584
10.2473 -1.8461 -2.2009 0.9583
10.3771 -0.9273 -2.2022 0.9583
9.1904 1.6558 -2.1947 0.9624
9.0024 2.4660 -2.1937 0.9624
8.4085 4.0164 -2.1901 0.9624
8.0081 4.7432 -2.1875 0.9625
7.5436 5.4295 -2.1844 0.9625
5.1355 7.6627 -2.1680 0.9628
4.4229 8.0709 -2.1630 0.9629
3.6781 8.4121 -2.1578 0.9630
2.1175 8.8853 -2.1467 0.9632
1.3147 9.0144 -2.1410 0.9633
-0.3028 9.0553 -2.1294 0.9635
-1.1045 8.9679 -2.1236 0.9636
-1.8932 8.8101 -2.1178 0.9636
-2.6627 8.5838 -2.1122 0.9637
-3.4073 8.2912 -2.1067 0.9638
-4.1214 7.9351 -2.1015 0.9639
-4.7997 7.5187 -2.0964 0.9640
-5.4375 7.0455 -2.0916 0.9641
-6.5734 5.9453 -2.0830 0.9642
-7.0636 5.3269 -2.0793 0.9643
-7.4975 4.6695 -2.0759 0.9644
-7.8721 3.9779 -2.0729 0.9644
-8.1848 3.2575 -2.0704 0.9645
-8.4338 2.5135 -2.0683 0.9645
-8.7341 0.9771 -2.0655 0.9645
-8.7836 0.1957 -2.0648 0.9645
-8.5270 -2.1327 -2.0658 0.9645
-8.3084 -2.8850 -2.0670 0.9645
-8.0254 -3.6161 -2.0688 0.9645
-7.6799 -4.3206 -2.0710 0.9644
-7.2742 -4.9934 -2.0736 0.9644
-6.8110 -5.6294 -2.0767 0.9643
-2.8120 -7.8160 -1.9522 0.9664
-0.6522 -8.3463 -1.9675 0.9662
2.3267 -8.1371 -1.9891 0.9658
3.7522 -7.6356 -1.9995 0.9656
6.2385 -5.9003 -2.0181 0.9653
7.0793 -5.5905 -2.1200 0.9636
8.2031 -4.3773 -2.1852 0.9625
8.5717 -3.6347 -2.1882 0.9625
9.2521 -1.2443 -2.1940 0.9624
9.3299 -0.4160 -2.1949 0.9624
9.1057 2.0631 -2.1943 0.9624
6.1304 6.9317 -2.1748 0.9627
4.7837 7.8750 -2.1655 0.9628
4.0542 8.2500 -2.1604 0.9629
2.5145 8.7937 -2.1496 0.9631
0.9106 9.0518 -2.1381 0.9633
-0.7049 9.0205 -2.1265 0.9635
-1.5009 8.8977 -2.1207 0.9636
-3.7685 8.1209 -2.1041 0.9639
-5.1240 7.2890 -2.0940 0.9641
-5.7397 6.7889 -2.0894 0.9641
-6.3081 6.2382 -2.0851 0.9642
-6.8254 5.6413 -2.0811 0.9643
-7.6923 4.3277 -2.0743 0.9644
-8.0363 3.6210 -2.0716 0.9644
-8.7829 -0.1957 -2.0647 0.9645
-8.7309 -0.9767 -2.0648 0.9645
-8.4259 -2.5111 -2.0663 0.9645
-8.1749 -3.2535 -2.0679 0.9645
-7.8604 -3.9720 -2.0698 0.9645
-7.4844 -4.6613 -2.0723 0.9644
-7.0496 -5.3163 -2.0751 0.9644
-5.7485 -6.2152 -1.9897 0.9658
-4.4435 -6.9606 -1.9408 0.9666
-3.1535 -7.6736 -1.9498 0.9665
-2.4641 -7.9435 -1.9547 0.9664
-1.7518 -8.1523 -1.9597 0.9663
1.2165 -8.3407 -1.9810 0.9660
1.9593 -8.2216 -1.9864 0.9659
2.6905 -8.0361 -1.9917 0.9658
4.0938 -7.4703 -2.0020 0.9656
4.7541 -7.0936 -2.0069 0.9655
5.3791 -6.6577 -2.0116 0.9654
5.9633 -6.1660 -2.0160 0.9654
7.5071 -5.4033 -2.1738 0.9627
8.7303 -3.2512 -2.1895 0.9624
8.9941 -2.4637 -2.1917 0.9624
9.1848 -1.6547 -2.1934 0.9624
9.3005 -0.8311 -2.1945 0.9624
8.4536 0.0000 -2.1888 0.9657
8.4202 0.7524 -2.1888 0.9657
8.1483 2.2321 -2.1875 0.9657
7.9122 2.9466 -2.1861 0.9657
7.6120 3.6359 -2.1842 0.9657
6.8307 4.9164 -2.1791 0.9658
5.8327 6.0309 -2.1723 0.9659
5.2633 6.5144 -2.1684 0.9660
4.6535 6.9435 -2.1642 0.9661
3.3344 7.6259 -2.1550 0.9662
1.9205 8.0588 -2.1450 0.9663
1.1927 8.1779 -2.1398 0.9664
0.4590 8.2313 -2.1345 0.9665
-0.2748 8.2191 -2.1293 0.9666
-1.0028 8.1418 -2.1240 0.9667
-1.7192 8.0006 -2.1188 0.9668
-2.4186 7.7970 -2.1137 0.9668
-3.0957 7.5329 -2.1087 0.9669
-3.7453 7.2111 -2.1039 0.9670
-4.9434 6.4054 -2.0949 0.9671
-5.4833 5.9285 -2.0909 0.9672
-5.9784 5.4071 -2.0871 0.9672
-6.4253 4.8456 -2.0837 0.9673
-6.8210 4.2481 -2.0806 0.9673
-7.1627 3.6195 -2.0779 0.9674
-7.4481 2.9643 -2.0756 0.9674
-7.6753 2.2875 -2.0737 0.9674
-7.8428 1.5941 -2.0722 0.9675
-7.9496 0.8893 -2.0711 0.9675
-7.9948 0.1782 -2.0705 0.9675
-7.9002 -1.2422 -2.0706 0.9675
-7.7610 -1.9411 -2.0714 0.9675
-7.3035 -3.2908 -2.0741 0.9674
-6.9884 -3.9316 -2.0761 0.9674
-6.6184 -4.5433 -2.0785 0.9674
-6.1962 -5.1213 -2.0813 0.9673
-5.7245 -5.6610 -2.0845 0.9673
-5.1905 -6.1394 -2.0816 0.9673
-3.1703 -6.8317 -1.9500 0.9694
-2.5553 -7.1025 -1.9543 0.9693
-1.9174 -7.3185 -1.9589 0.9692
-0.5922 -7.5788 -1.9683 0.9691
0.0849 -7.6202 -1.9731 0.9690
2.1107 -7.3815 -1.9878 0.9688
3.4021 -6.9232 -1.9973 0.9686
5.2076 -5.8883 -2.0353 0.9680
6.0661 -5.7373 -2.1618 0.9661
7.4276 -3.9635 -2.1798 0.9658
7.7604 -3.2907 -2.1825 0.9658
8.2359 -1.8660 -2.1865 0.9657
8.4443 -0.3765 -2.1886 0.9657
8.4455 0.3766 -2.1889 0.9657
8.3778 1.1267 -2.1887 0.9657
8.2416 1.8673 -2.1880 0.9657
8.0384 2.5921 -2.1868 0.9657
7.7699 3.2948 -2.1852 0.9657
7.4387 3.9694 -2.1831 0.9658
7.0476 4.6103 -2.1805 0.9658
6.6002 5.2122 -2.1775 0.9658
5.5533 6.2793 -2.1704 0.9660
4.9631 6.7360 -2.1663 0.9660
4.3351 7.1366 -2.1620 0.9661
3.6749 7.4781 -2.1574 0.9662
2.2803 7.9747 -2.1475 0.9663
1.5577 8.1265 -2.1424 0.9664
0.0917 8.2334 -2.1319 0.9666
-0.6399 8.1885 -2.1266 0.9666
-1.3628 8.0791 -2.1214 0.9667
-2.0714 7.9064 -2.1162 0.9668
-2.7603 7.6723 -2.1112 0.9669
-3.4242 7.3791 -2.1063 0.9669
-4.0584 7.0293 -2.1016 0.9670
-4.6580 6.6260 -2.0971 0.9671
-5.2187 6.1727 -2.0929 0.9672
-5.7366 5.6731 -2.0889 0.9672
-6.2081 5.1311 -2.0853 0.9673
-6.9987 3.9374 -2.0792 0.9674
-7.7666 1.9426 -2.0729 0.9675
-7.9469 -0.8890 -2.0704 0.9675
-7.6687 -2.2855 -2.0719 0.9675
-7.1530 -3.6145 -2.0751 0.9674
-6.4137 -4.8368 -2.0799 0.9674
-5.4642 -5.9079 -2.0836 0.9673
-4.0400 -6.3285 -1.9440 0.9695
-2.8659 -6.9738 -1.9522 0.9693
-1.5913 -7.4054 -1.9612 0.9692
-0.2543 -7.6070 -1.9707 0.9690
0.4248 -7.6183 -1.9756 0.9690
1.1039 -7.5690 -1.9805 0.9689
3.7114 -6.7725 -1.9996 0.9686
4.3090 -6.4295 -2.0040 0.9685
4.8744 -6.0332 -2.0082 0.9685
6.3323 -5.4758 -2.1675 0.9660
7.2387 -4.2875 -2.1783 0.9658
7.6016 -3.6310 -2.1812 0.9658
8.4179 -0.7522 -2.1882 0.9657
7.7128 0.0000 -2.1834 0.9684
7.6824 0.6865 -2.1835 0.9684
7.5894 1.3673 -2.1831 0.9684
7.4347 2.0366 -2.1823 0.9685
6.9463 3.3180 -2.1793 0.9685
5.8027 5.0178 -2.1717 0.9686
5.3251 5.5061 -2.1685 0.9687
3.0463 6.9672 -2.1526 0.9689
1.7553 7.3655 -2.1435 0.9690
-0.2513 7.5168 -2.1291 0.9692
-0.9173 7.4477 -2.1243 0.9693
-2.2134 7.1352 -2.1149 0.9694
-3.9948 6.2577 -2.1017 0.9696
-4.5273 5.8662 -2.0977 0.9697
-5.4768 4.9535 -2.0905 0.9698
-5.8871 4.4397 -2.0874 0.9698
-6.2504 3.8928 -2.0845 0.9699
-6.5642 3.3171 -2.0821 0.9699
-7.1892 1.4613 -2.0768 0.9700
-7.2873 0.8152 -2.0759 0.9700
-7.3290 0.1633 -2.0753 0.9700
-7.2422 -1.1388 -2.0754 0.9700
-7.1143 -1.7794 -2.0761 0.9700
-6.9313 -2.4068 -2.0771 0.9700
-5.6777 -4.6927 -2.0852 0.9698
-4.7697 -5.6416 -2.0914 0.9698
-4.2460 -6.0400 -2.0901 0.9698
-2.9027 -6.2552 -1.9522 0.9717
-2.3392 -6.5019 -1.9561 0.9717
-1.7549 -6.6984 -1.9603 0.9716
-1.1543 -6.8428 -1.9645 0.9716
0.0776 -6.9702 -1.9733 0.9714
0.6993 -6.9514 -1.9778 0.9714
1.3182 -6.8771 -1.9823 0.9713
1.9294 -6.7476 -1.9868 0.9712
2.5279 -6.5635 -1.9911 0.9712
3.1087 -6.3260 -1.9954 0.9711
4.3980 -5.9691 -2.0990 0.9696
5.5584 -5.2571 -2.1659 0.9687
7.3282 -2.3630 -2.1797 0.9685
7.6408 -1.0276 -2.1825 0.9685
7.7045 -0.3435 -2.1833 0.9684
7.6437 1.0280 -2.1834 0.9684
7.5197 1.7038 -2.1827 0.9685
7.3346 2.3651 -2.1817 0.9685
6.7884 3.6224 -2.1782 0.9685
6.0246 4.7576 -2.1732 0.9686
5.5694 5.2675 -2.1701 0.9686
5.0705 5.7333 -2.1667 0.9687
4.5323 6.1513 -2.1630 0.9687
3.3571 6.8314 -2.1548 0.9689
2.0839 7.2880 -2.1459 0.9690
0.0839 7.5291 -2.1316 0.9692
-0.5853 7.4896 -2.1267 0.9693
-1.2467 7.3911 -2.1219 0.9693
-1.8954 7.2347 -2.1172 0.9694
-2.5263 7.0219 -2.1126 0.9695
-3.7157 6.4358 -2.1038 0.9696
-4.2655 6.0677 -2.0997 0.9696
-4.7798 5.6536 -2.0958 0.9697
-5.2550 5.1968 -2.0922 0.9697
-5.6876 4.7010 -2.0889 0.9698
-6.0747 4.1701 -2.0859 0.9698
-6.4136 3.6082 -2.0833 0.9699
-6.7019 3.0197 -2.0809 0.9699
-6.9376 2.4090 -2.0790 0.9699
-7.1191 1.7806 -2.0775 0.9700
-7.3152 0.4897 -2.0755 0.9700
-7.2851 -0.8149 -2.0752 0.9700
-7.1853 -1.4605 -2.0757 0.9700
-7.0297 -2.0951 -2.0766 0.9700
-6.5561 -3.3129 -2.0795 0.9699
-6.2413 -3.8871 -2.0815 0.9699
-5.8773 -4.4323 -2.0839 0.9699
-5.0123 -5.4192 -2.0897 0.9698
-4.5138 -5.8487 -2.0915 0.9698
-2.6238 -6.3847 -1.9541 0.9717
0.3885 -6.9677 -1.9756 0.9714
1.0094 -6.9212 -1.9801 0.9713
1.6251 -6.8192 -1.9845 0.9713
2.8208 -6.4514 -1.9933 0.9712
3.3910 -6.1877 -1.9975 0.9711
4.7782 -5.9141 -2.1524 0.9689
5.3102 -5.4907 -2.1624 0.9687
5.7918 -5.0084 -2.1676 0.9687
6.2241 -4.4799 -2.1710 0.9686
6.6072 -3.9135 -2.1739 0.9686
7.2124 -2.6859 -2.1788 0.9685
7.4291 -2.0350 -2.1806 0.9685
7.0841 0.0000 -2.1789 0.9708
6.3811 3.0480 -2.1751 0.9708
6.0790 3.6006 -2.1731 0.9709
5.3320 4.6108 -2.1682 0.9709
4.8938 5.0601 -2.1652 0.9710
3.9068 5.8293 -2.1584 0.9711
3.3665 6.1432 -2.1546 0.9711
2.8012 6.4066 -2.1507 0.9712
1.6146 6.7752 -2.1423 0.9713
1.0031 6.8780 -2.1379 0.9713
0.3862 6.9257 -2.1335 0.9714
-1.4482 6.7394 -2.1202 0.9716
-3.1585 6.0811 -2.1077 0.9717
-4.6285 5.0043 -2.0967 0.9719
-5.4266 4.0924 -2.0905 0.9720
-6.0520 3.0582 -2.0856 0.9720
-6.2943 2.5051 -2.0837 0.9720
-6.7589 0.1506 -2.0794 0.9721
-6.3917 -2.2194 -2.0811 0.9721
-6.1728 -2.7813 -2.0824 0.9721
-5.5919 -3.8386 -2.0862 0.9720
-5.2340 -4.3260 -2.0886 0.9720
-3.9219 -5.5789 -2.0975 0.9719
-2.8705 -6.1857 -2.0975 0.9719
-2.2350 -6.2124 -2.0307 0.9727
-1.6303 -6.2229 -1.9786 0.9734
-1.0628 -6.3009 -1.9654 0.9736
0.0715 -6.4159 -1.9735 0.9735
0.6436 -6.3974 -1.9776 0.9735
1.2130 -6.3279 -1.9818 0.9734
1.7750 -6.2076 -1.9859 0.9733
2.3679 -6.1481 -2.0264 0.9728
4.1538 -5.6376 -2.1539 0.9711
5.5266 -4.3643 -2.1660 0.9710
6.2285 -3.3236 -2.1714 0.9709
6.5063 -2.7589 -2.1737 0.9709
6.9029 -1.5640 -2.1770 0.9708
7.0773 0.3156 -2.1790 0.9708
7.0207 0.9442 -2.1788 0.9708
6.9069 1.5649 -2.1783 0.9708
6.5130 2.7618 -2.1759 0.9708
6.2363 3.3278 -2.1742 0.9709
5.5356 4.3715 -2.1695 0.9709
4.1660 5.6542 -2.1602 0.9710
2.5107 6.5188 -2.1486 0.9712
1.9168 6.7033 -2.1444 0.9712
1.3099 6.8335 -2.1401 0.9713
0.6950 6.9088 -2.1357 0.9714
0.0772 6.9288 -2.1313 0.9714
-0.5387 6.8937 -2.1268 0.9715
-1.7452 6.6614 -2.1181 0.9716
-3.9301 5.5906 -2.1019 0.9718
-4.4046 5.2098 -2.0983 0.9719
-5.2425 4.3331 -2.0920 0.9719
-5.6000 3.8442 -2.0892 0.9720
-5.9129 3.3266 -2.0867 0.9720
-6.5648 1.6420 -2.0814 0.9721
-6.6814 1.0506 -2.0803 0.9721
-6.4825 -1.9320 -2.0806 0.9721
-5.0393 -4.5577 -2.0899 0.9720
-4.6199 -4.9950 -2.0927 0.9719
-4.1632 -5.3944 -2.0959 0.9719
-3.6724 -5.7527 -2.0992 0.9718
-3.1437 -6.0527 -2.0978 0.9719
-0.7819 -6.3485 -1.9674 0.9736
0.3576 -6.4130 -1.9756 0.9735
1.4952 -6.2741 -1.9838 0.9734
2.0662 -6.1713 -2.0017 0.9731
4.4083 -5.4562 -2.1575 0.9711
4.8845 -5.0506 -2.1611 0.9710
5.7195 -4.1166 -2.1675 0.9709
6.6257 -2.4674 -2.1746 0.9708
6.8242 -1.8694 -2.1763 0.9708
7.0545 -0.6304 -2.1785 0.9708
6.5433 0.0000 -2.1750 0.9728
5.2925 3.8093 -2.1676 0.9729
4.9268 4.2604 -2.1651 0.9729
3.1122 5.6790 -2.1526 0.9731
2.0488 6.1195 -2.1451 0.9732
0.9279 6.3621 -2.1372 0.9733
0.3573 6.4072 -2.1331 0.9733
-0.2140 6.4012 -2.1290 0.9734
-0.7814 6.3445 -2.1249 0.9734
-3.4084 5.3392 -2.1056 0.9737
-3.8638 5.0065 -2.1022 0.9737
-4.2876 4.6357 -2.0990 0.9737
-5.3393 3.3253 -2.0909 0.9738
-5.8332 2.3216 -2.0869 0.9739
-6.0124 1.7919 -2.0854 0.9739
-6.1446 1.2490 -2.0843 0.9739
-6.2289 0.6968 -2.0834 0.9739
-6.2519 -0.4185 -2.0828 0.9739
-6.0810 -1.5210 -2.0836 0.9739
-5.9240 -2.0571 -2.0845 0.9739
-5.1819 -3.5571 -2.0893 0.9739
-4.8498 -4.0085 -2.0915 0.9738
-3.6328 -5.1678 -2.0998 0.9737
-2.6675 -5.7483 -2.1065 0.9736
-2.1453 -5.9631 -2.1065 0.9736
-1.6068 -6.1330 -2.1075 0.9736
-0.4851 -6.2076 -2.0697 0.9741
0.0692 -6.2085 -2.0639 0.9742
1.1858 -6.1865 -2.0939 0.9738
2.3104 -5.9988 -2.1368 0.9733
2.8443 -5.7881 -2.1437 0.9732
3.3579 -5.5278 -2.1499 0.9731
4.2988 -4.8607 -2.1570 0.9730
5.4524 -3.5668 -2.1658 0.9729
5.7545 -3.0707 -2.1681 0.9729
6.0107 -2.5487 -2.1702 0.9729
6.3764 -1.4447 -2.1733 0.9728
6.4826 -0.8718 -2.1743 0.9728
6.5363 -0.2915 -2.1749 0.9728
6.4847 0.8721 -2.1750 0.9728
6.2232 2.0068 -2.1735 0.9728
6.0164 2.5512 -2.1723 0.9728
5.7612 3.0742 -2.1706 0.9728
5.1147 4.0391 -2.1664 0.9729
4.7292 4.4729 -2.1638 0.9729
3.8505 5.2260 -2.1577 0.9730
3.3648 5.5393 -2.1544 0.9731
2.8537 5.8071 -2.1508 0.9731
1.7726 6.1990 -2.1432 0.9732
1.2115 6.3204 -2.1392 0.9732
0.6429 6.3910 -2.1351 0.9733
0.0714 6.4105 -2.1310 0.9733
-0.4985 6.3791 -2.1269 0.9734
-2.1538 5.9866 -2.1148 0.9735
-2.6732 5.7607 -2.1110 0.9736
-3.1698 5.4903 -2.1073 0.9736
-4.4866 4.4369 -2.0975 0.9738
-5.4792 3.0826 -2.0898 0.9738
-5.7264 2.5802 -2.0878 0.9739
-6.2644 -0.1396 -2.0828 0.9739
-6.0083 -1.7907 -2.0840 0.9739
-5.8282 -2.3195 -2.0851 0.9739
-5.6024 -2.8310 -2.0865 0.9739
-5.0208 -3.7864 -2.0903 0.9738
-4.6691 -4.2230 -2.0927 0.9738
-4.2801 -4.6276 -2.0953 0.9738
-3.4016 -5.3285 -2.1014 0.9737
-2.9185 -5.6191 -2.1047 0.9737
-2.4087 -5.8612 -2.1064 0.9736
-0.7643 -6.2056 -2.0784 0.9740
-0.2076 -6.2088 -2.0650 0.9742
0.9037 -6.1959 -2.0814 0.9740
1.4711 -6.1732 -2.1095 0.9736
2.0378 -6.0867 -2.1336 0.9733
3.1047 -5.6654 -2.1474 0.9731
3.6038 -5.3773 -2.1517 0.9731
4.0748 -5.0434 -2.1553 0.9730
5.6091 -3.3222 -2.1670 0.9729
5.8885 -2.8127 -2.1692 0.9729
6.1208 -2.2794 -2.1711 0.9728
6.3038 -1.7268 -2.1726 0.9728
6.0487 0.5405 -2.1717 0.9745
4.5740 3.9553 -2.1624 0.9746
4.1989 4.3416 -2.1599 0.9747
3.3535 5.0038 -2.1541 0.9747
2.8905 5.2745 -2.1509 0.9748
-0.1989 5.9499 -2.1289 0.9750
-1.2462 5.7996 -2.1213 0.9751
-2.2470 5.4677 -2.1140 0.9752
-3.9892 4.3131 -2.1010 0.9754
-4.6790 3.5286 -2.0957 0.9754
-5.2199 2.6377 -2.0915 0.9755
-5.4295 2.1609 -2.0898 0.9755
-5.5966 1.6680 -2.0884 0.9755
-5.7198 1.1626 -2.0873 0.9755
-5.7985 0.6487 -2.0865 0.9755
-5.8319 0.1300 -2.0861 0.9755
-5.8200 -0.3896 -2.0859 0.9755
-5.7628 -0.9061 -2.0861 0.9755
-5.5145 -1.9148 -2.0875 0.9755
-5.3252 -2.3994 -2.0887 0.9755
-5.0941 -2.8659 -2.0902 0.9755
-4.8229 -3.3107 -2.0919 0.9755
-4.5135 -3.7305 -2.0940 0.9754
-4.1682 -4.1220 -2.0963 0.9754
-3.3800 -4.8080 -2.1017 0.9753
-2.4813 -5.3470 -2.1080 0.9753
-1.9987 -5.5556 -2.1114 0.9752
-0.9847 -5.8376 -2.1171 0.9752
0.0661 -5.9360 -2.1229 0.9751
0.5953 -5.9178 -2.1269 0.9751
2.6453 -5.3829 -2.1449 0.9748
3.5691 -4.8441 -2.1517 0.9748
4.7416 -3.7444 -2.1606 0.9747
5.0618 -3.3113 -2.1631 0.9746
5.5793 -2.3658 -2.1672 0.9746
5.7719 -1.8612 -2.1687 0.9746
5.9181 -1.3409 -2.1700 0.9746
6.0669 0.2705 -2.1717 0.9745
6.0183 0.8094 -2.1716 0.9745
5.7760 1.8625 -2.1703 0.9745
5.5842 2.3679 -2.1691 0.9746
5.3476 2.8536 -2.1676 0.9746
5.0681 3.3154 -2.1657 0.9746
4.3908 4.1528 -2.1612 0.9747
3.1250 5.1444 -2.1525 0.9748
2.6506 5.3938 -2.1492 0.9748
2.1565 5.5992 -2.1457 0.9748
1.1257 5.8728 -2.1384 0.9749
0.5975 5.9392 -2.1346 0.9750
-2.4863 5.3577 -2.1122 0.9752
-2.9485 5.1069 -2.1088 0.9753
-3.3861 4.8167 -2.1055 0.9753
-4.1746 4.1284 -2.0996 0.9754
-4.5198 3.7357 -2.0969 0.9754
-5.0995 2.8690 -2.0924 0.9755
-5.3299 2.4016 -2.0906 0.9755
-5.7648 0.9065 -2.0868 0.9755
-5.8209 0.3897 -2.0862 0.9755
-5.7173 -1.1621 -2.0864 0.9755
-5.5931 -1.6669 -2.0871 0.9755
-5.4251 -2.1591 -2.0881 0.9755
-5.2147 -2.6351 -2.0894 0.9755
-4.6728 -3.5239 -2.0929 0.9754
-4.3452 -3.9300 -2.0951 0.9754
-3.5883 -4.6495 -2.1003 0.9754
-3.1647 -4.9574 -2.1032 0.9753
-0.7241 -5.8789 -2.1182 0.9752
-0.1982 -5.9282 -2.1212 0.9751
0.3308 -5.9325 -2.1248 0.9751
0.8593 -5.8917 -2.1292 0.9750
1.8993 -5.6729 -2.1394 0.9749
2.4008 -5.4908 -2.1430 0.9749
3.7842 -4.6838 -2.1533 0.9747
4.5672 -3.9494 -2.1592 0.9747
4.9066 -3.5315 -2.1619 0.9746
5.2070 -3.0841 -2.1642 0.9746
5.4661 -2.6109 -2.1662 0.9746
5.6813 -2.1157 -2.1680 0.9746
5.6591 -0.0000 -2.1687 0.9760
5.2989 1.9733 -2.1669 0.9761
5.0993 2.4357 -2.1656 0.9761
4.8588 2.8779 -2.1641 0.9761
4.5794 3.2961 -2.1622 0.9761
2.6954 4.9185 -2.1493 0.9763
0.8044 5.5153 -2.1359 0.9764
0.3098 5.5558 -2.1324 0.9764
-0.1856 5.5521 -2.1288 0.9765
-1.1632 5.4131 -2.1217 0.9766
-1.6377 5.2794 -2.1183 0.9766
-2.0977 5.1046 -2.1149 0.9766
-3.7258 4.0283 -2.1028 0.9768
-4.0645 3.6762 -2.1002 0.9768
-4.3707 3.2961 -2.0978 0.9768
-4.6420 2.8911 -2.0957 0.9768
-4.8766 2.4643 -2.0939 0.9769
-5.0727 2.0189 -2.0923 0.9769
-5.2290 1.5584 -2.0910 0.9769
-5.4180 0.6061 -2.0892 0.9769
-5.4493 0.1214 -2.0888 0.9769
-5.3847 -0.8467 -2.0889 0.9769
-5.2893 -1.3229 -2.0894 0.9769
-5.1525 -1.7891 -2.0902 0.9769
-4.9754 -2.2418 -2.0913 0.9769
-3.8935 -3.8503 -2.0984 0.9768
-2.7482 -4.7599 -2.1063 0.9767
-2.3169 -4.9928 -2.1093 0.9767
-1.3992 -5.3408 -2.1158 0.9766
0.0618 -5.5479 -2.1262 0.9765
0.5563 -5.5297 -2.1298 0.9765
1.0480 -5.4673 -2.1333 0.9764
1.5330 -5.3612 -2.1369 0.9764
2.0073 -5.2119 -2.1403 0.9764
2.4672 -5.0205 -2.1437 0.9763
2.9087 -4.7883 -2.1470 0.9763
4.4202 -3.4906 -2.1584 0.9762
5.2000 -2.2050 -2.1645 0.9761
5.3793 -1.7346 -2.1660 0.9761
5.5153 -1.2496 -2.1671 0.9761
5.6531 -0.2521 -2.1685 0.9761
5.6537 0.2521 -2.1687 0.9760
5.5179 1.2502 -2.1682 0.9761
4.7238 3.0902 -2.1632 0.9761
4.0930 3.8712 -2.1589 0.9762
3.7279 4.2153 -2.1565 0.9762
2.9139 4.7969 -2.1508 0.9762
2.4718 5.0300 -2.1477 0.9763
2.0113 5.2221 -2.1445 0.9763
0.5574 5.5411 -2.1342 0.9764
0.0619 5.5595 -2.1306 0.9765
-1.8698 5.1971 -2.1166 0.9766
-2.3212 5.0022 -2.1133 0.9767
-3.5449 4.1930 -2.1041 0.9768
-4.2218 3.4895 -2.0990 0.9768
-4.5109 3.0965 -2.0967 0.9768
-5.3422 -1.0858 -2.0891 0.9769
-4.8721 -2.4620 -2.0919 0.9769
-4.6370 -2.8880 -2.0935 0.9769
-4.3653 -3.2920 -2.0952 0.9769
-3.3514 -4.3426 -2.1021 0.9768
-2.0937 -5.0948 -2.1109 0.9767
-1.6345 -5.2690 -2.1141 0.9766
-1.1609 -5.4021 -2.1175 0.9766
-0.6765 -5.4930 -2.1209 0.9766
0.3091 -5.5443 -2.1280 0.9765
0.8027 -5.5040 -2.1315 0.9765
1.2916 -5.4197 -2.1351 0.9764
1.7717 -5.2919 -2.1386 0.9764
2.6904 -4.9094 -2.1454 0.9763
3.5285 -4.3673 -2.1516 0.9762
3.9084 -4.0412 -2.1545 0.9762
4.5738 -3.2920 -2.1596 0.9761
5.4528 -1.4937 -2.1666 0.9761
5.5667 -1.0029 -2.1676 0.9761
5.6357 -0.5036 -2.1683 0.9761
5.1024 1.3977 -2.1652 0.9774
4.7692 2.2781 -2.1632 0.9774
4.2835 3.0831 -2.1600 0.9774
3.6619 3.7863 -2.1558 0.9775
3.3066 4.0926 -2.1534 0.9775
2.0996 4.8020 -2.1450 0.9776
1.2114 5.0832 -2.1387 0.9777
-0.6348 5.1543 -2.1254 0.9778
-1.5339 4.9448 -2.1189 0.9779
-2.7737 4.3450 -2.1097 0.9780
-3.8089 3.4450 -2.1019 0.9780
-4.0961 3.0890 -2.0997 0.9781
-4.3507 2.7097 -2.0977 0.9781
-4.5708 2.3097 -2.0960 0.9781
-4.9016 1.4608 -2.0933 0.9781
-2.1365 0.4343 -0.8923 0.9906
-2.1261 0.2378 -0.8756 0.9908
-2.1302 -0.1426 -0.8738 0.9908
-2.1345 -0.3356 -0.8843 0.9907
-2.1308 -0.5329 -0.8989 0.9906
-4.4610 -2.5097 -2.0949 0.9781
-4.2230 -2.8989 -2.0964 0.9781
-3.9517 -3.2661 -2.0982 0.9781
-3.6488 -3.6084 -2.1003 0.9781
-3.3167 -3.9230 -2.1025 0.9780
-2.9579 -4.2076 -2.1050 0.9780
-2.5749 -4.4598 -2.1077 0.9780
-2.1706 -4.6775 -2.1105 0.9780
-1.7481 -4.8590 -2.1135 0.9779
-1.3106 -5.0026 -2.1165 0.9779
0.0579 -5.1950 -2.1263 0.9778
0.5208 -5.1773 -2.1296 0.9778
0.9811 -5.1184 -2.1330 0.9777
2.7219 -4.4809 -2.1458 0.9776
3.1142 -4.2266 -2.1487 0.9776
3.8237 -3.6164 -2.1540 0.9775
4.1350 -3.2653 -2.1564 0.9775
4.8636 -2.0624 -2.1621 0.9774
5.1581 -1.1687 -2.1646 0.9774
5.2873 0.2358 -2.1661 0.9774
5.2450 0.7054 -2.1660 0.9774
5.1604 1.1692 -2.1656 0.9774
4.1400 3.2694 -2.1590 0.9775
3.8289 3.6214 -2.1569 0.9775
3.4876 3.9435 -2.1546 0.9775
3.1191 4.2333 -2.1521 0.9775
2.3131 4.7069 -2.1465 0.9776
1.8823 4.8873 -2.1434 0.9776
0.5219 5.1874 -2.1338 0.9777
0.0580 5.2051 -2.1305 0.9778
-0.4049 5.1815 -2.1271 0.9778
-1.7513 4.8679 -2.1173 0.9779
-2.1744 4.6858 -2.1142 0.9779
-2.5792 4.4673 -2.1112 0.9780
-2.9625 4.2143 -2.1083 0.9780
-3.3216 3.9288 -2.1056 0.9780
-3.6538 3.6133 -2.1031 0.9780
-4.6674 2.1031 -2.0952 0.9781
-2.1345 0.3356 -0.8843 0.9907
-2.1302 0.1426 -0.8738 0.9908
-2.1261 -0.2378 -0.8756 0.9908
-2.1365 -0.4343 -0.8923 0.9906
-4.8989 -1.4600 -2.0921 0.9781
-4.7515 -1.8910 -2.0930 0.9781
-4.5669 -2.3077 -2.0942 0.9781
-4.0914 -3.0855 -2.0973 0.9781
-3.4863 -3.7693 -2.1014 0.9781
-2.7692 -4.3379 -2.1063 0.9780
-2.3752 -4.5731 -2.1091 0.9780
-1.9615 -4.7729 -2.1120 0.9779
-1.5310 -4.9356 -2.1150 0.9779
-0.6336 -5.1443 -2.1214 0.9778
-0.1735 -5.1884 -2.1246 0.9778
0.7515 -5.1530 -2.1313 0.9777
1.6584 -4.9534 -2.1379 0.9777
2.0959 -4.7933 -2.1411 0.9776
2.9208 -4.3582 -2.1472 0.9776
3.6567 -3.7810 -2.1528 0.9775
4.7652 -2.2761 -2.1613 0.9774
5.0998 -1.3970 -2.1641 0.9774
5.2705 -0.4710 -2.1657 0.9774
4.9647 -0.0000 -2.1637 0.9786
4.9450 0.4419 -2.1637 0.9786
4.8855 0.8802 -2.1635 0.9786
4.4743 2.1372 -2.1610 0.9786
4.2636 2.5254 -2.1596 0.9786
4.0189 2.8927 -2.1580 0.9786
3.7423 3.2361 -2.1562 0.9786
3.4361 3.5529 -2.1541 0.9787
2.3672 4.3196 -2.1467 0.9787
0.2723 4.8841 -2.1319 0.9789
-0.1632 4.8817 -2.1287 0.9789
-2.2354 4.3039 -2.1136 0.9791
-2.6062 4.0825 -2.1108 0.9791
-2.9555 3.8296 -2.1082 0.9791
-4.2964 2.1711 -2.0979 0.9792
-1.8741 0.5585 -0.8523 0.9915
-1.9300 0.3923 -0.8583 0.9914
-1.9479 -0.1304 -0.8508 0.9915
-1.9397 -0.3050 -0.8557 0.9915
-1.9080 -0.4772 -0.8571 0.9915
-1.8290 -0.6351 -0.8438 0.9916
-4.1933 -2.3591 -2.0969 0.9792
-3.9694 -2.7249 -2.0983 0.9792
-3.1170 -3.6868 -2.1041 0.9792
-2.0394 -4.3949 -2.1115 0.9791
-1.6423 -4.5650 -2.1143 0.9791
-1.2312 -4.6994 -2.1172 0.9790
-0.8092 -4.7972 -2.1202 0.9790
-0.3795 -4.8572 -2.1233 0.9790
0.4891 -4.8618 -2.1295 0.9789
1.3473 -4.7118 -2.1358 0.9788
1.7638 -4.5797 -2.1388 0.9788
2.9228 -3.9668 -2.1474 0.9787
3.2682 -3.6954 -2.1500 0.9787
3.5882 -3.3937 -2.1524 0.9787
4.1412 -2.7090 -2.1567 0.9786
4.5630 -1.9349 -2.1600 0.9786
4.7199 -1.5220 -2.1613 0.9786
4.9190 -0.6615 -2.1631 0.9786
4.9202 0.6617 -2.1636 0.9786
4.5663 1.9363 -2.1616 0.9786
4.3733 2.3337 -2.1604 0.9786
4.1454 2.7118 -2.1589 0.9786
3.8845 3.0675 -2.1571 0.9786
3.5927 3.3980 -2.1552 0.9787
3.2727 3.7005 -2.1530 0.9787
2.5589 4.2125 -2.1480 0.9787
1.7669 4.5876 -2.1425 0.9788
0.9229 4.8147 -2.1365 0.9788
-0.3802 4.8660 -2.1272 0.9789
-1.2334 4.7078 -2.1210 0.9790
-1.6452 4.5728 -2.1179 0.9790
-2.7837 3.9598 -2.1095 0.9791
-3.4337 3.3956 -2.1046 0.9791
-3.7184 3.0734 -2.1024 0.9792
-4.1970 2.3612 -2.0987 0.9792
-4.3873 1.9768 -2.0972 0.9792
-1.9397 0.3050 -0.8557 0.9915
-1.9300 -0.3923 -0.8583 0.9914
-1.8741 -0.5585 -0.8523 0.9915
-3.8456 -2.9001 -2.0991 0.9792
-3.5753 -3.2337 -2.1010 0.9792
-2.9513 -3.8241 -2.1052 0.9791
-1.0214 -4.7530 -2.1187 0.9790
0.7057 -4.8387 -2.1311 0.9789
1.1352 -4.7637 -2.1342 0.9789
1.5570 -4.6504 -2.1373 0.9788
1.9675 -4.4997 -2.1403 0.9788
2.3634 -4.3126 -2.1432 0.9788
2.7414 -4.0905 -2.1461 0.9787
3.4315 -3.5482 -2.1512 0.9787
3.7378 -3.2322 -2.1536 0.9787
4.0146 -2.8895 -2.1557 0.9786
4.2596 -2.5229 -2.1576 0.9786
4.4707 -2.1355 -2.1593 0.9786
4.9442 -0.4418 -2.1634 0.9786
4.6698 0.0000 -2.1616 0.9796
4.5953 0.8279 -2.1614 0.9796
4.5023 1.2333 -2.1608 0.9796
3.2328 3.3427 -2.1525 0.9797
2.9196 3.6136 -2.1504 0.9797
2.5836 3.8550 -2.1481 0.9798
1.4680 4.3846 -2.1403 0.9798
1.0705 4.4919 -2.1374 0.9799
0.6655 4.5632 -2.1346 0.9799
-0.9635 4.4837 -2.1228 0.9800
-1.7385 4.2305 -2.1171 0.9800
-3.3726 3.0503 -2.1049 0.9802
-4.0485 2.0458 -2.0997 0.9802
-1.5257 0.6072 -0.7601 0.9928
-1.5924 0.4746 -0.7692 0.9927
-1.6716 0.0372 -0.7739 0.9927
-1.6521 -0.2598 -0.7741 0.9927
-1.6165 -0.4043 -0.7713 0.9927
-3.9514 -2.2230 -2.0986 0.9802
-3.4996 -2.8925 -2.1016 0.9802
-3.2311 -3.1953 -2.1034 0.9802
-2.9367 -3.4735 -2.1055 0.9802
-2.2792 -3.9476 -2.1100 0.9801
-1.9210 -4.1397 -2.1125 0.9801
-1.5469 -4.2996 -2.1151 0.9801
-1.1596 -4.4260 -2.1179 0.9800
-0.7620 -4.5176 -2.1207 0.9800
-0.3574 -4.5737 -2.1236 0.9800
0.8673 -4.5244 -2.1324 0.9799
1.2682 -4.4353 -2.1353 0.9799
2.0399 -4.1512 -2.1410 0.9798
2.7504 -3.7329 -2.1463 0.9798
3.0752 -3.4772 -2.1487 0.9797
3.3761 -3.1931 -2.1510 0.9797
3.8960 -2.5486 -2.1550 0.9797
4.1106 -2.1935 -2.1567 0.9797
4.2924 -1.8201 -2.1581 0.9797
4.6649 -0.2080 -2.1614 0.9796
4.6652 0.2080 -2.1616 0.9796
4.6280 0.6224 -2.1615 0.9796
4.5534 1.0317 -2.1611 0.9796
4.4422 1.4324 -2.1605 0.9796
4.2953 1.8214 -2.1596 0.9796
4.1139 2.1953 -2.1584 0.9797
3.8997 2.5511 -2.1570 0.9797
3.6544 2.8858 -2.1554 0.9797
3.3801 3.1969 -2.1536 0.9797
2.4079 3.9640 -2.1469 0.9798
2.0431 4.1576 -2.1443 0.9798
1.6629 4.3176 -2.1416 0.9798
1.2703 4.4427 -2.1389 0.9798
0.8687 4.5321 -2.1360 0.9799
0.4613 4.5851 -2.1331 0.9799
0.0513 4.6017 -2.1302 0.9799
-0.7633 4.5253 -2.1243 0.9800
-1.1615 4.4333 -2.1214 0.9800
-2.2825 3.9535 -2.1131 0.9801
-2.6222 3.7302 -2.1106 0.9801
-2.9405 3.4780 -2.1082 0.9801
-3.7439 2.5701 -2.1020 0.9802
-3.9547 2.2249 -2.1004 0.9802
-1.6738 0.1120 -0.7765 0.9926
-1.6716 -0.0372 -0.7739 0.9927
-1.6675 -0.1865 -0.7767 0.9926
-1.6373 -0.3328 -0.7734 0.9927
-1.5924 -0.4746 -0.7692 0.9927
-4.0454 -2.0442 -2.0980 0.9802
-3.8497 -2.3976 -2.0993 0.9802
-3.6236 -2.7327 -2.1008 0.9802
-2.1023 -4.0476 -2.1112 0.9801
-1.7358 -4.2238 -2.1138 0.9801
-1.3547 -4.3671 -2.1165 0.9800
-0.5604 -4.5501 -2.1221 0.9800
-0.1534 -4.5883 -2.1250 0.9800
0.6644 -4.5554 -2.1309 0.9799
1.4655 -4.3774 -2.1368 0.9799
1.8518 -4.2352 -2.1396 0.9798
2.2243 -4.0587 -2.1423 0.9798
2.9156 -3.6087 -2.1475 0.9798
3.5167 -3.0410 -2.1521 0.9797
3.7769 -2.7185 -2.1541 0.9797
4.3705 -1.6276 -2.1588 0.9797
4.5003 -1.2327 -2.1598 0.9796
4.5939 -0.8276 -2.1607 0.9796
4.4027 0.0000 -2.1596 0.9806
4.3326 0.7806 -2.1594 0.9806
4.2450 1.1628 -2.1590 0.9806
3.5651 2.5660 -2.1546 0.9806
3.3200 2.8709 -2.1530 0.9806
2.4367 3.6358 -2.1469 0.9807
2.1011 3.8341 -2.1446 0.9807
1.3848 4.1362 -2.1396 0.9808
1.0099 4.2377 -2.1369 0.9808
-0.1450 4.3371 -2.1286 0.9809
-0.9093 4.2317 -2.1231 0.9809
-1.2807 4.1286 -2.1204 0.9809
-2.6286 3.4060 -2.1104 0.9810
-2.9183 3.1552 -2.1082 0.9810
-3.1845 2.8802 -2.1062 0.9811
-3.6386 2.2662 -2.1027 0.9811
-3.8232 1.9320 -2.1012 0.9811
-1.3200 0.3934 -0.6756 0.9939
-1.3419 0.1501 -0.6624 0.9940
-1.3536 0.0302 -0.6641 0.9940
-1.3257 -0.2084 -0.6583 0.9940
-1.3149 -0.3289 -0.6649 0.9940
-1.3171 -0.4573 -0.6839 0.9938
-1.2865 -0.5797 -0.6922 0.9937
-3.0510 -3.0172 -2.1048 0.9811
-2.7729 -3.2797 -2.1067 0.9810
-2.1518 -3.7270 -2.1110 0.9810
-1.4602 -4.0587 -2.1158 0.9810
-1.0945 -4.1777 -2.1184 0.9809
2.2679 -3.7335 -2.1428 0.9807
2.5942 -3.5208 -2.1452 0.9807
2.9004 -3.2795 -2.1475 0.9807
3.4425 -2.7185 -2.1516 0.9806
3.6738 -2.4033 -2.1534 0.9806
3.8760 -2.0683 -2.1550 0.9806
4.1862 -1.3499 -2.1575 0.9806
4.2915 -0.9723 -2.1584 0.9806
4.3981 -0.1961 -2.1595 0.9806
4.3984 0.1961 -2.1597 0.9806
4.2931 0.9727 -2.1592 0.9806
4.1883 1.3506 -2.1586 0.9806
3.8790 2.0699 -2.1567 0.9806
3.4460 2.7213 -2.1538 0.9806
3.1875 3.0147 -2.1521 0.9806
2.9039 3.2835 -2.1502 0.9807
2.2711 3.7387 -2.1458 0.9807
1.1984 4.1912 -2.1383 0.9808
0.4352 4.3262 -2.1328 0.9808
-0.7204 4.2707 -2.1245 0.9809
-1.0962 4.1843 -2.1217 0.9809
-1.4624 4.0649 -2.1191 0.9809
-1.8162 3.9138 -2.1165 0.9810
-2.7763 3.2838 -2.1093 0.9810
-3.0545 3.0206 -2.1072 0.9810
-3.3081 2.7343 -2.1053 0.9811
-3.5354 2.4269 -2.1035 0.9811
-3.7346 2.1011 -2.1019 0.9811
-1.3171 0.4573 -0.6839 0.9938
-1.3047 -0.2652 -0.6531 0.9941
-3.6355 -2.2642 -2.1009 0.9811
-3.4219 -2.5805 -2.1023 0.9811
-0.9079 -4.2249 -2.1197 0.9809
-0.1448 -4.3301 -2.1252 0.9809
1.0083 -4.2310 -2.1335 0.9808
2.0981 -3.8286 -2.1415 0.9807
2.4334 -3.6309 -2.1440 0.9807
4.1209 -1.5346 -2.1570 0.9806
4.3313 -0.7803 -2.1588 0.9806
4.1431 0.3702 -2.1579 0.9814
4.0933 0.7374 -2.1577 0.9814
3.8956 1.4508 -2.1566 0.9814
3.7495 1.7910 -2.1556 0.9814
3.3686 2.4246 -2.1532 0.9815
3.1372 2.7128 -2.1516 0.9815
1.9858 3.6237 -2.1437 0.9816
-0.1371 4.1008 -2.1286 0.9817
-0.5009 4.0673 -2.1260 0.9817
-0.8599 4.0017 -2.1234 0.9817
-1.2112 3.9045 -2.1208 0.9817
-1.8799 3.6195 -2.1159 0.9818
-2.1922 3.4340 -2.1136 0.9818
-2.7607 2.9849 -2.1093 0.9818
-3.2406 2.4439 -2.1056 0.9819
-3.4427 2.1441 -2.1040 0.9819
-1.0665 0.5390 -0.6199 0.9946
-1.1266 0.3358 -0.6099 0.9947
-1.1332 0.2304 -0.5999 0.9948
-1.1785 0.0262 -0.6115 0.9947
-1.0898 -0.4910 -0.6201 0.9946
-3.1268 -2.5843 -2.1044 0.9819
-2.8865 -2.8546 -2.1061 0.9819
-1.7154 -3.6966 -2.1142 0.9818
-1.3811 -3.8389 -2.1165 0.9818
-0.6802 -4.0324 -2.1215 0.9817
0.0457 -4.0991 -2.1267 0.9817
0.4108 -4.0838 -2.1293 0.9817
0.7736 -4.0360 -2.1319 0.9817
1.1312 -3.9560 -2.1345 0.9816
2.4518 -3.3276 -2.1443 0.9815
2.7410 -3.0993 -2.1464 0.9815
3.2530 -2.5689 -2.1503 0.9815
3.4715 -2.2709 -2.1520 0.9815
3.8241 -1.6215 -2.1548 0.9815
3.9552 -1.2754 -2.1559 0.9814
4.0546 -0.9186 -2.1568 0.9814
4.1552 -0.1853 -2.1578 0.9814
4.1223 0.5544 -2.1578 0.9814
3.8264 1.6225 -2.1561 0.9814
3.4744 2.2728 -2.1539 0.9815
3.2561 2.5713 -2.1524 0.9815
3.0120 2.8488 -2.1508 0.9815
2.1464 3.5335 -2.1448 0.9815
1.8215 3.7066 -2.1425 0.9816
1.4827 3.8497 -2.1402 0.9816
1.1329 3.9618 -2.1377 0.9816
0.7748 4.0421 -2.1351 0.9816
-0.6812 4.0385 -2.1247 0.9817
-2.8896 2.8576 -2.1083 0.9819
-3.1298 2.5868 -2.1065 0.9819
-3.5336 1.9880 -2.1033 0.9819
-1.0898 0.4910 -0.6201 0.9946
-1.1275 0.2820 -0.6029 0.9948
-1.1785 -0.0263 -0.6115 0.9947
-1.1332 -0.2303 -0.5999 0.9948
-1.1266 -0.3358 -0.6099 0.9947
-1.1070 -0.4406 -0.6181 0.9946
-2.7577 -2.9816 -2.1069 0.9819
-2.4836 -3.2180 -2.1088 0.9818
-1.8774 -3.6146 -2.1130 0.9818
-1.2094 -3.8988 -2.1177 0.9818
-0.8586 -3.9957 -2.1202 0.9818
-0.5002 -4.0611 -2.1227 0.9817
-0.1369 -4.0945 -2.1253 0.9817
0.2284 -4.0955 -2.1280 0.9817
0.9532 -4.0000 -2.1332 0.9816
1.3071 -3.9040 -2.1358 0.9816
1.6513 -3.7766 -2.1383 0.9816
1.9832 -3.6188 -2.1408 0.9816
2.2999 -3.4317 -2.1431 0.9816
3.3656 -2.4224 -2.1512 0.9815
3.5705 -2.1148 -2.1528 0.9815
3.8935 -1.4500 -2.1554 0.9815
4.0089 -1.0982 -2.1564 0.9814
4.0922 -0.7372 -2.1571 0.9814
2.0429 0.0000 -1.1189 0.9907
2.0356 0.1819 -1.1193 0.9907
2.0036 0.3610 -1.1150 0.9908
2.0004 0.5480 -1.1360 0.9906
3.5490 1.6952 -2.1542 0.9822
3.1887 2.2951 -2.1518 0.9822
2.9698 2.5681 -2.1503 0.9823
2.7273 2.8200 -2.1487 0.9823
0.9041 3.7936 -2.1360 0.9824
0.5622 3.8547 -2.1335 0.9824
0.2166 3.8849 -2.1311 0.9824
-1.7812 3.4294 -2.1165 0.9825
-2.0772 3.2538 -2.1143 0.9825
-2.3562 3.0530 -2.1122 0.9826
-2.6162 2.8286 -2.1103 0.9826
-2.8551 2.5823 -2.1084 0.9826
-0.9638 0.3836 -0.5681 0.9953
-0.9825 0.2928 -0.5615 0.9953
-1.0000 0.2033 -0.5589 0.9954
-1.0376 -0.0694 -0.5696 0.9953
-1.0166 -0.1598 -0.5637 0.9953
-0.9756 -0.3388 -0.5656 0.9953
-3.1676 -2.1744 -2.1043 0.9826
-2.9634 -2.4493 -2.1057 0.9826
-2.4860 -2.9404 -2.1089 0.9826
-2.2163 -3.1527 -2.1108 0.9826
-1.9287 -3.3407 -2.1128 0.9826
-1.6254 -3.5026 -2.1149 0.9825
-1.3086 -3.6372 -2.1171 0.9825
-0.3021 -3.8667 -2.1242 0.9825
0.0433 -3.8827 -2.1267 0.9824
0.7327 -3.8225 -2.1317 0.9824
1.4021 -3.6403 -2.1366 0.9824
2.0297 -3.3413 -2.1412 0.9823
2.3214 -3.1506 -2.1434 0.9823
2.5951 -2.9343 -2.1455 0.9823
2.8485 -2.6941 -2.1474 0.9823
3.4667 -1.8499 -2.1522 0.9822
2.0041 -0.4541 -1.1255 0.9907
2.0226 -0.2720 -1.1178 0.9907
2.0226 0.2720 -1.1178 0.9907
2.0041 0.4541 -1.1255 0.9907
1.9895 0.6415 -1.1449 0.9905
1.9407 0.8229 -1.1546 0.9904
3.4691 1.8512 -2.1537 0.9822
3.0823 2.4341 -2.1511 0.9822
2.8514 2.6968 -2.1495 0.9823
2.5979 2.9375 -2.1478 0.9823
2.3241 3.1543 -2.1459 0.9823
2.0322 3.3455 -2.1439 0.9823
1.7247 3.5096 -2.1418 0.9823
1.4040 3.6453 -2.1395 0.9823
1.0728 3.7517 -2.1372 0.9824
0.3897 3.8736 -2.1323 0.9824
-1.6275 3.5072 -2.1176 0.9825
-1.9312 3.3449 -2.1154 0.9825
-2.4887 2.9437 -2.1112 0.9826
-2.9661 2.4515 -2.1076 0.9826
-3.1701 2.1762 -2.1060 0.9826
-0.9240 0.5198 -0.5806 0.9952
-0.9472 0.4268 -0.5690 0.9953
-0.9847 0.2463 -0.5559 0.9954
-3.0685 -2.3141 -2.1050 0.9826
-2.8523 -2.5798 -2.1064 0.9826
-2.6134 -2.8256 -2.1080 0.9826
-1.1459 -3.6939 -2.1182 0.9825
-0.4738 -3.8471 -2.1230 0.9825
0.2163 -3.8792 -2.1280 0.9824
0.5614 -3.8491 -2.1305 0.9824
0.9028 -3.7883 -2.1329 0.9824
1.2378 -3.6971 -2.1354 0.9824
1.8778 -3.4266 -2.1401 0.9823
2.4606 -3.0455 -2.1445 0.9823
3.1860 -2.2931 -2.1500 0.9823
3.5468 -1.6941 -2.1528 0.9822
1.9714 -0.7342 -1.1522 0.9905
2.0356 -0.1819 -1.1193 0.9907
1.8754 0.0000 -1.0828 0.9914
1.8700 0.1671 -1.0839 0.9914
1.8426 0.3320 -1.0810 0.9914
1.7869 0.6655 -1.1009 0.9912
1.7194 0.8213 -1.1001 0.9912
3.2067 1.8993 -2.1518 0.9829
2.3359 2.8911 -2.1459 0.9830
2.0675 3.0849 -2.1441 0.9830
1.1756 3.5113 -2.1378 0.9830
0.8575 3.5982 -2.1356 0.9831
0.5332 3.6562 -2.1333 0.9831
0.2055 3.6851 -2.1309 0.9831
-0.4502 3.6551 -2.1262 0.9831
-0.7728 3.5965 -2.1238 0.9832
-2.4829 2.6845 -2.1112 0.9833
-2.7097 2.4508 -2.1094 0.9833
-0.8760 0.4427 -0.5667 0.9955
-0.8932 0.3555 -0.5550 0.9956
-0.9012 0.2686 -0.5429 0.9957
-0.9237 0.1033 -0.5366 0.9957
-0.9306 0.0207 -0.5374 0.9957
-0.8984 -0.3119 -0.5490 0.9956
-0.8858 -0.3991 -0.5609 0.9955
-0.8638 -0.4859 -0.5722 0.9954
-2.8127 -2.3248 -2.1068 0.9833
-1.8304 -3.1703 -2.1135 0.9832
-1.5424 -3.3238 -2.1155 0.9832
0.0410 -3.6835 -2.1268 0.9831
0.6950 -3.6259 -2.1315 0.9831
1.9248 -3.1687 -2.1405 0.9830
2.2014 -2.9877 -2.1426 0.9830
2.7009 -2.5545 -2.1464 0.9830
3.1157 -2.0382 -2.1496 0.9830
1.7564 -0.7448 -1.1014 0.9912
1.8108 -0.5839 -1.0985 0.9913
1.8316 -0.4150 -1.0843 0.9914
1.8592 -0.2500 -1.0831 0.9914
1.8755 0.0836 -1.0839 0.9914
1.8316 0.4150 -1.0843 0.9914
1.7564 0.7448 -1.1014 0.9912
1.6861 0.8997 -1.1034 0.9912
3.1181 2.0398 -2.1512 0.9829
2.9224 2.3078 -2.1499 0.9829
2.7035 2.5570 -2.1484 0.9830
2.2038 2.9910 -2.1450 0.9830
1.9271 3.1725 -2.1431 0.9830
1.6356 3.3283 -2.1411 0.9830
1.3315 3.4572 -2.1389 0.9830
1.0175 3.5583 -2.1367 0.9831
0.6960 3.6308 -2.1344 0.9831
0.3696 3.6744 -2.1321 0.9831
0.0411 3.6886 -2.1297 0.9831
-1.2433 3.4558 -2.1204 0.9832
-1.5443 3.3279 -2.1182 0.9832
-2.5989 2.5701 -2.1103 0.9833
-2.8152 2.3268 -2.1086 0.9833
-3.0089 2.0655 -2.1071 0.9833
-0.8638 0.4860 -0.5722 0.9954
-0.8858 0.3991 -0.5609 0.9955
-0.8983 0.3119 -0.5490 0.9956
-0.9030 0.2259 -0.5374 0.9957
-0.9189 0.1445 -0.5370 0.9957
-0.9273 0.0621 -0.5366 0.9957
-0.9306 -0.0207 -0.5374 0.9957
-0.9012 -0.2686 -0.5429 0.9957
-0.8932 -0.3555 -0.5550 0.9956
-0.8760 -0.4426 -0.5667 0.9955
-2.9126 -2.1965 -2.1061 0.9833
-2.7073 -2.4486 -2.1075 0.9833
-2.2336 -2.8942 -2.1107 0.9833
-1.9689 -3.0842 -2.1126 0.9832
-1.0873 -3.5050 -2.1187 0.9832
-0.4495 -3.6500 -2.1233 0.9832
-0.1230 -3.6796 -2.1256 0.9831
0.8563 -3.5933 -2.1327 0.9831
1.4830 -3.3918 -2.1373 0.9830
2.0651 -3.0813 -2.1416 0.9830
2.3333 -2.8880 -2.1436 0.9830
2.8132 -2.4326 -2.1472 0.9830
3.2044 -1.8980 -2.1503 0.9829
1.7194 -0.8213 -1.1001 0.9912
1.8267 -0.5004 -1.0935 0.9913
