ply
format ascii 1.0
element vertex 1309
property float32 x
property float32 y
property float32 z
property float32 I
end_header
-18.0723 -6.2754 -1.8367 0.9260
-17.4744 -7.8736 -1.8401 0.9259
-15.9955 10.9803 -1.8626 0.9250
-17.2738 9.7181 -1.9028 0.9234
-17.7900 -7.0803 -1.8382 0.9259
19.0076 1.6985 -2.2668 0.9260
18.3850 5.0362 -2.2643 0.9261
16.3115 9.6613 -2.2519 0.9265
15.3441 11.0440 -2.2457 0.9267
14.2542 12.3261 -2.2385 0.9269
12.7842 13.2188 -2.1844 0.9286
10.9103 13.5038 -2.0622 0.9325
-11.8203 10.6908 -1.8932 0.9378
-12.8904 9.7211 -1.9178 0.9370
-15.7524 6.2693 -2.0139 0.9340
-16.8511 0.3755 -2.0022 0.9344
-16.8122 -1.1254 -2.0015 0.9344
-16.3585 -4.0915 -2.0030 0.9343
17.2240 -3.9025 -2.0978 0.9313
17.5298 -2.3575 -2.1010 0.9312
19.0540 -0.8496 -2.2656 0.9260
19.0634 0.8501 -2.2667 0.9260
18.9116 2.5434 -2.2667 0.9260
18.5998 4.2142 -2.2654 0.9261
17.5113 7.4254 -2.2594 0.9262
16.7460 8.9360 -2.2547 0.9264
-14.0348 9.6343 -2.0221 0.9337
-15.4764 6.9733 -2.0164 0.9339
-15.9981 5.5552 -2.0117 0.9341
-16.8233 1.1262 -2.0028 0.9343
-16.5186 -3.3575 -2.0023 0.9344
-15.5787 -6.2002 -1.9917 0.9347
-14.0202 -7.0847 -1.8660 0.9387
-13.3631 -8.3226 -1.8700 0.9386
17.0169 -4.6614 -2.0958 0.9314
15.2526 4.1781 -2.2407 0.9381
14.8038 5.5130 -2.2383 0.9382
13.5450 8.0227 -2.2306 0.9384
12.7477 9.1752 -2.2254 0.9385
11.8487 10.2459 -2.2195 0.9387
9.3006 11.5115 -2.0969 0.9420
8.0153 11.9597 -2.0399 0.9435
6.8923 12.5768 -2.0320 0.9437
-8.2760 10.7236 -1.9193 0.9467
-9.1639 9.9079 -1.9122 0.9469
-10.7084 9.6852 -2.0458 0.9433
-11.5318 8.6965 -2.0465 0.9433
-12.2255 7.6141 -2.0407 0.9435
-13.3196 5.3011 -2.0312 0.9437
-14.1859 1.5869 -2.0225 0.9440
-14.2614 0.3178 -2.0212 0.9440
-14.2292 -0.9525 -2.0206 0.9440
-13.0263 -5.8694 -2.0244 0.9439
13.4430 -5.7003 -2.0689 0.9427
13.9259 -4.4905 -2.0732 0.9426
14.9400 -3.3850 -2.1705 0.9400
15.8061 -0.7048 -2.2418 0.9381
15.8127 0.7051 -2.2427 0.9381
15.6867 2.1097 -2.2427 0.9381
15.4296 3.4959 -2.2416 0.9381
15.0438 4.8510 -2.2396 0.9381
13.9030 7.4189 -2.2328 0.9383
13.1596 8.6086 -2.2281 0.9384
11.3638 10.7478 -2.2162 0.9388
8.5559 11.6121 -2.0437 0.9434
-7.8051 11.1029 -1.9230 0.9466
-8.7292 10.3249 -1.9157 0.9468
-9.8265 9.7176 -1.9582 0.9457
-12.5363 7.0528 -2.0381 0.9435
-13.8717 3.4695 -2.0260 0.9439
-14.2371 0.9530 -2.0218 0.9440
-14.1728 -1.5855 -2.0207 0.9440
-13.9799 -2.8415 -2.0213 0.9440
-13.2784 -5.2847 -2.0249 0.9439
-11.2988 -7.0369 -1.8860 0.9476
13.6984 -5.1014 -2.0711 0.9427
14.1247 -3.8692 -2.0750 0.9426
15.5318 -2.7982 -2.2361 0.9382
15.7532 -1.4077 -2.2410 0.9381
13.5081 0.0000 -2.2253 0.9467
13.4567 1.2025 -2.2257 0.9467
13.2935 2.3949 -2.2252 0.9467
12.6391 4.7068 -2.2218 0.9468
9.2848 9.6004 -2.2002 0.9473
8.3695 10.3591 -2.1939 0.9474
7.2204 10.7737 -2.1366 0.9488
5.9034 10.7724 -2.0236 0.9514
4.9040 11.2157 -2.0166 0.9516
3.8721 11.5652 -2.0092 0.9518
-1.4619 11.8694 -1.9701 0.9527
-3.5154 11.3327 -1.9547 0.9530
-5.4281 10.4510 -1.9401 0.9534
-6.3144 9.8913 -1.9332 0.9535
-7.4932 9.7092 -2.0204 0.9515
-8.5274 9.2197 -2.0689 0.9504
-11.0944 5.6062 -2.0478 0.9509
-10.7793 -6.0643 -2.0375 0.9511
-9.5062 -6.5256 -1.8995 0.9543
-8.9059 -7.3609 -1.9034 0.9542
-8.2346 -8.1434 -1.9079 0.9541
10.3921 -6.7982 -2.0458 0.9509
10.9823 -5.8604 -2.0507 0.9508
11.4844 -4.8698 -2.0550 0.9507
12.7694 -4.1176 -2.2103 0.9471
13.4917 -0.6016 -2.2248 0.9467
13.1705 2.9840 -2.2247 0.9467
12.4093 5.2620 -2.2205 0.9468
9.7161 9.1894 -2.2031 0.9472
8.8356 9.9905 -2.1971 0.9474
6.4171 10.5640 -2.0362 0.9511
4.3915 11.4023 -2.0129 0.9517
2.2829 11.9097 -1.9977 0.9520
-1.9852 11.7691 -1.9662 0.9528
-3.0130 11.5003 -1.9585 0.9529
-4.0091 11.1434 -1.9509 0.9531
-4.9663 10.7021 -1.9436 0.9533
-11.3221 5.1015 -2.0458 0.9509
-11.7111 4.0665 -2.0423 0.9510
-12.0098 3.0039 -2.0394 0.9511
-12.3296 0.8254 -2.0357 0.9511
-11.8474 -3.5309 -2.0366 0.9511
-9.9839 -6.2180 -1.9376 0.9534
-9.2152 -6.9495 -1.9014 0.9543
11.2447 -5.3711 -2.0529 0.9507
13.4473 -1.2016 -2.2241 0.9467
11.5843 2.0870 -2.2125 0.9532
11.0162 4.1025 -2.2095 0.9533
9.5001 6.8377 -2.2001 0.9535
8.8361 7.6409 -2.1957 0.9536
8.1027 8.3781 -2.1907 0.9537
2.4643 10.3407 -1.9981 0.9577
1.5289 10.4832 -1.9913 0.9578
-1.2815 10.4052 -1.9706 0.9582
-3.0848 9.9443 -1.9570 0.9585
-5.0411 9.7059 -2.0557 0.9565
-5.9718 9.3546 -2.0860 0.9558
-6.7662 8.7672 -2.0816 0.9559
-8.1694 7.3887 -2.0704 0.9562
-8.7737 6.6165 -2.0655 0.9563
-10.1519 4.0404 -2.0537 0.9565
-10.4569 3.1165 -2.0509 0.9566
-10.8826 0.2425 -2.0460 0.9567
-10.8587 -0.7269 -2.0456 0.9567
-9.5174 -5.3544 -2.0526 0.9565
-8.9868 -6.1691 -2.0489 0.9566
-7.2471 -7.1668 -1.9157 0.9594
-5.8898 -8.3783 -1.9250 0.9592
7.8332 -7.4086 -2.0266 0.9571
8.4834 -6.6993 -2.0318 0.9570
9.0672 -5.9315 -2.0366 0.9569
9.5792 -5.1116 -2.0408 0.9568
11.4600 -2.5965 -2.2086 0.9533
11.6567 -1.5677 -2.2107 0.9533
11.4774 2.6004 -2.2120 0.9532
10.3523 5.5241 -2.2055 0.9534
9.8040 6.4135 -2.2020 0.9534
9.1772 7.2471 -2.1979 0.9535
8.4777 8.0181 -2.1933 0.9536
6.8874 9.3476 -2.1824 0.9538
6.0112 9.8958 -2.1763 0.9540
5.0186 10.2126 -2.1388 0.9547
3.8613 10.0256 -2.0194 0.9572
1.9978 10.4225 -1.9947 0.9577
1.0586 10.5227 -1.9878 0.9579
-1.7407 10.3198 -1.9671 0.9583
-2.6432 10.0890 -1.9603 0.9584
-3.5187 9.7805 -1.9537 0.9586
-4.5080 9.7145 -2.0130 0.9573
-9.0497 6.2123 -2.0632 0.9563
-9.5473 5.3712 -2.0590 0.9564
-10.3144 3.5815 -2.0523 0.9565
-10.7625 1.6923 -2.0478 0.9566
-10.6676 -2.1683 -2.0461 0.9567
-10.4379 -3.1108 -2.0472 0.9566
-10.1280 -4.0308 -2.0489 0.9566
-7.5511 -6.8296 -1.9137 0.9594
-6.2491 -8.0972 -1.9225 0.9592
8.7839 -6.3223 -2.0342 0.9569
10.9898 -4.0927 -2.2042 0.9534
11.5702 -2.0845 -2.2098 0.9533
11.7191 -1.0472 -2.2115 0.9532
10.4201 -0.0000 -2.2026 0.9583
10.0450 2.7516 -2.2015 0.9583
9.7532 3.6321 -2.1999 0.9583
9.3818 4.4813 -2.1977 0.9584
8.4150 6.0568 -2.1916 0.9585
7.8287 6.7697 -2.1877 0.9586
4.0974 9.3709 -2.1619 0.9590
2.3385 9.8127 -2.1323 0.9596
1.4222 9.7515 -2.0831 0.9605
0.5420 9.7197 -2.0577 0.9610
-0.3247 9.7124 -2.0542 0.9610
-1.1957 9.7087 -2.0677 0.9608
-2.0848 9.7020 -2.0976 0.9602
-2.9513 9.5142 -2.1056 0.9601
-3.7831 9.2057 -2.1038 0.9601
-4.5742 8.8069 -2.0977 0.9602
-7.2853 6.5892 -2.0764 0.9606
-9.0613 3.6063 -2.0615 0.9609
-9.3348 2.7821 -2.0590 0.9610
-9.6639 1.0811 -2.0555 0.9610
-9.7173 0.2166 -2.0546 0.9610
-9.4316 -2.3590 -2.0551 0.9610
-9.1898 -3.1911 -2.0563 0.9610
-8.8771 -3.9998 -2.0581 0.9610
-7.5007 -6.1995 -2.0569 0.9610
-4.5769 -7.9274 -1.9349 0.9633
-3.8631 -8.3248 -1.9399 0.9632
5.6413 -7.6564 -2.0103 0.9619
6.9447 -6.5683 -2.0205 0.9617
7.5189 -5.9376 -2.0252 0.9616
8.2270 -5.3819 -2.0781 0.9606
10.1466 -2.2989 -2.1992 0.9584
10.3196 -1.3879 -2.2010 0.9583
10.4079 -0.4641 -2.2022 0.9583
10.4108 0.4642 -2.2028 0.9583
10.3280 1.3890 -2.2028 0.9583
9.5772 4.0611 -2.1989 0.9584
9.1673 4.8918 -2.1964 0.9584
7.5121 7.1049 -2.1856 0.9586
6.1063 8.2876 -2.1760 0.9588
5.3312 8.7764 -2.1706 0.9589
4.5169 9.1917 -2.1649 0.9590
3.6703 9.5298 -2.1586 0.9591
2.7918 9.7634 -2.1465 0.9593
1.8740 9.7766 -2.1042 0.9601
-2.5258 9.6410 -2.1067 0.9601
-4.9551 8.5824 -2.0948 0.9603
-6.3646 7.5280 -2.0838 0.9605
-8.0734 5.5421 -2.0700 0.9608
-8.5192 4.7928 -2.0662 0.9608
-9.2070 3.1970 -2.0602 0.9609
-9.4446 2.3623 -2.0579 0.9610
-9.6999 0.6493 -2.0550 0.9610
-9.7161 -0.2165 -2.0543 0.9610
-9.6578 -1.0804 -2.0542 0.9610
-9.5253 -1.9361 -2.0546 0.9610
-9.3197 -2.7776 -2.0556 0.9610
-6.8753 -6.2183 -1.9595 0.9628
-5.5728 -7.2208 -1.9280 0.9634
5.2874 -7.8893 -2.0075 0.9619
6.6372 -6.8628 -2.0181 0.9617
7.7842 -5.6027 -2.0273 0.9615
8.8351 -5.2331 -2.1706 0.9589
9.3573 -4.4696 -2.1920 0.9585
9.7325 -3.6244 -2.1953 0.9584
10.0289 -2.7472 -2.1980 0.9584
9.3379 0.0000 -2.1946 0.9624
9.1897 1.6556 -2.1946 0.9624
9.0023 2.4660 -2.1937 0.9624
8.7414 3.2553 -2.1923 0.9624
7.0206 6.0709 -2.1814 0.9626
5.8110 7.1924 -2.1731 0.9627
4.4240 8.0727 -2.1635 0.9629
3.6789 8.4139 -2.1582 0.9630
1.3148 9.0152 -2.1412 0.9633
0.5058 9.0713 -2.1353 0.9634
-2.6620 8.5815 -2.1117 0.9638
-4.7972 7.5146 -2.0953 0.9640
-6.5678 5.9402 -2.0813 0.9643
-7.4896 4.6646 -2.0737 0.9644
-8.1746 3.2534 -2.0678 0.9645
-8.4225 2.5102 -2.0655 0.9645
-8.5113 -2.1288 -2.0620 0.9646
-8.2927 -2.8795 -2.0631 0.9646
-8.0098 -3.6090 -2.0647 0.9645
-7.2593 -4.9832 -2.0694 0.9645
-6.7969 -5.6177 -2.0724 0.9644
-6.2583 -6.1889 -2.0686 0.9645
-5.3035 -6.2730 -1.9306 0.9668
-2.8060 -7.7993 -1.9480 0.9665
-2.1060 -8.0386 -1.9530 0.9664
-0.6509 -8.3293 -1.9636 0.9663
1.5860 -8.2743 -1.9801 0.9660
3.0447 -7.9055 -1.9910 0.9658
4.4214 -7.2787 -2.0015 0.9656
5.6693 -6.4104 -2.0113 0.9654
7.7572 -5.0745 -2.1786 0.9626
9.0944 -2.0605 -2.1916 0.9624
9.2486 -1.2438 -2.1932 0.9624
8.5841 3.6400 -2.1913 0.9624
8.2177 4.3851 -2.1891 0.9625
7.7850 5.0927 -2.1864 0.9625
7.2900 5.7569 -2.1831 0.9626
6.7373 6.3721 -2.1795 0.9626
4.7848 7.8768 -2.1660 0.9628
4.0551 8.2518 -2.1609 0.9629
2.5149 8.7951 -2.1499 0.9631
1.7175 8.9599 -2.1441 0.9632
0.1011 9.0722 -2.1323 0.9634
-0.7048 9.0199 -2.1263 0.9635
-3.0376 8.4430 -2.1088 0.9638
-4.4632 7.7304 -2.0979 0.9640
-5.1210 7.2847 -2.0928 0.9641
-6.3031 6.2333 -2.0834 0.9642
-6.8192 5.6363 -2.0793 0.9643
-7.2805 4.9978 -2.0755 0.9644
-8.3066 2.8844 -2.0666 0.9645
-8.5219 2.1315 -2.0645 0.9645
-8.6712 1.3635 -2.0630 0.9646
-8.7158 -0.9750 -2.0612 0.9646
-8.4101 -2.5065 -2.0625 0.9646
-8.1591 -3.2473 -2.0639 0.9646
-7.8448 -3.9642 -2.0657 0.9645
-7.4693 -4.6519 -2.0681 0.9645
-5.7477 -6.2144 -1.9895 0.9658
-3.8066 -7.3290 -1.9410 0.9666
-3.1467 -7.6570 -1.9456 0.9666
-1.0199 -8.2807 -1.9609 0.9663
-0.2796 -8.3616 -1.9663 0.9662
0.4671 -8.3766 -1.9718 0.9661
1.2142 -8.3251 -1.9773 0.9660
4.7472 -7.0834 -2.0041 0.9656
6.5763 -5.6868 -2.0433 0.9649
8.3897 -4.0074 -2.1852 0.9625
8.7248 -3.2492 -2.1881 0.9625
8.9894 -2.4625 -2.1905 0.9624
8.4183 0.7523 -2.1883 0.9657
8.1475 2.2319 -2.1873 0.9657
7.6120 3.6360 -2.1842 0.9657
7.2507 4.2946 -2.1819 0.9658
6.3574 5.4975 -2.1761 0.9659
5.8334 6.0317 -2.1726 0.9659
2.6366 7.8750 -2.1502 0.9663
0.4589 8.2308 -2.1344 0.9665
-0.2748 8.2181 -2.1290 0.9666
-1.0026 8.1403 -2.1236 0.9667
-1.7188 7.9986 -2.1182 0.9668
-7.1546 3.6154 -2.0755 0.9674
-7.6653 2.2845 -2.0709 0.9675
-7.8319 1.5919 -2.0693 0.9675
-7.9378 0.8880 -2.0681 0.9675
-7.9824 0.1779 -2.0673 0.9675
-7.9653 -0.5332 -2.0670 0.9676
-7.8868 -1.2401 -2.0671 0.9676
-7.7473 -1.9377 -2.0677 0.9675
-7.2899 -3.2847 -2.0702 0.9675
-6.1840 -5.1112 -2.0772 0.9674
-4.3726 -6.2201 -1.9686 0.9691
-3.7500 -6.4952 -1.9419 0.9695
-2.5500 -7.0880 -1.9504 0.9694
-1.9135 -7.3038 -1.9549 0.9693
-1.2589 -7.4631 -1.9596 0.9692
0.0847 -7.6059 -1.9694 0.9691
2.1071 -7.3691 -1.9844 0.9688
2.7615 -7.1701 -1.9894 0.9688
3.3969 -6.9126 -1.9942 0.9687
6.0598 -5.7314 -2.1596 0.9661
7.4217 -3.9603 -2.1781 0.9658
8.0257 -2.5880 -2.1834 0.9658
8.4414 -0.3764 -2.1878 0.9657
8.4433 0.3765 -2.1883 0.9657
8.3761 1.1265 -2.1883 0.9657
8.2406 1.8671 -2.1877 0.9657
7.7698 3.2947 -2.1851 0.9657
7.0480 4.6106 -2.1806 0.9658
6.6009 5.2126 -2.1777 0.9658
4.3357 7.1375 -2.1623 0.9661
3.6753 7.4789 -2.1576 0.9662
2.9882 7.7588 -2.1527 0.9662
0.8262 8.2125 -2.1371 0.9665
0.0917 8.2326 -2.1317 0.9666
-0.6398 8.1873 -2.1263 0.9666
-1.3625 8.0773 -2.1209 0.9667
-2.0708 7.9042 -2.1156 0.9668
-4.0562 7.0255 -2.1004 0.9670
-5.7320 5.6685 -2.0873 0.9672
-6.2025 5.1265 -2.0835 0.9673
-6.6231 4.5465 -2.0800 0.9674
-7.5595 2.6249 -2.0719 0.9675
-7.8925 1.2410 -2.0686 0.9675
-7.8246 -1.5904 -2.0674 0.9675
-7.1395 -3.6077 -2.0712 0.9675
-4.0316 -6.3153 -1.9399 0.9695
-3.4606 -6.6628 -1.9439 0.9695
-2.2343 -7.2028 -1.9526 0.9693
-1.5882 -7.3906 -1.9572 0.9692
0.4240 -7.6042 -1.9719 0.9690
1.1019 -7.5555 -1.9769 0.9689
2.4363 -7.2769 -1.9869 0.9688
3.0819 -7.0485 -1.9918 0.9687
4.8680 -6.0253 -2.0056 0.9685
5.6272 -5.8186 -2.0958 0.9671
7.2326 -4.2839 -2.1765 0.9659
7.5959 -3.6283 -2.1796 0.9658
8.1369 -2.2289 -2.1844 0.9657
8.3096 -1.4971 -2.1861 0.9657
8.4146 -0.7519 -2.1874 0.9657
7.7100 0.0000 -2.1827 0.9685
7.6802 0.6863 -2.1829 0.9685
7.5877 1.3670 -2.1826 0.9685
7.2188 2.6883 -2.1807 0.9685
6.9457 3.3177 -2.1791 0.9685
6.6167 3.9191 -2.1770 0.9685
6.2345 4.4873 -2.1746 0.9686
5.8028 5.0179 -2.1717 0.9686
4.2501 6.3415 -2.1611 0.9688
3.6618 6.6819 -2.1570 0.9688
3.0464 6.9672 -2.1527 0.9689
2.4091 7.1955 -2.1481 0.9689
1.7552 7.3651 -2.1434 0.9690
1.0902 7.4753 -2.1386 0.9691
-0.2513 7.5154 -2.1287 0.9692
-0.9170 7.4459 -2.1238 0.9693
-2.8322 6.8919 -2.1094 0.9695
-3.9924 6.2539 -2.1004 0.9696
-5.0186 5.4260 -2.0924 0.9697
-6.5569 3.3133 -2.0797 0.9699
-7.1794 1.4593 -2.0740 0.9700
-7.2304 -1.1369 -2.0720 0.9700
-7.1023 -1.7764 -2.0726 0.9700
-6.9193 -2.4026 -2.0735 0.9700
-4.7606 -5.6308 -2.0874 0.9698
-3.5853 -6.2099 -2.0300 0.9706
-2.8970 -6.2429 -1.9483 0.9718
-1.7515 -6.6855 -1.9565 0.9717
1.3160 -6.8654 -1.9789 0.9714
1.9263 -6.7366 -1.9835 0.9713
2.5239 -6.5533 -1.9880 0.9712
4.3977 -5.9686 -2.0988 0.9696
5.0430 -5.7022 -2.1550 0.9688
6.4163 -4.1973 -2.1705 0.9686
7.6371 -1.0271 -2.1815 0.9685
7.7029 0.3435 -2.1828 0.9685
7.6417 1.0277 -2.1828 0.9685
7.5182 1.7034 -2.1823 0.9685
7.3336 2.3648 -2.1814 0.9685
5.5695 5.2676 -2.1702 0.9686
4.5324 6.1515 -2.1631 0.9687
3.9596 6.5184 -2.1591 0.9688
2.7301 7.0886 -2.1504 0.9689
2.0839 7.2877 -2.1458 0.9690
-0.5851 7.4880 -2.1263 0.9693
-1.2464 7.3891 -2.1213 0.9693
-1.8947 7.2322 -2.1165 0.9694
-3.7136 6.4322 -2.1026 0.9696
-4.2627 6.0638 -2.0983 0.9697
-5.6825 4.6967 -2.0870 0.9698
-6.9290 2.4060 -2.0764 0.9700
-7.1097 1.7782 -2.0747 0.9700
-7.2352 1.1377 -2.0734 0.9700
-7.3173 -0.1631 -2.0720 0.9700
-7.2734 -0.8137 -2.0719 0.9700
-7.1733 -1.4580 -2.0722 0.9700
-7.0176 -2.0915 -2.0730 0.9700
-6.5442 -3.3069 -2.0757 0.9700
-6.2298 -3.8799 -2.0777 0.9700
-5.8663 -4.4240 -2.0800 0.9699
-5.4563 -4.9350 -2.0827 0.9699
-5.0028 -5.4089 -2.0858 0.9698
-4.5055 -5.8380 -2.0876 0.9698
-3.9578 -6.1997 -2.0822 0.9699
-3.2300 -6.2189 -1.9838 0.9713
-2.6187 -6.3721 -1.9503 0.9718
-1.4536 -6.7643 -1.9586 0.9716
-0.8476 -6.8822 -1.9630 0.9716
0.3878 -6.9553 -1.9721 0.9715
1.0077 -6.9092 -1.9766 0.9714
1.6224 -6.8079 -1.9812 0.9713
4.0323 -6.0166 -2.0504 0.9703
5.3045 -5.4849 -2.1601 0.9688
5.7858 -5.0032 -2.1654 0.9687
6.2182 -4.4756 -2.1689 0.9687
6.6015 -3.9101 -2.1721 0.9686
6.9323 -3.3113 -2.1749 0.9686
7.5816 -1.3659 -2.1809 0.9685
7.6771 -0.6860 -2.1820 0.9685
7.0812 0.0000 -2.1780 0.9708
7.0537 0.6303 -2.1782 0.9708
6.9689 1.2555 -2.1780 0.9708
6.8274 1.8702 -2.1773 0.9708
6.6306 2.4692 -2.1762 0.9708
6.3801 3.0475 -2.1748 0.9708
5.7278 4.1226 -2.1706 0.9709
5.3317 4.6105 -2.1680 0.9709
4.8935 5.0599 -2.1651 0.9710
4.4171 5.4671 -2.1618 0.9710
3.3663 6.1428 -2.1545 0.9711
2.2154 6.6171 -2.1463 0.9712
1.6144 6.7744 -2.1420 0.9713
1.0030 6.8769 -2.1376 0.9713
-0.2312 6.9164 -2.1285 0.9715
-0.8441 6.8537 -2.1240 0.9715
-2.6084 6.3472 -2.1107 0.9717
-3.6780 5.7616 -2.1024 0.9718
-4.1686 5.4015 -2.0986 0.9719
-6.0454 3.0549 -2.0833 0.9721
-6.4791 1.9310 -2.0795 0.9721
-6.6208 1.3457 -2.0780 0.9721
-6.7109 0.7507 -2.0770 0.9721
-6.7490 0.1504 -2.0764 0.9721
-6.6682 -1.0485 -2.0762 0.9721
-6.5500 -1.6383 -2.0767 0.9721
-6.3810 -2.2157 -2.0776 0.9721
-5.8952 -3.3166 -2.0805 0.9721
-5.2246 -4.3182 -2.0848 0.9720
-4.8256 -4.7721 -2.0875 0.9720
-2.8655 -6.1749 -2.0938 0.9719
-1.6301 -6.2222 -1.9784 0.9734
-0.4979 -6.3721 -1.9659 0.9736
0.0713 -6.4047 -1.9701 0.9736
0.6425 -6.3865 -1.9743 0.9735
3.6166 -5.9537 -2.1426 0.9713
4.6455 -5.2528 -2.1568 0.9711
5.8956 -3.8567 -2.1669 0.9709
6.2234 -3.3209 -2.1697 0.9709
6.7273 -2.1693 -2.1741 0.9709
7.0747 0.3155 -2.1782 0.9708
6.5119 2.7613 -2.1756 0.9708
6.2355 3.3273 -2.1739 0.9709
5.1176 4.8402 -2.1666 0.9710
4.6598 5.2690 -2.1635 0.9710
4.1658 5.6539 -2.1601 0.9710
3.6399 5.9921 -2.1564 0.9711
3.0865 6.2809 -2.1525 0.9711
1.9165 6.7026 -2.1442 0.9712
0.0772 6.9272 -2.1308 0.9714
-3.4210 5.9253 -2.1044 0.9718
-4.4013 5.2058 -2.0968 0.9719
-5.2378 4.3291 -2.0901 0.9720
-5.5944 3.8404 -2.0871 0.9720
-5.9066 3.3230 -2.0845 0.9720
-6.1722 2.7810 -2.0822 0.9721
-6.5563 1.6399 -2.0787 0.9721
-6.6723 1.0492 -2.0775 0.9721
-6.7365 0.4510 -2.0766 0.9721
-6.7484 -0.1504 -2.0762 0.9721
-6.7080 -0.7504 -2.0761 0.9721
-6.6156 -1.3447 -2.0764 0.9721
-6.2777 -2.4985 -2.0782 0.9721
-6.0346 -3.0494 -2.0796 0.9721
-5.7442 -3.5775 -2.0814 0.9721
-5.0301 -4.5495 -2.0861 0.9720
-4.1555 -5.3845 -2.0920 0.9719
-3.6657 -5.7422 -2.0954 0.9719
-3.1382 -6.0421 -2.0941 0.9719
-2.5501 -6.2052 -2.0635 0.9723
-1.9287 -6.2174 -2.0022 0.9731
-0.7805 -6.3370 -1.9638 0.9736
-0.2138 -6.3947 -1.9680 0.9736
1.4928 -6.2640 -1.9806 0.9734
3.3232 -6.0640 -2.1269 0.9715
3.8860 -5.7983 -2.1469 0.9712
4.8791 -5.0450 -2.1587 0.9711
5.3174 -4.5981 -2.1622 0.9710
6.8199 -1.8682 -2.1749 0.9708
6.9638 -1.2546 -2.1764 0.9708
6.5149 0.5822 -2.1742 0.9728
6.3061 1.7274 -2.1734 0.9728
5.8935 2.8151 -2.1710 0.9728
5.6150 3.3258 -2.1693 0.9729
5.2917 3.8087 -2.1672 0.9729
4.9262 4.2598 -2.1648 0.9729
4.5218 4.6755 -2.1621 0.9730
3.6107 5.3875 -2.1558 0.9730
2.5896 5.9226 -2.1487 0.9731
2.0485 6.1185 -2.1448 0.9732
1.4930 6.2649 -2.1408 0.9732
0.3572 6.4055 -2.1325 0.9733
-1.3399 6.2352 -2.1199 0.9735
-2.4149 5.8763 -2.1118 0.9736
-3.4061 5.3356 -2.1042 0.9737
-6.0050 1.7897 -2.0829 0.9739
-6.1366 1.2473 -2.0815 0.9739
-6.2204 0.6959 -2.0806 0.9740
-6.2558 0.1394 -2.0800 0.9740
-6.2426 -0.4179 -2.0797 0.9740
-5.7114 -2.5734 -2.0823 0.9739
-5.4636 -3.0738 -2.0838 0.9739
-5.1729 -3.5510 -2.0857 0.9739
-4.0653 -4.8084 -2.0930 0.9738
-3.6264 -5.1586 -2.0960 0.9738
-3.1577 -5.4694 -2.0993 0.9737
-2.1418 -5.9531 -2.1030 0.9737
-1.6041 -6.1229 -2.1040 0.9737
0.6237 -6.2003 -2.0714 0.9741
1.1857 -6.1859 -2.0937 0.9738
1.7596 -6.1537 -2.1275 0.9734
2.3073 -5.9908 -2.1339 0.9733
4.7163 -4.4607 -2.1579 0.9730
5.1020 -4.0290 -2.1610 0.9730
6.2143 -2.0038 -2.1704 0.9729
6.3724 -1.4438 -2.1719 0.9728
6.5332 -0.2913 -2.1738 0.9728
6.3778 1.4450 -2.1737 0.9728
6.2216 2.0062 -2.1729 0.9728
5.4588 3.5710 -2.1683 0.9729
5.1140 4.0385 -2.1661 0.9729
4.3061 4.8690 -2.1606 0.9730
1.7723 6.1980 -2.1428 0.9732
1.2113 6.3192 -2.1388 0.9732
0.6428 6.3895 -2.1346 0.9733
-0.4983 6.3770 -2.1262 0.9734
-1.0618 6.2949 -2.1220 0.9734
-2.6718 5.7575 -2.1098 0.9736
-3.1679 5.4869 -2.1060 0.9736
-4.0767 4.8220 -2.0989 0.9737
-4.4828 4.4332 -2.0957 0.9738
-4.8527 4.0108 -2.0927 0.9738
-5.1837 3.5584 -2.0900 0.9738
-5.4734 3.0793 -2.0876 0.9739
-5.7199 2.5773 -2.0854 0.9739
-5.9215 2.0562 -2.0836 0.9739
-6.0767 1.5199 -2.0822 0.9739
-6.1845 0.9725 -2.0810 0.9740
-6.2442 0.4180 -2.0802 0.9740
-6.2553 -0.1394 -2.0798 0.9740
-6.2179 -0.6956 -2.0797 0.9740
-5.8186 -2.3157 -2.0817 0.9739
-5.5930 -2.8262 -2.0830 0.9739
-4.2726 -4.6194 -2.0916 0.9738
-3.3956 -5.3191 -2.0976 0.9738
-2.9133 -5.6091 -2.1010 0.9737
-2.4047 -5.8514 -2.1029 0.9737
-1.8748 -6.0437 -2.1034 0.9737
-0.7642 -6.2050 -2.0782 0.9740
-0.2076 -6.2082 -2.0648 0.9742
0.3460 -6.2044 -2.0656 0.9741
0.9036 -6.1954 -2.0812 0.9740
1.4710 -6.1726 -2.1093 0.9736
3.1008 -5.6583 -2.1448 0.9732
4.0700 -5.0375 -2.1527 0.9731
4.5095 -4.6628 -2.1562 0.9730
4.9140 -4.2493 -2.1594 0.9730
5.2799 -3.8003 -2.1624 0.9730
5.6042 -3.3193 -2.1651 0.9729
5.8838 -2.8104 -2.1675 0.9729
6.1163 -2.2778 -2.1695 0.9729
6.2997 -1.7257 -2.1712 0.9728
6.5127 -0.5820 -2.1735 0.9728
6.0461 0.5403 -2.1707 0.9745
5.4700 2.6128 -2.1678 0.9746
4.9120 3.5355 -2.1643 0.9746
4.5731 3.9545 -2.1620 0.9746
4.1981 4.3408 -2.1595 0.9747
3.3529 5.0029 -2.1537 0.9747
2.8900 5.2735 -2.1505 0.9748
0.8620 5.9103 -2.1359 0.9749
-0.1989 5.9478 -2.1282 0.9750
-1.7535 5.6529 -2.1165 0.9752
-2.2457 5.4647 -2.1128 0.9752
-2.7185 5.2341 -2.1092 0.9753
-3.5919 4.6542 -2.1024 0.9753
-3.9860 4.3096 -2.0993 0.9754
-4.9641 3.0916 -2.0913 0.9755
-5.7907 0.6478 -2.0837 0.9756
-5.8238 0.1298 -2.0832 0.9756
-5.8116 -0.3890 -2.0829 0.9756
-5.7542 -0.9048 -2.0830 0.9756
-5.6520 -1.4137 -2.0835 0.9756
-5.3165 -2.3955 -2.0853 0.9755
-4.5058 -3.7242 -2.0905 0.9755
-3.7829 -4.4744 -2.0953 0.9754
-2.9378 -5.0884 -2.1011 0.9753
-2.4770 -5.3379 -2.1044 0.9753
-0.9831 -5.8285 -2.1137 0.9752
0.0660 -5.9271 -2.1197 0.9751
1.1206 -5.8460 -2.1286 0.9750
3.1150 -5.1281 -2.1457 0.9748
4.7369 -3.7407 -2.1585 0.9747
5.7678 -1.8599 -2.1672 0.9746
5.9143 -1.3400 -2.1686 0.9746
6.0130 -0.8087 -2.1697 0.9746
6.0641 0.2704 -2.1707 0.9745
6.0159 0.8091 -2.1707 0.9745
5.9190 1.3411 -2.1703 0.9745
5.5827 2.3672 -2.1685 0.9746
5.3463 2.8529 -2.1670 0.9746
4.7473 3.7489 -2.1632 0.9746
3.9981 4.5206 -2.1581 0.9747
2.6501 5.3928 -2.1488 0.9748
1.6464 5.7580 -2.1416 0.9749
-0.4632 5.9275 -2.1262 0.9751
-2.0018 5.5642 -2.1147 0.9752
-2.4848 5.3546 -2.1110 0.9752
-3.7928 4.4862 -2.1008 0.9754
-4.1711 4.1249 -2.0978 0.9754
-4.8241 3.3116 -2.0925 0.9754
-5.5119 1.9139 -2.0866 0.9755
-5.6567 1.4148 -2.0852 0.9755
-5.8129 0.3891 -2.0834 0.9756
-5.8234 -0.1298 -2.0830 0.9756
-5.7885 -0.6475 -2.0829 0.9756
-5.7087 -1.1603 -2.0832 0.9756
-5.5843 -1.6643 -2.0838 0.9756
-5.4165 -2.1557 -2.0847 0.9755
-5.2062 -2.6308 -2.0860 0.9755
-4.3378 -3.9233 -2.0916 0.9755
-3.5822 -4.6415 -2.0967 0.9754
-3.1592 -4.9488 -2.0996 0.9754
-2.7103 -5.2182 -2.1027 0.9753
-2.2386 -5.4473 -2.1061 0.9753
-1.7478 -5.6343 -2.1096 0.9753
-0.7229 -5.8698 -2.1149 0.9752
-0.1979 -5.9192 -2.1179 0.9752
0.3303 -5.9237 -2.1217 0.9751
1.8966 -5.6650 -2.1364 0.9749
2.3976 -5.4834 -2.1402 0.9749
2.8811 -5.2573 -2.1439 0.9749
4.1875 -4.3298 -2.1540 0.9747
4.5626 -3.9454 -2.1570 0.9747
5.2025 -3.0814 -2.1623 0.9746
5.4616 -2.6088 -2.1645 0.9746
5.6771 -2.1142 -2.1664 0.9746
5.6562 -0.0000 -2.1675 0.9761
5.5664 1.0028 -2.1675 0.9761
5.4538 1.4940 -2.1670 0.9761
5.2971 1.9726 -2.1661 0.9761
5.0977 2.4349 -2.1649 0.9761
4.8574 2.8770 -2.1635 0.9761
4.5782 3.2952 -2.1617 0.9761
4.2627 3.6861 -2.1596 0.9761
3.5335 4.3734 -2.1546 0.9762
2.6947 4.9173 -2.1488 0.9763
1.7748 5.3010 -2.1423 0.9763
0.3097 5.5539 -2.1317 0.9765
-0.1856 5.5499 -2.1280 0.9765
-0.6776 5.5019 -2.1244 0.9765
-1.6368 5.2766 -2.1172 0.9766
-2.0965 5.1016 -2.1137 0.9767
-2.9585 4.6344 -2.1070 0.9767
-3.3543 4.3463 -2.1039 0.9768
-4.0609 3.6729 -2.0983 0.9768
-4.3665 3.2930 -2.0958 0.9768
-4.6373 2.8882 -2.0936 0.9769
-5.4109 0.6053 -2.0865 0.9769
-5.4305 -0.3635 -2.0857 0.9770
-4.9676 -2.2383 -2.0880 0.9769
-3.8870 -3.8440 -2.0949 0.9769
-3.5335 -4.1794 -2.0973 0.9768
-3.1514 -4.4829 -2.1000 0.9768
-1.8631 -5.1785 -2.1090 0.9767
-1.3970 -5.3321 -2.1123 0.9767
-0.9183 -5.4442 -2.1158 0.9766
0.0617 -5.5394 -2.1229 0.9765
1.5308 -5.3537 -2.1339 0.9764
2.9051 -4.7824 -2.1443 0.9763
4.0828 -3.8615 -2.1536 0.9762
5.1959 -2.2033 -2.1628 0.9761
5.6035 -0.7536 -2.1667 0.9761
5.6508 0.2520 -2.1677 0.9761
4.9825 2.6588 -2.1642 0.9761
4.7225 3.0893 -2.1626 0.9761
4.0921 3.8703 -2.1584 0.9762
3.7271 4.2143 -2.1560 0.9762
3.3330 4.5236 -2.1533 0.9762
1.0498 5.4769 -2.1371 0.9764
0.0619 5.5574 -2.1298 0.9765
-0.4322 5.5314 -2.1262 0.9765
-0.9213 5.4616 -2.1225 0.9766
-1.4013 5.3488 -2.1189 0.9766
-1.8687 5.1942 -2.1154 0.9766
-3.1597 4.4947 -2.1055 0.9767
-3.8958 3.8526 -2.0997 0.9768
-4.2180 3.4862 -2.0971 0.9768
-4.5064 3.0935 -2.0947 0.9769
-4.7591 2.6774 -2.0926 0.9769
-4.9741 2.2412 -2.0907 0.9769
-5.3795 0.8459 -2.0869 0.9769
-5.4317 0.3636 -2.0862 0.9770
-5.3343 -1.0843 -2.0860 0.9770
-5.2180 -1.5551 -2.0866 0.9769
-4.6295 -2.8833 -2.0901 0.9769
-4.3582 -3.2867 -2.0918 0.9769
-1.1590 -5.3935 -2.1140 0.9766
-0.6755 -5.4843 -2.1175 0.9766
-0.1850 -5.5319 -2.1211 0.9766
0.3087 -5.5359 -2.1248 0.9765
0.8016 -5.4959 -2.1284 0.9765
1.2897 -5.4120 -2.1321 0.9764
1.7693 -5.2847 -2.1357 0.9764
2.2363 -5.1147 -2.1392 0.9764
3.1176 -4.6518 -2.1460 0.9763
4.2535 -3.6782 -2.1549 0.9762
4.5694 -3.2889 -2.1575 0.9762
4.8492 -2.8722 -2.1598 0.9761
5.0905 -2.4315 -2.1619 0.9761
5.4490 -1.4927 -2.1651 0.9761
5.2895 0.0000 -2.1648 0.9774
5.2688 0.4708 -2.1650 0.9774
5.1003 1.3971 -2.1643 0.9774
4.9539 1.8448 -2.1635 0.9774
4.7676 2.2773 -2.1624 0.9774
4.5430 2.6908 -2.1610 0.9774
4.2822 3.0821 -2.1593 0.9775
3.9873 3.4479 -2.1574 0.9775
3.6608 3.7853 -2.1552 0.9775
2.9248 4.3641 -2.1502 0.9775
2.0990 4.8006 -2.1444 0.9776
1.6610 4.9611 -2.1412 0.9776
0.7527 5.1611 -2.1347 0.9777
0.2899 5.1994 -2.1313 0.9777
-1.0888 5.0668 -2.1211 0.9779
-2.3777 4.5779 -2.1113 0.9780
-3.1428 4.0723 -2.1053 0.9780
-3.8055 3.4419 -2.1001 0.9781
-4.0922 3.0861 -2.0977 0.9781
-4.5659 2.3073 -2.0938 0.9781
-4.7495 1.8903 -2.0922 0.9781
-4.8958 1.4591 -2.0908 0.9782
-2.1345 -0.3356 -0.8843 0.9907
-4.8227 -1.6746 -2.0894 0.9782
-3.9453 -3.2609 -2.0949 0.9781
-3.3114 -3.9167 -2.0991 0.9781
-0.4035 -5.1635 -2.1197 0.9779
0.0578 -5.1872 -2.1231 0.9778
0.5201 -5.1698 -2.1265 0.9778
2.3061 -4.6927 -2.1400 0.9777
3.4786 -3.9334 -2.1491 0.9776
3.8197 -3.6127 -2.1518 0.9775
4.6532 -2.4830 -2.1586 0.9775
5.0274 -1.6211 -2.1619 0.9774
5.1546 -1.1679 -2.1631 0.9774
5.2403 -0.7048 -2.1640 0.9774
4.1388 3.2684 -2.1584 0.9775
2.3124 4.7056 -2.1459 0.9776
1.8817 4.8858 -2.1428 0.9776
1.4373 5.0264 -2.1396 0.9777
0.9827 5.1265 -2.1363 0.9777
0.5217 5.1855 -2.1330 0.9777
0.0580 5.2030 -2.1296 0.9778
-0.8627 5.1144 -2.1228 0.9778
-1.3124 5.0093 -2.1194 0.9779
-2.1730 4.6828 -2.1128 0.9779
-3.6506 3.6102 -2.1013 0.9781
-4.2235 2.8993 -2.0966 0.9781
-4.4605 2.5094 -2.0947 0.9781
-4.6623 2.1007 -2.0929 0.9781
-2.1308 0.5329 -0.8989 0.9906
-2.1345 0.3356 -0.8843 0.9907
-2.1302 0.1426 -0.8738 0.9908
-4.8916 -1.4579 -2.0890 0.9782
-4.7443 -1.8882 -2.0898 0.9782
-4.5598 -2.3042 -2.0909 0.9782
-4.0849 -3.0806 -2.0940 0.9781
-3.4806 -3.7632 -2.0980 0.9781
-3.1354 -4.0626 -2.1003 0.9781
-2.3714 -4.5657 -2.1056 0.9780
-1.9583 -4.7652 -2.1086 0.9780
-1.5286 -4.9278 -2.1116 0.9779
-0.6326 -5.1364 -2.1181 0.9779
0.2890 -5.1837 -2.1248 0.9778
1.6562 -4.9467 -2.1350 0.9777
2.9174 -4.3530 -2.1447 0.9776
3.2978 -4.0817 -2.1477 0.9776
3.9792 -3.4410 -2.1531 0.9775
4.5359 -2.6866 -2.1576 0.9775
4.9485 -1.8429 -2.1612 0.9774
4.9618 0.0000 -2.1624 0.9786
4.9424 0.4416 -2.1626 0.9786
4.8831 0.8797 -2.1624 0.9786
4.6472 1.7306 -2.1612 0.9786
4.2621 2.5244 -2.1589 0.9786
4.0175 2.8917 -2.1573 0.9786
3.4350 3.5518 -2.1534 0.9787
3.1020 3.8393 -2.1511 0.9787
1.1368 4.7704 -2.1373 0.9788
-0.1631 4.8795 -2.1278 0.9789
-1.4400 4.6421 -2.1182 0.9790
-2.2338 4.3009 -2.1122 0.9791
-2.6042 4.0795 -2.1093 0.9791
-2.9532 3.8266 -2.1066 0.9791
-3.8461 2.9005 -2.0994 0.9792
-4.2918 2.1688 -2.0957 0.9792
-4.4646 1.7769 -2.0942 0.9793
-1.8741 0.5585 -0.8523 0.9915
-1.9479 -0.1304 -0.8508 0.9915
-1.9397 -0.3050 -0.8557 0.9915
-1.9080 -0.4772 -0.8571 0.9915
-1.8290 -0.6351 -0.8438 0.9916
-4.3775 -1.9724 -2.0925 0.9793
-3.7083 -3.0650 -2.0967 0.9792
-3.1121 -3.6810 -2.1007 0.9792
-2.7752 -3.9477 -2.1031 0.9792
-2.4156 -4.1840 -2.1056 0.9791
-2.0362 -4.3880 -2.1082 0.9791
-1.6398 -4.5579 -2.1110 0.9791
-0.3790 -4.8499 -2.1201 0.9790
0.9200 -4.7993 -2.1297 0.9789
1.7615 -4.5738 -2.1360 0.9788
2.1647 -4.4051 -2.1391 0.9788
2.5518 -4.2008 -2.1421 0.9788
2.9194 -3.9623 -2.1449 0.9788
3.2646 -3.6914 -2.1477 0.9787
4.7163 -1.5208 -2.1597 0.9786
4.8355 -1.0956 -2.1608 0.9786
4.9158 -0.6611 -2.1617 0.9786
4.8386 1.0963 -2.1622 0.9786
4.7205 1.5222 -2.1616 0.9786
4.1439 2.7108 -2.1581 0.9786
3.5916 3.3969 -2.1545 0.9787
3.2717 3.6994 -2.1523 0.9787
2.9262 3.9715 -2.1499 0.9787
2.5581 4.2111 -2.1474 0.9787
1.7663 4.5860 -2.1418 0.9788
1.3492 4.7184 -2.1388 0.9788
0.9225 4.8128 -2.1357 0.9788
0.4898 4.8687 -2.1326 0.9789
0.0544 4.8856 -2.1294 0.9789
-0.8102 4.8033 -2.1229 0.9790
-1.2327 4.7051 -2.1198 0.9790
-2.4216 4.1943 -2.1107 0.9791
-3.1188 3.6889 -2.1053 0.9791
-3.4307 3.3927 -2.1028 0.9792
-3.9696 2.7250 -2.0984 0.9792
-4.3825 1.9747 -2.0949 0.9792
-1.8290 0.6351 -0.8438 0.9916
-1.9080 0.4772 -0.8571 0.9915
-1.9397 0.3050 -0.8557 0.9915
-1.9433 -0.2174 -0.8522 0.9915
-1.9300 -0.3923 -0.8583 0.9914
-4.4600 -1.7750 -2.0920 0.9793
-4.0791 -2.5405 -2.0943 0.9792
-3.2713 -3.5369 -2.0997 0.9792
-2.9466 -3.8180 -2.1019 0.9792
-2.5981 -4.0698 -2.1043 0.9792
-1.8400 -4.4773 -2.1096 0.9791
-1.0198 -4.7457 -2.1155 0.9790
1.5549 -4.6443 -2.1345 0.9789
1.9650 -4.4940 -2.1376 0.9788
2.3605 -4.3074 -2.1406 0.9788
2.7382 -4.0857 -2.1435 0.9788
3.0950 -3.8308 -2.1463 0.9787
3.4279 -3.5444 -2.1489 0.9787
3.7340 -3.2289 -2.1514 0.9787
4.2558 -2.5207 -2.1557 0.9786
4.4670 -2.1337 -2.1575 0.9786
4.7807 -1.3096 -2.1603 0.9786
4.6670 0.0000 -2.1603 0.9796
4.2070 2.0095 -2.1581 0.9797
4.0092 2.3746 -2.1569 0.9797
3.7793 2.7202 -2.1554 0.9797
3.5194 3.0434 -2.1537 0.9797
2.5827 3.8536 -2.1473 0.9798
1.8540 4.2403 -2.1422 0.9798
1.0700 4.4900 -2.1366 0.9799
0.6652 4.5612 -2.1337 0.9799
-0.9629 4.4812 -2.1216 0.9800
-1.3561 4.3716 -2.1187 0.9800
-1.7374 4.2278 -2.1158 0.9801
-2.7820 3.6047 -2.1077 0.9801
-3.6239 2.7329 -2.1010 0.9802
-4.0442 2.0436 -2.0974 0.9802
-1.6716 0.0372 -0.7739 0.9927
-1.6738 -0.1120 -0.7765 0.9926
-1.6165 -0.4043 -0.7713 0.9927
-4.1253 -1.8588 -2.0944 0.9803
-3.9455 -2.2197 -2.0955 0.9802
-3.4943 -2.8881 -2.0984 0.9802
-2.9321 -3.4681 -2.1022 0.9802
-2.6145 -3.7192 -2.1044 0.9802
-2.2757 -3.9416 -2.1067 0.9801
-0.3569 -4.5671 -2.1205 0.9800
0.4598 -4.5709 -2.1265 0.9800
1.2666 -4.4295 -2.1325 0.9799
2.0374 -4.1460 -2.1383 0.9798
2.4015 -3.9534 -2.1411 0.9798
3.0719 -3.4734 -2.1464 0.9798
4.1070 -2.1916 -2.1548 0.9797
4.6620 -0.2079 -2.1601 0.9796
4.6625 0.2079 -2.1604 0.9796
4.5511 1.0312 -2.1601 0.9796
4.4401 1.4318 -2.1595 0.9796
4.2934 1.8206 -2.1586 0.9797
4.1122 2.1944 -2.1575 0.9797
3.0781 3.4805 -2.1507 0.9797
2.7533 3.7368 -2.1485 0.9797
2.0424 4.1561 -2.1435 0.9798
1.2698 4.4409 -2.1380 0.9798
0.0512 4.5995 -2.1292 0.9799
-0.3578 4.5793 -2.1261 0.9800
-1.9227 4.1434 -2.1144 0.9801
-2.2809 3.9506 -2.1116 0.9801
-3.2321 3.1963 -2.1041 0.9802
-3.7403 2.5676 -2.1000 0.9802
-1.6165 0.4043 -0.7713 0.9927
-1.6675 -0.1865 -0.7767 0.9926
-1.6373 -0.3328 -0.7734 0.9927
-1.5924 -0.4746 -0.7692 0.9927
-1.5257 -0.6072 -0.7601 0.9928
-4.0394 -2.0412 -2.0949 0.9802
-3.3636 -3.0422 -2.0993 0.9802
-2.0990 -4.0414 -2.1080 0.9801
-0.9604 -4.4695 -2.1161 0.9801
-0.5596 -4.5435 -2.1190 0.9800
1.0672 -4.4783 -2.1310 0.9799
3.2254 -3.3350 -2.1476 0.9798
3.5132 -3.0380 -2.1499 0.9797
3.7733 -2.7159 -2.1520 0.9797
4.2021 -2.0072 -2.1556 0.9797
4.3670 -1.6263 -2.1570 0.9797
4.4969 -1.2318 -2.1582 0.9797
4.6476 -0.4153 -2.1599 0.9796
4.2428 1.1622 -2.1579 0.9806
4.1213 1.5348 -2.1572 0.9806
3.7802 2.2390 -2.1551 0.9806
3.5636 2.5649 -2.1537 0.9806
3.3187 2.8698 -2.1521 0.9806
3.0475 3.1511 -2.1503 0.9807
2.1003 3.8326 -2.1438 0.9807
1.7488 3.9997 -2.1413 0.9807
1.0095 4.2359 -2.1360 0.9808
0.2418 4.3364 -2.1304 0.9808
-0.1449 4.3349 -2.1276 0.9809
-0.5295 4.2990 -2.1247 0.9809
-0.9088 4.2292 -2.1219 0.9809
-2.3158 3.6277 -2.1111 0.9810
-2.6265 3.4032 -2.1087 0.9810
-2.9158 3.1525 -2.1064 0.9810
-3.8192 1.9299 -2.0990 0.9811
-1.3059 0.5198 -0.6895 0.9938
-1.3047 0.2652 -0.6531 0.9941
-1.3536 0.0302 -0.6641 0.9940
-1.3513 -0.0905 -0.6643 0.9940
-1.3257 -0.2085 -0.6583 0.9940
-1.2865 -0.5797 -0.6922 0.9937
-3.7262 -2.0963 -2.0972 0.9811
-3.5270 -2.4211 -2.0985 0.9811
-2.4686 -3.5116 -2.1056 0.9811
-2.1485 -3.7214 -2.1078 0.9810
-1.8108 -3.9022 -2.1102 0.9810
-1.4580 -4.0527 -2.1127 0.9810
-1.0929 -4.1715 -2.1153 0.9810
0.0482 -4.3290 -2.1236 0.9809
1.1950 -4.1791 -2.1321 0.9808
1.5643 -4.0615 -2.1349 0.9808
1.9220 -3.9111 -2.1376 0.9808
2.8972 -3.2760 -2.1452 0.9807
3.1806 -3.0082 -2.1475 0.9807
3.4391 -2.7158 -2.1495 0.9807
4.0439 -1.7148 -2.1546 0.9806
4.1829 -1.3488 -2.1559 0.9806
4.2884 -0.9716 -2.1569 0.9806
4.3594 -0.5863 -2.1576 0.9806
4.3609 0.5865 -2.1584 0.9806
4.2908 0.9722 -2.1581 0.9806
4.0480 1.7165 -2.1568 0.9806
2.5966 3.5241 -2.1472 0.9807
1.9264 3.9201 -2.1425 0.9807
0.8192 4.2739 -2.1346 0.9808
0.4350 4.3242 -2.1318 0.9808
-0.3377 4.3212 -2.1261 0.9809
-0.7200 4.2683 -2.1233 0.9809
-1.0956 4.1817 -2.1205 0.9809
-1.4615 4.0623 -2.1177 0.9809
-2.1532 3.7295 -2.1124 0.9810
-3.0518 3.0180 -2.1053 0.9811
-3.5320 2.4246 -2.1014 0.9811
-1.2865 0.5797 -0.6922 0.9937
-1.3149 0.3289 -0.6649 0.9940
-1.3513 0.0905 -0.6643 0.9940
-1.3536 -0.0302 -0.6641 0.9940
-1.3419 -0.1501 -0.6624 0.9940
-1.3047 -0.2652 -0.6531 0.9941
-3.8149 -1.9278 -2.0967 0.9811
-2.6213 -3.3965 -2.1045 0.9811
-2.3109 -3.6200 -2.1067 0.9810
-1.6361 -3.9813 -2.1114 0.9810
-1.2768 -4.1161 -2.1140 0.9810
-0.1446 -4.3239 -2.1222 0.9809
0.2412 -4.3254 -2.1250 0.9809
1.3809 -4.1245 -2.1335 0.9808
2.4306 -3.6267 -2.1416 0.9807
2.7469 -3.3999 -2.1440 0.9807
3.0419 -3.1453 -2.1464 0.9807
3.3131 -2.8650 -2.1485 0.9807
3.5583 -2.5611 -2.1505 0.9807
3.7753 -2.2361 -2.1523 0.9806
4.1176 -1.5334 -2.1553 0.9806
4.3818 -0.3916 -2.1579 0.9806
4.0910 0.7370 -2.1565 0.9814
3.3671 2.4235 -2.1522 0.9815
3.1358 2.7117 -2.1507 0.9815
1.9850 3.6222 -2.1428 0.9816
1.3084 3.9079 -2.1380 0.9816
0.2286 4.0997 -2.1302 0.9817
-0.5007 4.0650 -2.1248 0.9817
-0.8594 3.9992 -2.1221 0.9817
-1.2104 3.9020 -2.1194 0.9818
-2.1905 3.4314 -2.1119 0.9818
-2.4845 3.2193 -2.1096 0.9818
-3.0100 2.7224 -2.1055 0.9819
-3.2375 2.4415 -2.1036 0.9819
-3.4392 2.1420 -2.1019 0.9819
-1.0665 0.5389 -0.6199 0.9946
-1.1070 0.4406 -0.6181 0.9946
-1.1649 0.1303 -0.6081 0.9947
-1.1739 -0.0786 -0.6103 0.9947
-1.1198 -0.3889 -0.6150 0.9947
-1.0898 -0.4910 -0.6201 0.9946
-3.3372 -2.2909 -2.0999 0.9819
-3.1222 -2.5805 -2.1013 0.9819
-2.8823 -2.8503 -2.1029 0.9819
-2.6194 -3.0982 -2.1047 0.9819
-2.0324 -3.5203 -2.1088 0.9818
-1.7129 -3.6912 -2.1110 0.9818
-1.0337 -3.9454 -2.1159 0.9818
0.4103 -4.0783 -2.1264 0.9817
0.7726 -4.0307 -2.1291 0.9817
2.4491 -3.3239 -2.1419 0.9816
3.0057 -2.8428 -2.1463 0.9815
3.2498 -2.5664 -2.1482 0.9815
3.6591 -1.9526 -2.1516 0.9815
3.8209 -1.6202 -2.1530 0.9815
3.9521 -1.2744 -2.1542 0.9815
4.1186 -0.5539 -2.1559 0.9814
4.1525 -0.1852 -2.1564 0.9814
4.1529 0.1852 -2.1566 0.9814
4.0538 0.9185 -2.1563 0.9814
3.9550 1.2753 -2.1558 0.9814
3.8245 1.6217 -2.1551 0.9815
3.6633 1.9548 -2.1541 0.9815
3.4728 2.2718 -2.1529 0.9815
3.2547 2.5702 -2.1515 0.9815
1.8207 3.7050 -2.1416 0.9816
1.4820 3.8480 -2.1392 0.9816
0.0457 4.1032 -2.1288 0.9817
-0.3193 4.0858 -2.1261 0.9817
-1.0360 3.9545 -2.1208 0.9817
-1.3822 3.8419 -2.1181 0.9818
-3.3417 2.2940 -2.1028 0.9819
-1.1517 0.1811 -0.6048 0.9948
-1.1739 0.0786 -0.6103 0.9947
-1.1332 -0.2303 -0.5999 0.9948
-1.1266 -0.3358 -0.6099 0.9947
-1.1070 -0.4406 -0.6181 0.9946
-1.0665 -0.5389 -0.6199 0.9946
-3.4349 -2.1393 -2.0993 0.9819
-3.2329 -2.4381 -2.1006 0.9819
-3.0052 -2.7181 -2.1021 0.9819
-2.1861 -3.4245 -2.1077 0.9819
-1.8746 -3.6092 -2.1099 0.9818
-1.5476 -3.7659 -2.1122 0.9818
-0.8574 -3.9899 -2.1171 0.9818
-0.4995 -4.0554 -2.1197 0.9818
-0.1367 -4.0888 -2.1224 0.9817
0.5919 -4.0585 -2.1278 0.9817
0.9520 -3.9948 -2.1304 0.9817
1.3054 -3.8991 -2.1331 0.9816
1.9808 -3.6145 -2.1383 0.9816
2.2973 -3.4278 -2.1407 0.9816
3.1309 -2.7074 -2.1473 0.9815
3.3624 -2.4201 -2.1492 0.9815
3.5672 -2.1129 -2.1509 0.9815
3.7437 -1.7882 -2.1524 0.9815
3.8904 -1.4488 -2.1536 0.9815
4.0059 -1.0973 -2.1547 0.9815
4.1397 -0.3699 -2.1562 0.9814
2.0429 0.0000 -1.1189 0.9907
2.0356 0.1819 -1.1193 0.9907
2.0036 0.3609 -1.1150 0.9908
1.9715 0.7342 -1.1522 0.9905
2.4623 3.0477 -2.1459 0.9823
2.1793 3.2517 -2.1440 0.9823
1.2389 3.7005 -2.1373 0.9824
0.5619 3.8527 -2.1325 0.9824
0.2165 3.8828 -2.1299 0.9824
-0.4742 3.8504 -2.1248 0.9825
-0.8141 3.7884 -2.1223 0.9825
-1.1467 3.6965 -2.1198 0.9825
-2.8525 2.5799 -2.1065 0.9826
-3.0682 2.3139 -2.1048 0.9826
-3.2596 2.0301 -2.1032 0.9826
-0.9364 0.4732 -0.5746 0.9952
-1.0000 0.2033 -0.5589 0.9954
-1.0293 0.1152 -0.5673 0.9953
-1.0376 -0.0695 -0.5696 0.9953
-0.9847 -0.2463 -0.5559 0.9954
-0.9756 -0.3388 -0.5656 0.9953
-0.9240 -0.5198 -0.5806 0.9952
-2.2131 -3.1482 -2.1077 0.9826
-1.9259 -3.3358 -2.1097 0.9826
-1.3067 -3.6319 -2.1141 0.9826
-0.9793 -3.7380 -2.1164 0.9825
-0.6435 -3.8147 -2.1188 0.9825
0.3886 -3.8629 -2.1264 0.9824
2.0273 -3.3375 -2.1388 0.9823
2.3188 -3.1471 -2.1410 0.9823
2.5923 -2.9312 -2.1432 0.9823
2.8456 -2.6913 -2.1452 0.9823
3.0765 -2.4295 -2.1471 0.9823
3.4637 -1.8483 -2.1503 0.9823
1.9407 -0.8229 -1.1546 0.9904
1.9895 -0.6415 -1.1449 0.9905
2.0041 -0.4541 -1.1255 0.9907
2.0226 -0.2720 -1.1178 0.9907
2.0434 -0.0911 -1.1203 0.9907
2.0226 0.2720 -1.1178 0.9907
2.0041 0.4541 -1.1255 0.9907
1.9895 0.6415 -1.1449 0.9905
1.9407 0.8229 -1.1546 0.9904
3.2872 2.1504 -2.1514 0.9822
3.0809 2.4329 -2.1501 0.9823
2.8501 2.6956 -2.1486 0.9823
2.3231 3.1529 -2.1450 0.9823
2.0313 3.3440 -2.1429 0.9823
0.7334 3.8260 -2.1337 0.9824
0.3895 3.8716 -2.1312 0.9824
0.0433 3.8863 -2.1287 0.9824
-0.6449 3.8232 -2.1236 0.9825
-0.9814 3.7462 -2.1210 0.9825
-3.1670 2.1741 -2.1040 0.9826
-0.9240 0.5198 -0.5806 0.9952
-0.9756 0.3387 -0.5656 0.9953
-0.9847 0.2463 -0.5559 0.9954
-1.0376 0.0695 -0.5696 0.9953
-1.0415 -0.0232 -0.5706 0.9953
-1.0293 -0.1151 -0.5673 0.9953
-1.0000 -0.2033 -0.5589 0.9954
-0.9825 -0.2928 -0.5615 0.9953
-0.9364 -0.4732 -0.5746 0.9952
-3.2557 -2.0277 -2.1007 0.9827
-3.0641 -2.3107 -2.1019 0.9826
-2.6096 -2.8215 -2.1050 0.9826
-2.0716 -3.2452 -2.1087 0.9826
-1.4664 -3.5682 -2.1129 0.9826
-1.1442 -3.6886 -2.1152 0.9825
-0.4732 -3.8418 -2.1201 0.9825
-0.1295 -3.8732 -2.1226 0.9825
0.5606 -3.8440 -2.1277 0.9824
0.9016 -3.7834 -2.1302 0.9824
1.2362 -3.6925 -2.1327 0.9824
1.8756 -3.4226 -2.1376 0.9824
2.1752 -3.2456 -2.1399 0.9823
2.7216 -2.8141 -2.1442 0.9823
2.9640 -2.5630 -2.1461 0.9823
3.5437 -1.6927 -2.1509 0.9822
1.9714 -0.7342 -1.1522 0.9905
2.0004 -0.5480 -1.1360 0.9906
1.8426 0.3320 -1.0810 0.9914
1.8267 0.5004 -1.0935 0.9913
1.7869 0.6654 -1.1009 0.9912
2.8144 2.4337 -2.1481 0.9830
2.3348 2.8898 -2.1449 0.9830
1.7822 3.2521 -2.1411 0.9830
1.1750 3.5095 -2.1367 0.9831
0.8570 3.5963 -2.1345 0.9831
-0.1231 3.6825 -2.1273 0.9831
-0.4499 3.6528 -2.1249 0.9831
-0.7723 3.5942 -2.1225 0.9832
-1.6889 3.2517 -2.1155 0.9832
-1.9696 3.0853 -2.1133 0.9832
-2.2342 2.8950 -2.1113 0.9833
-0.8491 0.5288 -0.5776 0.9954
-0.8760 0.4426 -0.5667 0.9955
-0.8932 0.3555 -0.5550 0.9956
-0.9012 0.2686 -0.5429 0.9957
-0.9120 0.1854 -0.5373 0.9957
-0.9237 0.1033 -0.5366 0.9957
-0.9306 0.0207 -0.5374 0.9957
-0.9189 -0.1445 -0.5370 0.9957
-0.8858 -0.3991 -0.5609 0.9955
-0.8638 -0.4859 -0.5722 0.9954
-3.0024 -2.0610 -2.1026 0.9833
-2.8087 -2.3215 -2.1038 0.9833
-2.1004 -2.9878 -2.1086 0.9833
-1.2399 -3.4464 -2.1147 0.9832
-0.6105 -3.6194 -2.1192 0.9832
-0.2863 -3.6635 -2.1215 0.9832
0.0410 -3.6785 -2.1239 0.9832
0.3686 -3.6645 -2.1264 0.9831
1.3282 -3.4485 -2.1336 0.9831
1.6316 -3.3202 -2.1359 0.9831
1.9226 -3.1651 -2.1381 0.9830
2.1989 -2.9844 -2.1403 0.9830
2.4582 -2.7795 -2.1423 0.9830
2.6982 -2.5519 -2.1442 0.9830
1.6860 -0.8997 -1.1034 0.9912
1.7564 -0.7448 -1.1014 0.9912
1.8755 -0.0836 -1.0839 0.9914
1.8755 0.0836 -1.0839 0.9914
1.8316 0.4150 -1.0843 0.9914
1.8108 0.5839 -1.0985 0.9913
3.1165 2.0387 -2.1501 0.9829
2.9210 2.3067 -2.1488 0.9830
2.2028 2.9896 -2.1440 0.9830
1.9262 3.1710 -2.1421 0.9830
1.6348 3.3266 -2.1400 0.9830
1.3308 3.4555 -2.1379 0.9830
1.0169 3.5565 -2.1356 0.9831
0.0411 3.6865 -2.1285 0.9831
-0.9312 3.5542 -2.1213 0.9832
-1.2424 3.4534 -2.1189 0.9832
-1.5432 3.3255 -2.1166 0.9832
-1.8311 3.1716 -2.1144 0.9832
-2.1041 2.9931 -2.1123 0.9832
-2.3599 2.7912 -2.1103 0.9833
-3.0060 2.0635 -2.1051 0.9833
-0.8984 0.3119 -0.5490 0.9956
-0.9189 0.1445 -0.5370 0.9957
-0.9306 -0.0207 -0.5374 0.9957
-0.8932 -0.3555 -0.5550 0.9956
-0.8760 -0.4427 -0.5667 0.9955
-0.8491 -0.5288 -0.5776 0.9954
-2.9084 -2.1934 -2.1032 0.9833
-2.7034 -2.4451 -2.1045 0.9833
-1.6857 -3.2456 -2.1115 0.9832
-1.3915 -3.3861 -2.1136 0.9832
-0.4489 -3.6450 -2.1204 0.9832
-0.1229 -3.6746 -2.1227 0.9832
0.2049 -3.6752 -2.1252 0.9831
0.8552 -3.5887 -2.1300 0.9831
1.4813 -3.3878 -2.1347 0.9831
1.7788 -3.2459 -2.1370 0.9830
2.0628 -3.0779 -2.1392 0.9830
1.7194 -0.8213 -1.1001 0.9912
1.7869 -0.6654 -1.1009 0.9912
1.8426 -0.3320 -1.0810 0.9914
1.8700 -0.1671 -1.0839 0.9914
