ply
format ascii 1.0
element vertex 453
property float32 x
property float32 y
property float32 z
property float32 I
end_header
11.9146 14.7469 -5.8313 0.9237
-15.1368 11.4152 -5.8313 0.9237
-16.0927 10.0227 -5.8313 0.9237
-17.9295 -6.2258 -5.8377 0.9236
18.4900 -4.1893 -5.8313 0.9237
12.5597 14.2015 -5.8313 0.9237
-15.6303 10.7296 -5.8313 0.9237
18.0011 0.0000 -5.9837 0.9269
17.7159 3.1917 -5.9837 0.9269
17.3615 4.7558 -5.9837 0.9269
14.6102 10.5158 -5.9837 0.9269
13.6163 11.7744 -5.9837 0.9269
12.5019 12.9269 -5.9778 0.9270
11.0247 13.6455 -5.8313 0.9287
-15.2687 9.5095 -5.9793 0.9270
-16.0663 8.1187 -5.9837 0.9269
-16.7252 6.6565 -5.9837 0.9269
-17.9966 0.4010 -5.9837 0.9269
-17.9609 -1.2023 -5.9837 0.9269
-17.7826 -2.7962 -5.9837 0.9269
-17.4632 -4.3678 -5.9837 0.9269
-16.9977 -5.9022 -5.9811 0.9270
-15.9940 -7.2066 -5.8313 0.9287
17.1090 -3.8764 -5.8313 0.9287
17.4069 -2.3410 -5.8382 0.9286
17.8405 2.3993 -5.9837 0.9269
17.5561 3.9777 -5.9837 0.9269
14.1273 11.1562 -5.9837 0.9269
13.0782 12.3693 -5.9837 0.9269
11.6217 13.1408 -5.8313 0.9287
-13.5218 11.1761 -5.8313 0.9287
-14.4629 9.9282 -5.8313 0.9287
-17.0051 5.9048 -5.9837 0.9269
-17.7826 2.7962 -5.9837 0.9269
-17.9966 -0.4010 -5.9837 0.9269
-17.6404 -3.5856 -5.9837 0.9269
-16.2992 -6.4869 -5.8313 0.9287
16.9193 -4.6347 -5.8313 0.9287
17.2647 -3.1104 -5.8313 0.9287
16.7325 0.0000 -5.9837 0.9314
16.1380 4.4207 -5.9837 0.9314
14.3967 8.5272 -5.9837 0.9314
13.5806 9.7747 -5.9837 0.9314
12.6567 10.9447 -5.9837 0.9314
11.6323 12.0277 -5.9837 0.9314
9.0782 13.5456 -5.8313 0.9331
-14.2031 8.8458 -5.9837 0.9314
-14.9341 7.5465 -5.9837 0.9314
-16.3972 3.3329 -5.9837 0.9314
-16.6288 1.8602 -5.9837 0.9314
-16.7284 0.3728 -5.9837 0.9314
-16.6952 -1.1176 -5.9837 0.9314
-14.8669 -6.6987 -5.8313 0.9331
-14.2117 -7.9953 -5.8313 0.9331
15.5194 -5.0044 -5.8313 0.9331
15.9033 -3.6032 -5.8313 0.9331
16.5832 2.2302 -5.9837 0.9314
16.3189 3.6974 -5.9837 0.9314
15.9251 5.1352 -5.9837 0.9314
15.4048 6.5322 -5.9837 0.9314
14.7623 7.8774 -5.9837 0.9314
14.0025 9.1600 -5.9837 0.9314
13.1317 10.3700 -5.9837 0.9314
-12.5689 10.3885 -5.8313 0.9331
-15.8067 5.4887 -5.9837 0.9314
-16.6952 1.1176 -5.9837 0.9314
-16.7284 -0.3728 -5.9837 0.9314
-16.0355 -4.7791 -5.9837 0.9314
-14.5537 -7.3543 -5.8313 0.9331
16.1374 -2.9073 -5.8637 0.9327
15.6143 0.0000 -5.9837 0.9353
15.5523 1.3897 -5.9837 0.9353
15.3669 2.7685 -5.9837 0.9353
15.0595 4.1252 -5.9837 0.9353
14.0895 6.7300 -5.9837 0.9353
8.4715 12.6403 -5.8313 0.9369
-11.2854 10.2071 -5.8313 0.9369
-12.4614 9.3976 -5.9812 0.9353
-15.3014 3.1102 -5.9837 0.9353
-15.5175 1.7359 -5.9837 0.9353
-15.4247 -2.4254 -5.9837 0.9353
-13.8733 -6.2510 -5.8313 0.9369
15.4750 -2.0812 -5.9837 0.9353
15.5988 0.6956 -5.9837 0.9353
15.2283 3.4503 -5.9837 0.9353
14.3753 6.0956 -5.9837 0.9353
13.7757 7.3509 -5.9837 0.9353
12.2541 9.6769 -5.9837 0.9353
11.3441 10.7292 -5.9837 0.9353
10.3375 11.6888 -5.9798 0.9353
9.0262 12.2504 -5.8313 0.9369
-9.8242 11.6202 -5.8313 0.9369
-13.6085 7.6560 -5.9837 0.9353
-14.7503 5.1219 -5.9837 0.9353
-15.1477 3.7887 -5.9837 0.9353
-15.5794 1.0429 -5.9837 0.9353
-15.3014 -3.1101 -5.9837 0.9353
-14.5065 -5.7735 -5.9833 0.9353
-12.9164 -8.0444 -5.8313 0.9369
14.2599 -5.3104 -5.8313 0.9369
15.3649 -2.7681 -5.9829 0.9353
15.5523 -1.3898 -5.9837 0.9353
14.6202 -0.0000 -5.9837 0.9388
14.3885 2.5922 -5.9837 0.9388
14.1007 3.8626 -5.9837 0.9388
13.7010 5.1023 -5.9837 0.9388
11.8661 8.5407 -5.9837 0.9388
10.1638 10.5093 -5.9837 0.9388
9.1784 11.3602 -5.9774 0.9388
7.9321 11.8356 -5.8313 0.9403
-9.6743 10.4598 -5.8313 0.9403
-13.5839 5.4063 -5.9837 0.9388
-14.0112 4.1758 -5.9837 0.9388
-2.1285 0.0474 -0.8714 0.9908
-2.1345 -0.3356 -0.8843 0.9907
-2.1308 -0.5329 -0.8989 0.9906
-13.8112 -4.7958 -5.9837 0.9388
-12.4176 -6.9860 -5.8313 0.9403
13.1172 -5.5622 -5.8313 0.9403
14.2560 -3.2300 -5.9825 0.9388
14.4897 -1.9487 -5.9837 0.9388
14.6057 -0.6513 -5.9837 0.9388
14.6057 0.6513 -5.9837 0.9388
14.2588 3.2306 -5.9837 0.9388
13.9146 4.4869 -5.9837 0.9388
12.8986 6.8829 -5.9837 0.9388
9.6856 10.9517 -5.9837 0.9388
7.3970 12.1772 -5.8313 0.9403
-9.1988 10.8804 -5.8313 0.9403
-12.0535 8.2743 -5.9837 0.9388
-12.7421 7.1686 -5.9837 0.9388
-13.8112 4.7958 -5.9837 0.9388
-2.1308 0.5329 -0.8989 0.9906
-2.1302 0.1426 -0.8738 0.9908
-2.1285 -0.0474 -0.8714 0.9908
-2.1261 -0.2378 -0.8756 0.9908
-2.1365 -0.4343 -0.8923 0.9906
-13.5839 -5.4062 -5.9837 0.9388
-12.7164 -6.4259 -5.8313 0.9403
12.8564 -6.1410 -5.8313 0.9403
13.3520 -4.9723 -5.8313 0.9403
13.8626 -3.7974 -5.8826 0.9398
14.3885 -2.5922 -5.9837 0.9388
13.6753 1.2220 -5.9837 0.9419
13.5122 2.4344 -5.9837 0.9419
13.2420 3.6273 -5.9837 0.9419
12.8665 4.7916 -5.9837 0.9419
11.8131 6.9969 -5.9837 0.9419
11.1435 8.0206 -5.9837 0.9419
10.3854 8.9806 -5.9837 0.9419
9.5448 9.8693 -5.9837 0.9419
8.6285 10.6797 -5.9837 0.9419
5.3603 12.2594 -5.8313 0.9433
-6.1672 11.8740 -5.8313 0.9433
-9.0852 9.8228 -5.8313 0.9433
-10.1827 9.2097 -5.9837 0.9419
-12.7566 5.0770 -5.9837 0.9419
-1.9433 0.2174 -0.8522 0.9915
-1.9470 0.0434 -0.8487 0.9915
-1.9479 -0.1304 -0.8508 0.9915
-1.9397 -0.3050 -0.8557 0.9915
-1.8290 -0.6351 -0.8438 0.9916
-11.0311 -7.5724 -5.8313 0.9433
11.8046 -6.2991 -5.8313 0.9433
13.7162 0.6116 -5.9837 0.9419
13.3904 3.0339 -5.9837 0.9419
13.0672 4.2136 -5.9837 0.9419
12.6403 5.3599 -5.9837 0.9419
12.1131 6.4637 -5.9837 0.9419
9.9750 9.4343 -5.9837 0.9419
9.0957 10.2847 -5.9837 0.9419
8.1343 11.0399 -5.9763 0.9419
6.9465 11.4356 -5.8313 0.9433
-7.6949 10.9461 -5.8313 0.9433
-8.6386 10.2177 -5.8313 0.9433
-10.5829 8.7470 -5.9837 0.9419
-11.3194 7.7703 -5.9837 0.9419
-11.9661 6.7320 -5.9837 0.9419
-12.5178 5.6402 -5.9837 0.9419
-1.9479 0.1304 -0.8508 0.9915
-1.9470 -0.0434 -0.8487 0.9915
-1.9433 -0.2174 -0.8522 0.9915
-1.8741 -0.5585 -0.8523 0.9915
-12.7566 -5.0770 -5.9837 0.9419
-12.2390 -6.1846 -5.9763 0.9419
-11.3575 -7.0735 -5.8313 0.9433
12.5388 -4.6695 -5.8313 0.9433
12.8756 1.1506 -5.9837 0.9446
12.4676 3.4152 -5.9837 0.9446
12.1142 4.5114 -5.9837 0.9446
11.1223 6.5878 -5.9837 0.9446
10.4918 7.5516 -5.9837 0.9446
7.1882 10.7255 -5.9765 0.9447
6.0542 11.0475 -5.8313 0.9460
3.9995 11.9459 -5.8313 0.9460
-4.7885 11.6521 -5.8313 0.9460
-5.8066 11.1797 -5.8313 0.9460
-6.7786 10.6185 -5.8313 0.9460
-7.6968 9.9730 -5.8313 0.9460
-8.7716 9.4838 -5.9797 0.9446
-9.5873 8.6712 -5.9837 0.9446
-1.5257 0.6072 -0.7601 0.9928
-1.6521 -0.2598 -0.7741 0.9927
-1.5621 -0.5424 -0.7654 0.9927
-11.7858 -5.3104 -5.9837 0.9446
-11.0539 -6.2188 -5.8709 0.9456
10.5423 -6.8965 -5.8313 0.9460
11.1143 -5.9308 -5.8313 0.9460
12.2987 -3.9658 -5.9816 0.9446
12.9141 0.5759 -5.9837 0.9446
12.8116 1.7230 -5.9837 0.9446
12.6074 2.8565 -5.9837 0.9446
12.3031 3.9672 -5.9837 0.9446
11.9012 5.0465 -5.9837 0.9446
11.4048 6.0858 -5.9837 0.9446
10.8178 7.0767 -5.9837 0.9446
10.1450 8.0114 -5.9837 0.9446
9.3917 8.8826 -5.9837 0.9446
7.6680 10.4071 -5.9837 0.9446
4.5277 11.7559 -5.8313 0.9460
3.4634 12.1122 -5.8313 0.9460
-4.2647 11.8539 -5.8313 0.9460
-7.2449 10.3060 -5.8313 0.9460
-9.1915 9.0896 -5.9837 0.9446
-10.6575 7.3160 -5.9837 0.9446
-11.2663 6.3383 -5.9837 0.9446
-1.6165 0.4043 -0.7713 0.9927
-1.6521 0.2598 -0.7741 0.9927
-1.6716 -0.0373 -0.7739 0.9927
-1.6675 -0.1865 -0.7767 0.9926
-1.5257 -0.6072 -0.7601 0.9928
-11.5349 -5.8289 -5.9823 0.9446
-10.0581 -7.5852 -5.8313 0.9460
10.8391 -6.4200 -5.8313 0.9460
12.1501 1.0857 -5.9837 0.9471
11.0073 5.2577 -5.9837 0.9471
10.4956 6.2166 -5.9837 0.9471
9.2271 7.9790 -5.9837 0.9471
8.4803 8.7686 -5.9837 0.9471
7.6662 9.4886 -5.9837 0.9471
5.7131 10.4251 -5.8313 0.9484
2.7558 11.5640 -5.8313 0.9484
1.7156 11.7634 -5.8313 0.9484
0.6618 11.8694 -5.8313 0.9484
-7.4446 9.6462 -5.9770 0.9472
-9.0471 8.1826 -5.9837 0.9471
-9.7395 7.3449 -5.9837 0.9471
-10.3545 6.4489 -5.9837 0.9471
-10.8874 5.5017 -5.9837 0.9471
-1.3047 0.2652 -0.6531 0.9941
-1.3536 0.0302 -0.6641 0.9940
-1.3513 -0.0905 -0.6643 0.9940
-1.3149 -0.3289 -0.6649 0.9940
-10.6247 -5.9773 -5.9798 0.9471
-9.8008 -6.7279 -5.8313 0.9484
11.6099 -3.7437 -5.9837 0.9471
12.0897 -1.6259 -5.9837 0.9471
11.2306 4.7622 -5.9837 0.9471
8.8625 8.3821 -5.9837 0.9471
7.2359 9.8207 -5.9837 0.9471
5.2430 10.6692 -5.8313 0.9484
3.2683 11.4298 -5.8313 0.9484
2.2380 11.6753 -5.8313 0.9484
1.1899 11.8281 -5.8313 0.9484
-0.9261 11.8517 -5.8313 0.9484
-1.9773 11.7223 -5.8313 0.9484
-3.0128 11.4997 -5.8313 0.9484
-4.0244 11.1860 -5.8313 0.9484
-5.0040 10.7834 -5.8313 0.9484
-5.9439 10.2952 -5.8313 0.9484
-9.4026 7.7715 -5.9837 0.9471
-10.6315 5.9812 -5.9837 0.9471
-1.2865 0.5797 -0.6922 0.9937
-1.3171 0.4573 -0.6839 0.9938
-1.3149 0.3289 -0.6649 0.9940
-1.3257 0.2085 -0.6583 0.9940
-1.3047 -0.2652 -0.6531 0.9941
-1.3059 -0.5198 -0.6895 0.9938
-10.0908 -6.2846 -5.8313 0.9484
9.6485 -6.9446 -5.8313 0.9484
10.7269 -5.1238 -5.8313 0.9484
11.4268 -4.2554 -5.9812 0.9471
11.7651 -3.2228 -5.9837 0.9471
12.0053 -2.1629 -5.9837 0.9471
11.4884 1.0266 -5.9837 0.9494
11.3514 2.0450 -5.9837 0.9494
9.9240 5.8780 -5.9837 0.9494
8.7246 7.5444 -5.9837 0.9494
7.2487 8.9718 -5.9837 0.9494
5.5393 10.1079 -5.9796 0.9494
1.6222 11.1227 -5.8313 0.9506
0.6258 11.2229 -5.8313 0.9506
-0.3756 11.2341 -5.8313 0.9506
-1.3740 11.1561 -5.8313 0.9506
-2.3615 10.9895 -5.8313 0.9506
-3.3303 10.7357 -5.8313 0.9506
-7.0470 9.1311 -5.9837 0.9494
-8.5543 7.7369 -5.9837 0.9494
-9.7906 6.0976 -5.9837 0.9494
-1.0665 0.5389 -0.6199 0.9946
-1.1070 0.4406 -0.6181 0.9946
-1.1266 0.3358 -0.6099 0.9947
-1.1332 0.2303 -0.5999 0.9948
-1.1198 -0.3888 -0.6150 0.9947
-1.0898 -0.4910 -0.6201 0.9946
-9.2670 -6.3615 -5.8313 0.9506
-8.6641 -7.1610 -5.8313 0.9506
9.4064 -6.1534 -5.8313 0.9506
10.9775 -3.5398 -5.9837 0.9494
11.2490 -2.5487 -5.9837 0.9494
11.5227 0.5138 -5.9837 0.9494
10.9775 3.5398 -5.9837 0.9494
10.6189 4.5028 -5.9837 0.9494
10.1760 5.4301 -5.9837 0.9494
9.6523 6.3142 -5.9837 0.9494
9.0520 7.1483 -5.9837 0.9494
8.3798 7.9256 -5.9837 0.9494
7.6411 8.6400 -5.9837 0.9494
5.9882 9.8579 -5.9837 0.9494
4.0399 10.4893 -5.8313 0.9506
2.1161 11.0394 -5.8313 0.9506
1.1251 11.1839 -5.8313 0.9506
-1.8696 11.0838 -5.8313 0.9506
-2.8487 10.8734 -5.8313 0.9506
-4.7315 10.1960 -5.8313 0.9506
-8.8905 7.3482 -5.9837 0.9494
-10.0525 5.6554 -5.9837 0.9494
-1.0898 0.4910 -0.6201 0.9946
-1.1198 0.3889 -0.6150 0.9947
-1.1785 -0.0263 -0.6115 0.9947
-1.1649 -0.1303 -0.6081 0.9947
-1.1266 -0.3358 -0.6099 0.9947
-1.0665 -0.5389 -0.6199 0.9946
10.2678 -4.9045 -5.9032 0.9500
11.1243 -3.0473 -5.9837 0.9494
11.3514 -2.0451 -5.9837 0.9494
2.0429 0.0000 -1.1189 0.9907
2.0356 0.1819 -1.1193 0.9907
2.0004 0.5480 -1.1360 0.9906
1.9714 0.7342 -1.1522 0.9905
9.8581 4.7088 -5.9837 0.9514
9.3999 5.5676 -5.9837 0.9514
8.8671 6.3821 -5.9837 0.9514
7.5950 7.8532 -5.9837 0.9514
6.0823 9.0754 -5.9837 0.9514
5.2504 9.5807 -5.9837 0.9514
3.3801 10.0959 -5.8313 0.9526
2.4681 10.3567 -5.8313 0.9526
-0.3558 10.6408 -5.8313 0.9526
-3.1544 10.1687 -5.8313 0.9526
-4.0469 9.8476 -5.8313 0.9526
-5.0294 9.6834 -5.9763 0.9515
-5.8786 9.2086 -5.9837 0.9514
-7.4181 8.0204 -5.9837 0.9514
-8.1026 7.3283 -5.9837 0.9514
-8.7227 6.5781 -5.9837 0.9514
-9.2735 5.7756 -5.9837 0.9514
-0.9364 0.4732 -0.5746 0.9952
-0.9638 0.3836 -0.5681 0.9953
-1.0415 0.0232 -0.5706 0.9953
-0.9847 -0.2463 -0.5559 0.9954
-0.9472 -0.4268 -0.5690 0.9953
-0.9240 -0.5198 -0.5806 0.9952
-7.5702 -7.4863 -5.8313 0.9526
-6.8739 -8.1304 -5.8313 0.9526
7.7351 -7.3158 -5.8313 0.9526
8.3556 -6.5983 -5.8313 0.9526
9.5281 -5.0843 -5.9151 0.9519
2.0434 -0.0911 -1.1203 0.9907
2.0434 0.0911 -1.1203 0.9907
2.0226 0.2720 -1.1178 0.9907
8.5740 6.7708 -5.9837 0.9514
7.2376 8.1837 -5.9837 0.9514
5.6719 9.3373 -5.9837 0.9514
0.1186 10.6461 -5.8313 0.9526
-7.0535 8.3429 -5.9837 0.9514
-7.7681 7.6820 -5.9837 0.9514
-8.4210 6.9601 -5.9837 0.9514
-0.9756 0.3388 -0.5656 0.9953
-0.9847 0.2463 -0.5559 0.9954
-1.0166 0.1599 -0.5637 0.9953
-1.0000 -0.2033 -0.5589 0.9954
-0.9638 -0.3836 -0.5681 0.9953
-0.9364 -0.4732 -0.5746 0.9952
-9.2729 -5.7752 -5.9832 0.9514
-8.5005 -6.4105 -5.8313 0.9526
-7.8962 -7.1417 -5.8313 0.9526
9.1605 -5.4258 -5.8313 0.9526
2.0004 -0.5480 -1.1360 0.9906
2.0356 -0.1819 -1.1193 0.9907
1.8754 0.0000 -1.0828 0.9914
1.7869 0.6655 -1.1009 0.9912
1.7194 0.8213 -1.1001 0.9912
8.9172 5.2817 -5.9837 0.9533
7.8395 6.7791 -5.9837 0.9533
7.2050 7.4499 -5.9837 0.9533
6.5133 8.0616 -5.9837 0.9533
5.7699 8.6093 -5.9837 0.9533
4.1520 9.4960 -5.9837 0.9533
3.2871 9.8181 -5.9777 0.9533
1.4576 9.9943 -5.8313 0.9544
0.5623 10.0844 -5.8313 0.9544
-0.3375 10.0944 -5.8313 0.9544
-1.2346 10.0243 -5.8313 0.9544
-2.1219 9.8746 -5.8313 0.9544
-3.0147 9.7184 -5.8747 0.9541
-3.9358 9.5772 -5.9781 0.9533
-6.3321 8.2047 -5.9837 0.9533
-7.6865 6.9520 -5.9837 0.9533
-0.8760 0.4427 -0.5667 0.9955
-0.8932 0.3555 -0.5550 0.9956
-0.9012 0.2686 -0.5429 0.9957
-0.9237 0.1033 -0.5366 0.9957
-0.9306 0.0207 -0.5374 0.9957
-0.9273 -0.0621 -0.5366 0.9957
-0.9189 -0.1445 -0.5370 0.9957
-0.9030 -0.2259 -0.5374 0.9957
-0.8858 -0.3991 -0.5609 0.9955
-0.8638 -0.4859 -0.5722 0.9954
-7.7851 -6.4346 -5.8313 0.9544
-5.8085 -8.2627 -5.8313 0.9544
6.6911 -7.5658 -5.8313 0.9544
7.3379 -6.9402 -5.8313 0.9544
1.7564 -0.7448 -1.1014 0.9912
1.8755 -0.0836 -1.0839 0.9914
1.8316 0.4150 -1.0843 0.9914
1.7564 0.7448 -1.1014 0.9912
1.6860 0.8997 -1.1034 0.9912
8.1337 6.4231 -5.9837 0.9533
6.8660 7.7635 -5.9837 0.9533
6.1477 8.3438 -5.9837 0.9533
4.5709 9.3016 -5.9837 0.9533
1.9014 9.9195 -5.8313 0.9544
0.1125 10.0994 -5.8313 0.9544
-1.6799 9.9594 -5.8313 0.9544
-2.5597 9.7703 -5.8313 0.9544
-4.3608 9.3972 -5.9812 0.9533
-5.9603 8.4787 -5.9837 0.9533
-7.3692 7.2875 -5.9837 0.9533
-7.9886 6.6027 -5.9837 0.9533
-8.5445 5.8655 -5.9837 0.9533
-0.8858 0.3991 -0.5609 0.9955
-0.9030 0.2259 -0.5374 0.9957
-0.9273 0.0621 -0.5366 0.9957
-0.8491 -0.5288 -0.5776 0.9954
-8.2271 -6.2044 -5.9492 0.9535
-7.4907 -6.7750 -5.8313 0.9544
6.3474 -7.8563 -5.8313 0.9544
7.6398 -6.6064 -5.8313 0.9544
8.1975 -5.9002 -5.8313 0.9544
1.7194 -0.8213 -1.1001 0.9912
1.8267 -0.5004 -1.0935 0.9913
1.8700 -0.1671 -1.0839 0.9914
