ply
format ascii 1.0
element vertex 1173
property float32 x
property float32 y
property float32 z
property float32 I
end_header
-17.9133 -6.2202 -2.6868 0.9263
-17.0850 -7.6981 -2.6551 0.9271
18.2760 -4.1408 -2.6551 0.9271
19.7655 -0.8814 -2.8033 0.9232
-15.4493 10.6054 -2.6551 0.9271
18.4423 -3.3225 -2.6551 0.9271
18.7587 -1.6763 -2.6685 0.9267
16.9747 1.5169 -2.8075 0.9332
16.4368 4.5025 -2.8075 0.9332
15.9708 5.9476 -2.8075 0.9332
15.3781 7.3455 -2.8075 0.9332
14.6633 8.6851 -2.8075 0.9332
12.8910 11.1473 -2.8075 0.9332
11.8428 12.2454 -2.8064 0.9333
10.1289 12.5367 -2.6551 0.9368
8.9729 13.3885 -2.6551 0.9368
-12.8979 9.7267 -2.6613 0.9366
-14.4661 9.0096 -2.8075 0.9332
-16.7008 3.3946 -2.8075 0.9332
-16.9367 1.8947 -2.8075 0.9332
-17.0381 0.3797 -2.8075 0.9332
-17.0043 -1.1383 -2.8075 0.9332
-16.8355 -2.6473 -2.8075 0.9332
-16.5330 -4.1352 -2.8075 0.9332
-16.0994 -5.5903 -2.8075 0.9332
-14.0468 -7.9026 -2.6551 0.9368
15.3395 -4.9463 -2.6551 0.9368
15.7188 -3.5614 -2.6551 0.9368
17.0254 -0.7592 -2.8075 0.9332
17.0254 0.7592 -2.8075 0.9332
16.2199 5.2303 -2.8075 0.9332
15.0356 8.0232 -2.8075 0.9332
13.3748 10.5620 -2.8075 0.9332
12.3817 11.7105 -2.8075 0.9332
10.7447 12.1492 -2.6719 0.9364
-11.4599 11.3330 -2.6551 0.9368
-14.0188 9.6233 -2.8012 0.9334
-16.0994 5.5903 -2.8075 0.9332
-16.5330 4.1352 -2.8075 0.9332
-16.8355 2.6473 -2.8075 0.9332
-17.0043 1.1383 -2.8075 0.9332
-17.0381 -0.3797 -2.8075 0.9332
-15.5928 -6.2058 -2.7647 0.9342
16.1332 -2.9065 -2.7006 0.9357
16.9747 -1.5169 -2.8075 0.9332
14.8776 1.3295 -2.8075 0.9410
13.9977 5.2128 -2.8075 0.9410
12.8517 7.6121 -2.8075 0.9410
11.2984 9.7701 -2.8075 0.9410
7.8644 11.7344 -2.6551 0.9441
6.7887 12.3878 -2.6551 0.9441
-8.6306 11.1830 -2.6551 0.9441
-11.9258 8.9936 -2.8075 0.9410
-12.6789 7.8965 -2.8075 0.9410
-14.6375 2.9752 -2.8075 0.9410
-14.8442 1.6606 -2.8075 0.9410
-14.9331 0.3328 -2.8075 0.9410
-14.9035 -0.9977 -2.8075 0.9410
-14.7555 -2.3202 -2.8075 0.9410
-14.4905 -3.6243 -2.8075 0.9410
-11.6461 -7.9946 -2.6551 0.9441
13.0051 -5.5147 -2.6551 0.9441
14.5469 -3.2959 -2.8036 0.9411
14.8036 -1.9909 -2.8075 0.9410
14.9220 -0.6654 -2.8075 0.9410
14.8036 1.9909 -2.8075 0.9410
14.2160 4.5841 -2.8075 0.9410
13.7516 5.8312 -2.8075 0.9410
12.4998 8.1770 -2.8075 0.9410
10.8520 10.2637 -2.8075 0.9410
8.3793 11.3724 -2.6551 0.9441
7.3338 12.0731 -2.6551 0.9441
6.2301 12.6779 -2.6551 0.9441
-9.1202 10.7874 -2.6551 0.9441
-12.3145 8.4535 -2.8075 0.9410
-13.0181 7.3238 -2.8075 0.9410
-13.6183 6.1361 -2.8075 0.9410
-14.9035 0.9977 -2.8075 0.9410
-14.9331 -0.3328 -2.8075 0.9410
-14.8443 -1.6606 -2.8075 0.9410
-14.6375 -2.9752 -2.8075 0.9410
-14.3146 -4.2662 -2.8075 0.9410
-11.9907 -7.4679 -2.6551 0.9441
13.8640 -3.7978 -2.7019 0.9432
14.7002 -2.6484 -2.8075 0.9410
14.8776 -1.3295 -2.8075 0.9410
13.2820 0.0000 -2.8075 0.9471
13.0715 2.3550 -2.8075 0.9471
9.2335 9.5474 -2.8075 0.9471
8.3471 10.3313 -2.8075 0.9471
7.2223 10.7764 -2.7422 0.9483
6.0366 11.0154 -2.6551 0.9499
3.9879 11.9111 -2.6551 0.9499
-9.8506 8.9094 -2.8075 0.9471
-10.6045 7.9972 -2.8075 0.9471
-11.2742 7.0216 -2.8075 0.9471
-12.3405 4.9114 -2.8075 0.9471
-12.7287 3.7936 -2.8075 0.9471
-13.1208 -2.0632 -2.8075 0.9471
-12.8850 -3.2228 -2.8075 0.9471
-12.1095 -5.4563 -2.8075 0.9471
-11.0581 -6.2212 -2.6820 0.9494
-9.6820 -8.0024 -2.6551 0.9499
10.5116 -6.8764 -2.6551 0.9499
11.5643 -4.9037 -2.6551 0.9499
13.1635 -1.7703 -2.8075 0.9471
13.2688 -0.5917 -2.8075 0.9471
13.2688 0.5917 -2.8075 0.9471
13.1635 1.7703 -2.8075 0.9471
12.2280 5.1851 -2.8075 0.9471
10.4237 8.2315 -2.8075 0.9471
7.8702 10.6816 -2.8046 0.9472
5.5399 11.2733 -2.6551 0.9499
-4.2523 11.8193 -2.6551 0.9499
-6.2805 10.8781 -2.6551 0.9499
-10.9502 7.5169 -2.8075 0.9471
-13.1208 2.0631 -2.8075 0.9471
-13.2523 0.8871 -2.8075 0.9471
-13.1996 -1.4766 -2.8075 0.9471
-13.0158 -2.6456 -2.8075 0.9471
-12.3405 -4.9114 -2.8075 0.9471
10.8075 -6.4013 -2.6551 0.9499
11.3344 -5.4140 -2.6551 0.9499
11.9286 -4.4422 -2.6906 0.9493
13.0715 -2.3550 -2.8075 0.9471
11.9458 0.0000 -2.8075 0.9521
11.5214 3.1560 -2.8075 0.9521
10.7793 5.1488 -2.8075 0.9521
10.2782 6.0878 -2.8075 0.9521
9.6956 6.9784 -2.8075 0.9521
7.5074 9.2920 -2.8075 0.9521
5.6754 10.3562 -2.7755 0.9526
4.5260 10.3511 -2.6551 0.9546
2.6190 10.9896 -2.6551 0.9546
-1.3810 11.2126 -2.6551 0.9546
-2.3735 11.0452 -2.6551 0.9546
-4.2942 10.4494 -2.6551 0.9546
-7.2899 9.4458 -2.8042 0.9522
-8.1113 8.7698 -2.8075 0.9521
-10.6619 5.3877 -2.8075 0.9521
-11.4482 3.4119 -2.8075 0.9521
-11.7064 2.3794 -2.8075 0.9521
-11.8718 1.3281 -2.8075 0.9521
-11.8008 -1.8556 -2.8075 0.9521
-11.5888 -2.8986 -2.8075 0.9521
-10.8913 -4.9074 -2.8075 0.9521
-10.4048 -5.8536 -2.8058 0.9521
-8.0328 -7.9438 -2.6551 0.9546
9.9671 -5.3186 -2.6551 0.9546
10.9711 -4.6522 -2.8007 0.9522
11.3693 -3.6661 -2.8075 0.9521
11.8392 -1.5922 -2.8075 0.9521
11.9340 -0.5322 -2.8075 0.9521
11.9340 0.5321 -2.8075 0.9521
10.5392 5.6239 -2.8075 0.9521
9.9968 6.5396 -2.8075 0.9521
9.3751 7.4034 -2.8075 0.9521
8.6789 8.2085 -2.8075 0.9521
7.9139 8.9483 -2.8075 0.9521
7.0860 9.6172 -2.8075 0.9521
6.1952 10.1988 -2.8045 0.9522
5.0284 10.2325 -2.6796 0.9542
2.1268 11.0954 -2.6551 0.9546
1.1308 11.2406 -2.6551 0.9546
0.1259 11.2967 -2.6551 0.9546
-0.8801 11.2630 -2.6551 0.9546
-1.8791 11.1400 -2.6551 0.9546
-3.8245 10.6303 -2.6551 0.9546
-4.7555 10.2477 -2.6551 0.9546
-5.6487 9.7838 -2.6551 0.9546
-7.7126 9.1224 -2.8075 0.9521
-9.2078 7.6104 -2.8075 0.9521
-10.4113 5.8573 -2.8075 0.9521
-10.8913 4.9074 -2.8075 0.9521
-11.9191 0.7979 -2.8075 0.9521
-11.7064 -2.3794 -2.8075 0.9521
-10.6619 -5.3877 -2.8075 0.9521
-8.3787 -7.5781 -2.6551 0.9546
-7.6710 -8.2938 -2.6551 0.9546
9.1693 -6.5996 -2.6551 0.9546
9.7203 -5.7573 -2.6551 0.9546
10.2804 -4.9105 -2.6776 0.9543
11.1947 -4.1690 -2.8075 0.9521
11.5214 -3.1560 -2.8075 0.9521
11.7565 -2.1181 -2.8075 0.9521
11.8984 -1.0632 -2.8075 0.9521
10.8003 0.9651 -2.8075 0.9562
10.4581 2.8648 -2.8075 0.9562
10.1616 3.7842 -2.8075 0.9562
9.3296 5.5260 -2.8075 0.9562
8.2021 7.0926 -2.8075 0.9562
7.5382 7.7945 -2.8075 0.9562
4.3364 9.9177 -2.8026 0.9563
2.3773 9.9754 -2.6551 0.9585
1.4800 10.1474 -2.6551 0.9585
0.5709 10.2389 -2.6551 0.9585
-3.9922 9.7146 -2.7194 0.9575
-4.9873 9.6024 -2.8016 0.9563
-5.8346 9.1398 -2.8075 0.9562
-7.3627 7.9605 -2.8075 0.9562
-8.0420 7.2736 -2.8075 0.9562
-8.6575 6.5289 -2.8075 0.9562
-9.2042 5.7324 -2.8075 0.9562
-9.6779 4.8905 -2.8075 0.9562
-10.0748 4.0097 -2.8075 0.9562
-10.6261 2.1599 -2.8075 0.9562
-10.7762 1.2055 -2.8075 0.9562
-10.5193 -2.6311 -2.8075 0.9562
-10.2434 -3.5569 -2.8075 0.9562
-9.4505 -5.3167 -2.8075 0.9562
-8.9196 -6.1229 -2.8012 0.9563
-7.9044 -6.5331 -2.6551 0.9585
-7.2915 -7.2107 -2.6551 0.9585
-6.6208 -7.8311 -2.6551 0.9585
6.7936 -7.6816 -2.6551 0.9585
7.4503 -7.0465 -2.6551 0.9585
8.0479 -6.3554 -2.6551 0.9585
8.5816 -5.6139 -2.6551 0.9585
9.5150 -5.0773 -2.7924 0.9564
9.9829 -4.2331 -2.8075 0.9562
10.5753 -2.3961 -2.8075 0.9562
10.7466 -1.4453 -2.8075 0.9562
10.8326 -0.4830 -2.8075 0.9562
10.8326 0.4830 -2.8075 0.9562
10.7466 1.4453 -2.8075 0.9562
9.9829 4.2331 -2.8075 0.9562
9.5666 5.1049 -2.8075 0.9562
8.5099 6.7202 -2.8075 0.9562
7.8780 7.4509 -2.8075 0.9562
7.1835 8.1225 -2.8075 0.9562
6.4321 8.7297 -2.8075 0.9562
5.6296 9.2675 -2.8075 0.9562
4.7816 9.7303 -2.8071 0.9562
3.8526 10.0031 -2.7754 0.9567
1.9305 10.0714 -2.6551 0.9585
-2.5989 9.9200 -2.6551 0.9585
-3.4979 9.7227 -2.6753 0.9582
-4.5037 9.7052 -2.7702 0.9568
-7.0008 8.2806 -2.8075 0.9562
-7.7100 7.6246 -2.8075 0.9562
-9.4504 5.3167 -2.8075 0.9562
-10.5193 2.6311 -2.8075 0.9562
-10.8407 -0.2416 -2.8075 0.9562
-10.6261 -2.1598 -2.8075 0.9562
-10.3917 -3.0970 -2.8075 0.9562
-10.0748 -4.0097 -2.8075 0.9562
-9.2042 -5.7324 -2.8075 0.9562
-8.2511 -6.2224 -2.6757 0.9582
-6.2653 -8.1182 -2.6551 0.9585
8.3231 -5.9906 -2.6551 0.9585
9.7775 -4.6703 -2.8055 0.9562
10.1616 -3.7842 -2.8075 0.9562
9.5650 2.6201 -2.8075 0.9596
9.2938 3.4611 -2.8075 0.9596
8.9489 4.2745 -2.8075 0.9596
8.5329 5.0541 -2.8075 0.9596
7.5016 6.4869 -2.8075 0.9596
6.8945 7.1288 -2.8075 0.9596
6.2326 7.7142 -2.8075 0.9596
3.9731 9.0868 -2.8075 0.9596
3.1486 9.4043 -2.8075 0.9596
1.4211 9.7437 -2.7876 0.9599
0.5417 9.7148 -2.7545 0.9604
-2.9346 9.4601 -2.8040 0.9597
-6.0592 7.8512 -2.8075 0.9596
-6.7340 7.2807 -2.8075 0.9596
-8.4182 5.2429 -2.8075 0.9596
-9.2144 3.6673 -2.8075 0.9596
-9.5043 2.8326 -2.8075 0.9596
-9.7187 1.9754 -2.8075 0.9596
-9.9149 0.2209 -2.8075 0.9596
-9.6210 -2.4064 -2.8075 0.9596
-9.3686 -3.2531 -2.8075 0.9596
-8.1763 -5.6127 -2.8075 0.9596
-7.5100 -6.2071 -2.7582 0.9603
-6.0554 -7.1623 -2.6551 0.9618
-4.6895 -8.1225 -2.6551 0.9618
4.8693 -8.0160 -2.6551 0.9618
6.2134 -7.0256 -2.6551 0.9618
6.8141 -6.4447 -2.6551 0.9618
8.2115 -5.3717 -2.7778 0.9600
8.7496 -4.6689 -2.8075 0.9596
9.8289 -1.3219 -2.8075 0.9596
9.9075 -0.4418 -2.8075 0.9596
9.8289 1.3219 -2.8075 0.9596
9.6722 2.1914 -2.8075 0.9596
7.7832 6.1463 -2.8075 0.9596
6.5701 7.4289 -2.8075 0.9596
5.1488 8.4761 -2.8075 0.9596
4.3740 8.9007 -2.8075 0.9596
2.7244 9.5278 -2.8053 0.9596
1.8625 9.7167 -2.8008 0.9597
0.1082 9.7104 -2.7491 0.9604
-0.7586 9.7076 -2.7565 0.9603
-2.5085 9.5748 -2.8020 0.9597
-6.4029 7.5734 -2.8075 0.9596
-7.6443 6.3182 -2.8075 0.9596
-8.1763 5.6127 -2.8075 0.9596
-9.0419 4.0741 -2.8075 0.9596
-9.3687 3.2531 -2.8075 0.9596
-9.8952 0.6624 -2.8075 0.9596
-9.8559 -1.1025 -2.8075 0.9596
-9.7187 -1.9754 -2.8075 0.9596
-9.2144 -3.6673 -2.8075 0.9596
-8.8515 -4.4728 -2.8075 0.9596
-7.9079 -5.9637 -2.8039 0.9597
-6.9560 -6.2913 -2.6551 0.9618
-6.3684 -6.8855 -2.6551 0.9618
-5.7303 -7.4250 -2.6551 0.9618
-5.0467 -7.9055 -2.6551 0.9618
-4.3230 -8.3233 -2.6551 0.9618
5.2216 -7.7911 -2.6551 0.9618
6.5202 -6.7419 -2.6551 0.9618
7.0944 -6.1348 -2.6551 0.9618
8.5225 -5.0479 -2.8041 0.9597
8.9489 -4.2745 -2.8075 0.9596
9.2938 -3.4611 -2.8075 0.9596
9.1279 0.0000 -2.8075 0.9625
8.8036 2.4116 -2.8075 0.9625
7.4084 5.3323 -2.8075 0.9625
5.0817 7.5825 -2.8075 0.9625
4.3867 8.0047 -2.8075 0.9625
3.6568 8.3634 -2.8075 0.9625
-0.3050 9.1228 -2.8075 0.9625
-1.1158 9.0594 -2.8075 0.9625
-1.9177 8.9242 -2.8075 0.9625
-2.7044 8.7181 -2.8075 0.9625
-3.4696 8.4428 -2.8075 0.9625
-4.2073 8.1004 -2.8075 0.9625
-4.9116 7.6938 -2.8075 0.9625
-8.7476 2.6071 -2.8075 0.9625
-9.1256 0.2034 -2.8075 0.9625
-9.1075 -0.6097 -2.8075 0.9625
-9.0171 -1.4179 -2.8075 0.9625
-8.3221 -3.7498 -2.8075 0.9625
-7.9553 -4.4756 -2.8075 0.9625
-4.9645 -7.0621 -2.6551 0.9645
-4.3162 -7.4759 -2.6551 0.9645
-3.6337 -7.8304 -2.6551 0.9645
-2.9223 -8.1227 -2.6551 0.9645
-2.1878 -8.3506 -2.6551 0.9645
2.3732 -8.2998 -2.6551 0.9645
3.1025 -8.0556 -2.6551 0.9645
4.4817 -7.3779 -2.6551 0.9645
5.1206 -6.9497 -2.6551 0.9645
7.0756 -5.5875 -2.7731 0.9630
8.0531 -4.2973 -2.8075 0.9625
8.4036 -3.5634 -2.8075 0.9625
8.6874 -2.8013 -2.8075 0.9625
8.9022 -2.0170 -2.8075 0.9625
9.0464 -1.2166 -2.8075 0.9625
9.1188 -0.4066 -2.8075 0.9625
8.9022 2.0170 -2.8075 0.9625
7.6386 4.9970 -2.8075 0.9625
7.1636 5.6570 -2.8075 0.9625
6.6316 6.2721 -2.8075 0.9625
5.4145 7.3486 -2.8075 0.9625
3.2806 8.5180 -2.8075 0.9625
0.9137 9.0820 -2.8075 0.9625
-3.0900 8.5889 -2.8075 0.9625
-3.8422 8.2798 -2.8075 0.9625
-4.5639 7.9050 -2.8075 0.9625
-6.4902 6.4183 -2.8075 0.9625
-7.9553 4.4756 -2.8075 0.9625
-9.0171 1.4179 -2.8075 0.9625
-9.1256 -0.2034 -2.8075 0.9625
-9.0713 -1.0148 -2.8075 0.9625
-8.9450 -1.8181 -2.8075 0.9625
-8.4809 -3.3753 -2.8075 0.9625
-6.7550 -6.1095 -2.8014 0.9626
-5.8615 -6.3373 -2.6551 0.9645
-4.6450 -7.2762 -2.6551 0.9645
-3.9789 -7.6607 -2.6551 0.9645
-3.2813 -7.9845 -2.6551 0.9645
3.4583 -7.9094 -2.6551 0.9645
4.1486 -7.5702 -2.6551 0.9645
6.5779 -5.6881 -2.6748 0.9643
7.3971 -5.3241 -2.8032 0.9626
8.5540 -3.1855 -2.8075 0.9625
8.9833 -1.6184 -2.8075 0.9625
8.4461 -0.0000 -2.8075 0.9650
8.3123 1.4975 -2.8075 0.9650
8.1460 2.2314 -2.8075 0.9650
7.2671 4.3043 -2.8075 0.9650
6.8551 4.9340 -2.8075 0.9650
6.3888 5.5246 -2.8075 0.9650
4.7022 7.0162 -2.8075 0.9650
4.0591 7.4068 -2.8075 0.9650
3.3837 7.7387 -2.8075 0.9650
1.9580 8.2160 -2.8075 0.9650
1.2189 8.3577 -2.8075 0.9650
0.4702 8.4330 -2.8075 0.9650
-0.2822 8.4414 -2.8075 0.9650
-1.7745 8.2576 -2.8075 0.9650
-2.5024 8.0669 -2.8075 0.9650
-3.8930 7.4954 -2.8075 0.9650
-5.1603 6.6864 -2.8075 0.9650
-6.2641 5.6655 -2.8075 0.9650
-6.7435 5.0855 -2.8075 0.9650
-8.2769 1.6824 -2.8075 0.9650
-8.3938 0.9390 -2.8075 0.9650
-8.4273 -0.5641 -2.8075 0.9650
-8.3436 -1.3120 -2.8075 0.9650
-7.7005 -3.4697 -2.8075 0.9650
-7.3612 -4.1413 -2.8075 0.9650
-5.2560 -6.2169 -2.7061 0.9663
-4.5937 -6.5346 -2.6551 0.9669
-3.9938 -6.9175 -2.6551 0.9669
-3.3623 -7.2455 -2.6551 0.9669
-2.7041 -7.5160 -2.6551 0.9669
-1.3286 -7.8764 -2.6551 0.9669
0.0890 -7.9872 -2.6551 0.9669
3.5229 -7.1688 -2.6551 0.9669
5.2917 -5.9834 -2.6551 0.9669
6.0781 -5.7486 -2.7809 0.9654
7.0681 -4.6238 -2.8075 0.9650
7.7759 -3.2973 -2.8075 0.9650
8.2373 -1.8663 -2.8075 0.9650
8.4377 -0.3763 -2.8075 0.9650
8.4377 0.3762 -2.8075 0.9650
8.2373 1.8663 -2.8075 0.9650
8.0385 2.5921 -2.8075 0.9650
7.7759 3.2973 -2.8075 0.9650
7.0681 4.6237 -2.8075 0.9650
6.1363 5.8037 -2.8075 0.9650
4.3850 7.2187 -2.8075 0.9650
3.7251 7.5803 -2.8075 0.9650
3.0356 7.8818 -2.8075 0.9650
2.3220 8.1207 -2.8075 0.9650
0.8454 8.4037 -2.8075 0.9650
-0.6580 8.4205 -2.8075 0.9650
-2.8593 7.9474 -2.8075 0.9650
-3.5553 7.6614 -2.8075 0.9650
-7.3612 4.1413 -2.8075 0.9650
-7.7005 3.4697 -2.8075 0.9650
-8.1937 2.0494 -2.8075 0.9650
-8.4273 0.5641 -2.8075 0.9650
-8.3938 -0.9390 -2.8075 0.9650
-8.0943 -2.4124 -2.8075 0.9650
-7.8475 -3.1232 -2.8075 0.9650
-7.5383 -3.8093 -2.8075 0.9650
-6.2641 -5.6655 -2.8075 0.9650
-5.7199 -6.1843 -2.8002 0.9651
-3.0362 -7.3881 -2.6551 0.9669
-1.6781 -7.8094 -2.6551 0.9669
-0.9764 -7.9277 -2.6551 0.9669
0.4447 -7.9753 -2.6551 0.9669
1.8517 -7.7701 -2.6551 0.9669
3.2000 -7.3187 -2.6551 0.9669
3.8387 -7.0048 -2.6551 0.9669
6.3783 -5.5156 -2.8030 0.9651
7.6213 -3.6404 -2.8075 0.9650
8.4126 -0.7518 -2.8075 0.9650
7.8509 0.0000 -2.8075 0.9672
7.8197 0.6988 -2.8075 0.9672
7.3573 2.7399 -2.8075 0.9672
7.0842 3.3838 -2.8075 0.9672
6.7549 4.0010 -2.8075 0.9672
4.9339 6.1068 -2.8075 0.9672
3.7730 6.8849 -2.8075 0.9672
1.8200 7.6370 -2.8075 0.9672
1.1330 7.7687 -2.8075 0.9672
0.4371 7.8387 -2.8075 0.9672
-0.2623 7.8465 -2.8075 0.9672
-0.9597 7.7920 -2.8075 0.9672
-2.9842 7.2616 -2.8075 0.9672
-3.6187 6.9672 -2.8075 0.9672
-4.7967 6.2152 -2.8075 0.9672
-6.6641 4.1505 -2.8075 0.9672
-7.2944 2.9031 -2.8075 0.9672
-7.8022 0.8728 -2.8075 0.9672
-7.8490 0.1749 -2.8075 0.9672
-7.8334 -0.5244 -2.8075 0.9672
-7.4165 -2.5753 -2.8075 0.9672
-6.4726 -4.4432 -2.8075 0.9672
-6.0515 -5.0017 -2.8075 0.9672
-5.5823 -5.5204 -2.8075 0.9672
-5.0615 -5.9868 -2.8035 0.9672
-4.3689 -6.2149 -2.7167 0.9682
-3.1253 -6.7349 -2.6551 0.9690
-2.5135 -6.9864 -2.6551 0.9690
-1.8817 -7.1823 -2.6551 0.9690
-0.5784 -7.4022 -2.6551 0.9690
0.0827 -7.4243 -2.6551 0.9690
0.7432 -7.3875 -2.6551 0.9690
3.2746 -6.6636 -2.6551 0.9690
5.1871 -5.8651 -2.8000 0.9673
5.7022 -5.3931 -2.8067 0.9672
6.1614 -4.8656 -2.8075 0.9672
6.5700 -4.2979 -2.8075 0.9672
7.2279 -3.0649 -2.8075 0.9672
7.4720 -2.4094 -2.8075 0.9672
7.7809 -1.0464 -2.8075 0.9672
7.8431 -0.3497 -2.8075 0.9672
7.4720 2.4094 -2.8075 0.9672
6.1614 4.8656 -2.8075 0.9672
5.7039 5.3947 -2.8075 0.9672
4.6570 6.3205 -2.8075 0.9672
4.0760 6.7099 -2.8075 0.9672
3.4626 7.0461 -2.8075 0.9672
2.8217 7.3263 -2.8075 0.9672
2.1584 7.5484 -2.8075 0.9672
0.0875 7.8504 -2.8075 0.9672
-1.9897 7.5946 -2.8075 0.9672
-2.6578 7.3874 -2.8075 0.9672
-3.3047 7.1215 -2.8075 0.9672
-3.9255 6.7991 -2.8075 0.9672
-4.5150 6.4227 -2.8075 0.9672
-5.0688 5.9954 -2.8075 0.9672
-6.0515 5.0017 -2.8075 0.9672
-7.4165 2.5753 -2.8075 0.9672
-7.7556 1.2195 -2.8075 0.9672
-7.8334 0.5244 -2.8075 0.9672
-7.8490 -0.1749 -2.8075 0.9672
-7.6936 -1.5638 -2.8075 0.9672
-3.9951 -6.2583 -2.6551 0.9690
-2.1998 -7.0914 -2.6551 0.9690
-0.9076 -7.3691 -2.6551 0.9690
-0.2481 -7.4206 -2.6551 0.9690
0.4134 -7.4132 -2.6551 0.9690
1.0715 -7.3470 -2.6551 0.9690
2.3572 -7.0406 -2.6551 0.9690
2.9745 -6.8029 -2.6551 0.9690
3.5682 -6.5111 -2.6551 0.9690
4.7905 -5.9293 -2.7259 0.9681
5.4495 -5.6348 -2.8032 0.9672
6.3720 -4.5863 -2.8075 0.9672
6.7549 -4.0010 -2.8075 0.9672
7.5720 -2.0742 -2.8075 0.9672
7.7265 -1.3920 -2.8075 0.9672
7.8197 -0.6988 -2.8075 0.9672
7.3262 0.0000 -2.8075 0.9691
7.2101 1.2990 -2.8075 0.9691
7.0659 1.9356 -2.8075 0.9691
6.6108 3.1577 -2.8075 0.9691
6.3035 3.7336 -2.8075 0.9691
4.6042 5.6987 -2.8075 0.9691
3.5208 6.4247 -2.8075 0.9691
1.0573 7.2495 -2.8075 0.9691
0.4079 7.3149 -2.8075 0.9691
-0.2448 7.3221 -2.8075 0.9691
-0.8955 7.2713 -2.8075 0.9691
-2.1706 6.9973 -2.8075 0.9691
-2.7848 6.7763 -2.8075 0.9691
-3.9421 6.1752 -2.8075 0.9691
-4.9745 5.3784 -2.8075 0.9691
-5.8493 4.4112 -2.8075 0.9691
-6.2187 3.8731 -2.8075 0.9691
-6.5388 3.3042 -2.8075 0.9691
-7.0210 2.0925 -2.8075 0.9691
-7.2808 0.8145 -2.8075 0.9691
-7.3244 0.1632 -2.8075 0.9691
-7.2373 -1.1380 -2.8075 0.9691
-7.1073 -1.7777 -2.8075 0.9691
-6.9209 -2.4032 -2.8075 0.9691
-6.6795 -3.0096 -2.8075 0.9691
-5.2092 -5.1515 -2.8075 0.9691
-4.2073 -5.9850 -2.8036 0.9691
-2.9165 -6.2848 -2.6551 0.9708
-1.7559 -6.7023 -2.6551 0.9708
-1.1524 -6.8320 -2.6551 0.9708
0.6935 -6.8937 -2.6551 0.9708
2.4902 -6.4656 -2.6551 0.9708
4.3361 -5.8850 -2.8013 0.9692
5.7496 -4.5404 -2.8075 0.9691
6.1309 -4.0107 -2.8075 0.9691
6.4636 -3.4491 -2.8075 0.9691
7.3189 0.3264 -2.8075 0.9691
6.9727 2.2484 -2.8075 0.9691
6.7449 2.8601 -2.8075 0.9691
6.4636 3.4491 -2.8075 0.9691
5.7496 4.5404 -2.8075 0.9691
3.2312 6.5752 -2.8075 0.9691
2.6331 6.8367 -2.8075 0.9691
1.3792 7.1952 -2.8075 0.9691
0.7333 7.2894 -2.8075 0.9691
0.0816 7.3258 -2.8075 0.9691
-0.5707 7.3040 -2.8075 0.9691
-1.2186 7.2242 -2.8075 0.9691
-2.4801 6.8936 -2.8075 0.9691
-4.7300 5.5947 -2.8075 0.9691
-5.2092 5.1515 -2.8075 0.9691
-5.6470 4.6674 -2.8075 0.9691
-6.0400 4.1463 -2.8075 0.9691
-6.6795 3.0096 -2.8075 0.9691
-7.1073 1.7777 -2.8075 0.9691
-7.3099 0.4893 -2.8075 0.9691
-7.3244 -0.1632 -2.8075 0.9691
-7.1794 -1.4593 -2.8075 0.9691
-6.2188 -3.8731 -2.8075 0.9691
-5.8493 -4.4112 -2.8075 0.9691
-5.4335 -4.9143 -2.8075 0.9691
-2.0528 -6.6175 -2.6551 0.9708
-1.4556 -6.7739 -2.6551 0.9708
-0.8469 -6.8766 -2.6551 0.9708
-0.2315 -6.9247 -2.6551 0.9708
0.3857 -6.9178 -2.6551 0.9708
0.9999 -6.8560 -2.6551 0.9708
1.6062 -6.7398 -2.6551 0.9708
2.1997 -6.5701 -2.6551 0.9708
2.7757 -6.3482 -2.6551 0.9708
4.0250 -6.0057 -2.7706 0.9695
5.9462 -4.2798 -2.8075 0.9691
6.3035 -3.7336 -2.8075 0.9691
6.6108 -3.1577 -2.8075 0.9691
7.0659 -1.9356 -2.8075 0.9691
7.2101 -1.2990 -2.8075 0.9691
7.2971 -0.6521 -2.8075 0.9691
6.7511 1.2163 -2.8075 0.9708
6.4285 2.3940 -2.8075 0.9708
6.1899 2.9567 -2.8075 0.9708
5.9022 3.4959 -2.8075 0.9708
5.1888 4.4870 -2.8075 0.9708
4.7689 4.9310 -2.8075 0.9708
3.8190 5.6984 -2.8075 0.9708
3.2967 6.0157 -2.8075 0.9708
2.1779 6.5049 -2.8075 0.9708
1.5902 6.6729 -2.8075 0.9708
0.9900 6.7880 -2.8075 0.9708
0.3819 6.8492 -2.8075 0.9708
-1.4412 6.7067 -2.8075 0.9708
-2.0324 6.5518 -2.8075 0.9708
-3.1618 6.0877 -2.8075 0.9708
-5.0876 4.6014 -2.8075 0.9708
-6.1225 3.0938 -2.8075 0.9708
-6.3736 2.5366 -2.8075 0.9708
-6.5740 1.9593 -2.8075 0.9708
-2.1365 0.4343 -0.8923 0.9906
-2.1261 0.2378 -0.8756 0.9908
-2.1345 -0.3356 -0.8843 0.9907
-6.4802 -2.2502 -2.8075 0.9708
-5.9786 -3.3635 -2.8075 0.9708
-5.2875 -4.3702 -2.8075 0.9708
-4.8776 -4.8235 -2.8075 0.9708
-3.4261 -5.9342 -2.8044 0.9708
-2.8771 -6.2000 -2.7974 0.9709
-2.2368 -6.2173 -2.7042 0.9718
-0.5054 -6.4677 -2.6551 0.9724
1.2213 -6.3714 -2.6551 0.9724
2.3677 -6.1476 -2.6962 0.9719
4.0691 -5.5226 -2.8075 0.9708
5.3836 -4.2514 -2.8075 0.9708
5.7406 -3.7553 -2.8075 0.9708
6.0520 -3.2295 -2.8075 0.9708
6.3155 -2.6780 -2.8075 0.9708
6.5288 -2.1053 -2.8075 0.9708
6.6902 -1.5158 -2.8075 0.9708
6.8530 -0.3056 -2.8075 0.9708
6.7986 0.9143 -2.8075 0.9708
6.6902 1.5158 -2.8075 0.9708
6.0520 3.2295 -2.8075 0.9708
4.9838 4.7136 -2.8075 0.9708
4.5445 5.1385 -2.8075 0.9708
4.0691 5.5226 -2.8075 0.9708
3.0254 6.1566 -2.8075 0.9708
0.6866 6.8253 -2.8075 0.9708
0.0764 6.8594 -2.8075 0.9708
-0.5344 6.8389 -2.8075 0.9708
-1.7385 6.6358 -2.8075 0.9708
-2.3222 6.4548 -2.8075 0.9708
-2.8875 6.2225 -2.8075 0.9708
-3.4299 5.9408 -2.8075 0.9708
-5.9786 3.3635 -2.8075 0.9708
-6.2542 2.8180 -2.8075 0.9708
-6.4802 2.2502 -2.8075 0.9708
-2.1308 0.5329 -0.8989 0.9906
-2.1345 0.3356 -0.8843 0.9907
-2.1285 -0.0474 -0.8714 0.9908
-2.1261 -0.2378 -0.8756 0.9908
-2.1365 -0.4343 -0.8923 0.9906
-6.1225 -3.0938 -2.8075 0.9708
-4.6578 -5.0360 -2.8075 0.9708
-4.1911 -5.4306 -2.8075 0.9708
-3.6904 -5.7810 -2.8070 0.9708
-1.9308 -6.2241 -2.6671 0.9722
-1.3630 -6.3426 -2.6551 0.9724
-0.7930 -6.4388 -2.6551 0.9724
0.3612 -6.4774 -2.6551 0.9724
0.9363 -6.4195 -2.6551 0.9724
2.0666 -6.1725 -2.6641 0.9723
2.6764 -6.1211 -2.7342 0.9715
3.8161 -5.6941 -2.8054 0.9708
4.7689 -4.9310 -2.8075 0.9708
6.6161 -1.8123 -2.8075 0.9708
6.7511 -1.2163 -2.8075 0.9708
6.8326 -0.6106 -2.8075 0.9708
6.4165 0.5734 -2.8075 0.9723
6.3400 1.1422 -2.8075 0.9723
6.2131 1.7020 -2.8075 0.9723
6.0370 2.2482 -2.8075 0.9723
5.2285 3.7633 -2.8075 0.9723
4.8728 4.2137 -2.8075 0.9723
3.5865 5.3514 -2.8075 0.9723
3.0959 5.6493 -2.8075 0.9723
2.5808 5.9025 -2.8075 0.9723
2.0452 6.1087 -2.8075 0.9723
1.4934 6.2665 -2.8075 0.9723
0.3586 6.4320 -2.8075 0.9723
-0.2153 6.4384 -2.8075 0.9723
-0.7875 6.3937 -2.8075 0.9723
-1.3534 6.2982 -2.8075 0.9723
-1.9086 6.1528 -2.8075 0.9723
-2.4487 5.9585 -2.8075 0.9723
-2.9693 5.7169 -2.8075 0.9723
-3.4663 5.4299 -2.8075 0.9723
-3.9359 5.0999 -2.8075 0.9723
-4.3742 4.7293 -2.8075 0.9723
-5.7496 2.9054 -2.8075 0.9723
-1.8741 0.5585 -0.8523 0.9915
-1.9300 0.3923 -0.8583 0.9914
-1.9433 0.2174 -0.8522 0.9915
-1.9470 0.0434 -0.8487 0.9915
-1.9479 -0.1304 -0.8508 0.9915
-5.3111 -3.6458 -2.8075 0.9723
-4.5805 -4.5297 -2.8075 0.9723
-4.1592 -4.9195 -2.8075 0.9723
-3.7048 -5.2701 -2.8075 0.9723
-3.2210 -5.5790 -2.8075 0.9723
-2.7102 -5.8403 -2.8060 0.9723
-2.1769 -6.0507 -2.8024 0.9723
-1.6245 -6.2007 -2.7936 0.9724
-1.0475 -6.2098 -2.7446 0.9729
-0.4856 -6.2150 -2.7168 0.9732
0.0692 -6.2155 -2.7090 0.9732
1.1866 -6.1905 -2.7470 0.9729
1.7615 -6.1604 -2.7924 0.9724
2.8390 -5.7771 -2.8054 0.9723
3.3445 -5.5058 -2.8075 0.9723
3.8213 -5.1863 -2.8075 0.9723
4.2677 -4.8256 -2.8075 0.9723
4.6803 -4.4266 -2.8075 0.9723
5.6835 -3.0328 -2.8075 0.9723
5.9308 -2.5149 -2.8075 0.9723
6.2828 -1.4235 -2.8075 0.9723
6.3845 -0.8586 -2.8075 0.9723
6.4356 -0.2870 -2.8075 0.9723
6.4356 0.2870 -2.8075 0.9723
6.3845 0.8586 -2.8075 0.9723
6.2828 1.4235 -2.8075 0.9723
6.1311 1.9770 -2.8075 0.9723
5.6835 3.0328 -2.8075 0.9723
5.0557 3.9924 -2.8075 0.9723
4.2677 4.8256 -2.8075 0.9723
3.8213 5.1863 -2.8075 0.9723
3.3445 5.5058 -2.8075 0.9723
2.3153 6.0116 -2.8075 0.9723
1.7711 6.1938 -2.8075 0.9723
1.2128 6.3268 -2.8075 0.9723
0.6448 6.4097 -2.8075 0.9723
0.0718 6.4416 -2.8075 0.9723
-0.5019 6.4224 -2.8075 0.9723
-1.6326 6.2317 -2.8075 0.9723
-2.7117 5.8435 -2.8075 0.9723
-3.7048 5.2701 -2.8075 0.9723
-4.5805 4.5298 -2.8075 0.9723
-4.9655 4.1041 -2.8075 0.9723
-5.8733 2.6464 -2.8075 0.9723
-1.8290 0.6351 -0.8438 0.9916
-1.9433 -0.2174 -0.8522 0.9915
-5.9854 -2.3821 -2.8075 0.9723
-5.7496 -2.9054 -2.8075 0.9723
-4.7777 -4.3212 -2.8075 0.9723
-3.9359 -5.0999 -2.8075 0.9723
-3.4663 -5.4299 -2.8075 0.9723
-2.9693 -5.7169 -2.8075 0.9723
-2.4457 -5.9512 -2.8041 0.9723
-1.9041 -6.1384 -2.8010 0.9723
-0.7652 -6.2129 -2.7281 0.9731
0.3464 -6.2116 -2.7113 0.9732
1.4718 -6.1760 -2.7670 0.9727
2.0403 -6.0942 -2.8008 0.9723
2.5772 -5.8943 -2.8037 0.9723
3.0956 -5.6487 -2.8072 0.9723
3.5864 -5.3514 -2.8075 0.9723
4.0485 -5.0109 -2.8075 0.9723
4.4784 -4.6307 -2.8075 0.9723
6.0370 -2.2482 -2.8075 0.9723
6.3400 -1.1422 -2.8075 0.9723
6.4165 -0.5734 -2.8075 0.9723
6.0653 0.0000 -2.8075 0.9736
5.6840 2.1167 -2.8075 0.9736
5.4730 2.6142 -2.8075 0.9736
5.2186 3.0910 -2.8075 0.9736
4.9228 3.5432 -2.8075 0.9736
4.2166 4.3599 -2.8075 0.9736
3.8118 4.7179 -2.8075 0.9736
3.3767 5.0384 -2.8075 0.9736
1.9256 5.7515 -2.8075 0.9736
1.4061 5.9001 -2.8075 0.9736
0.8753 6.0018 -2.8075 0.9736
-1.2743 5.9299 -2.8075 0.9736
-4.1184 4.4527 -2.8075 0.9736
-4.8426 3.6520 -2.8075 0.9736
-5.4134 2.7355 -2.8075 0.9736
-1.5924 0.4746 -0.7692 0.9927
-1.6373 0.3328 -0.7734 0.9927
-1.6675 0.1865 -0.7767 0.9926
-1.6716 0.0373 -0.7739 0.9927
-1.6738 -0.1120 -0.7765 0.9926
-1.6165 -0.4043 -0.7713 0.9927
-1.5621 -0.5424 -0.7654 0.9927
-5.5299 -2.4916 -2.8075 0.9736
-5.2862 -2.9739 -2.8075 0.9736
-5.0005 -3.4326 -2.8075 0.9736
-4.3126 -4.2649 -2.8075 0.9736
-3.4881 -4.9619 -2.8075 0.9736
-3.0326 -5.2527 -2.8075 0.9736
-2.5531 -5.5018 -2.8075 0.9736
-2.0533 -5.7072 -2.8075 0.9736
-1.5361 -5.8633 -2.8056 0.9736
-1.0075 -5.9728 -2.8038 0.9737
2.1799 -5.6600 -2.8075 0.9736
2.6750 -5.4435 -2.8075 0.9736
3.1489 -5.1839 -2.8075 0.9736
3.5978 -4.8830 -2.8075 0.9736
4.0182 -4.5434 -2.8075 0.9736
5.5840 -2.3678 -2.8075 0.9736
5.9154 -1.3402 -2.8075 0.9736
6.0593 -0.2702 -2.8075 0.9736
6.0593 0.2702 -2.8075 0.9736
6.0112 0.8084 -2.8075 0.9736
5.5840 2.3678 -2.8075 0.9736
5.3511 2.8554 -2.8075 0.9736
5.0757 3.3204 -2.8075 0.9736
4.7601 3.7590 -2.8075 0.9736
4.4066 4.1677 -2.8075 0.9736
3.5978 4.8830 -2.8075 0.9736
2.6750 5.4435 -2.8075 0.9736
2.1799 5.6600 -2.8075 0.9736
0.6071 6.0349 -2.8075 0.9736
0.0676 6.0649 -2.8075 0.9736
-1.5372 5.8673 -2.8075 0.9736
-2.0533 5.7072 -2.8075 0.9736
-2.5531 5.5018 -2.8075 0.9736
-3.4881 4.9619 -2.8075 0.9736
-4.3126 4.2649 -2.8075 0.9736
-5.0005 3.4327 -2.8075 0.9736
-5.2862 2.9740 -2.8075 0.9736
-1.6165 0.4043 -0.7713 0.9927
-1.6738 0.1120 -0.7765 0.9926
-1.6675 -0.1865 -0.7767 0.9926
-1.6373 -0.3328 -0.7734 0.9927
-5.4134 -2.7355 -2.8075 0.9736
-4.8426 -3.6520 -2.8075 0.9736
-4.1184 -4.4527 -2.8075 0.9736
-3.7057 -4.8016 -2.8075 0.9736
-3.2636 -5.1124 -2.8075 0.9736
-1.7966 -5.7915 -2.8068 0.9736
-1.2729 -5.9237 -2.8046 0.9736
-0.2023 -6.0509 -2.8024 0.9737
0.3371 -6.0450 -2.8025 0.9737
0.8740 -5.9926 -2.8032 0.9737
2.4299 -5.5573 -2.8075 0.9736
2.9149 -5.3190 -2.8075 0.9736
3.3767 -5.0384 -2.8075 0.9736
4.5879 -3.9673 -2.8075 0.9736
4.9228 -3.5432 -2.8075 0.9736
5.2186 -3.0910 -2.8075 0.9736
5.4730 -2.6142 -2.8075 0.9736
6.0412 -0.5398 -2.8075 0.9736
5.7236 -0.0000 -2.8075 0.9748
5.7008 0.5094 -2.8075 0.9748
5.5202 1.5121 -2.8075 0.9748
5.3637 1.9975 -2.8075 0.9748
5.1646 2.4669 -2.8075 0.9748
4.9246 2.9168 -2.8075 0.9748
4.3294 3.7438 -2.8075 0.9748
3.1865 4.7545 -2.8075 0.9748
2.2930 5.2442 -2.8075 0.9748
1.8171 5.4275 -2.8075 0.9748
0.3186 5.7147 -2.8075 0.9748
-1.2025 5.5958 -2.8075 0.9748
-2.6381 5.0793 -2.8075 0.9748
-3.0798 4.8243 -2.8075 0.9748
-3.4969 4.5311 -2.8075 0.9748
-4.5698 3.4462 -2.8075 0.9748
-5.1084 2.5814 -2.8075 0.9748
-1.3536 0.0302 -0.6641 0.9940
-1.3257 -0.2085 -0.6583 0.9940
-1.3171 -0.4573 -0.6839 0.9938
-1.2865 -0.5797 -0.6922 0.9937
-4.4117 -3.6464 -2.8075 0.9748
-3.2916 -4.6824 -2.8075 0.9748
-1.9376 -5.3856 -2.8075 0.9748
-1.4506 -5.5367 -2.8075 0.9748
-0.9520 -5.6438 -2.8075 0.9748
0.0638 -5.7232 -2.8075 0.9748
0.5729 -5.6948 -2.8075 0.9748
2.5243 -5.1368 -2.8075 0.9748
2.9715 -4.8918 -2.8075 0.9748
3.7918 -4.2874 -2.8075 0.9748
4.4918 -3.5472 -2.8075 0.9748
4.7897 -3.1333 -2.8075 0.9748
5.2694 -2.2344 -2.8075 0.9748
5.4474 -1.7565 -2.8075 0.9748
5.5821 -1.2647 -2.8075 0.9748
5.6725 -0.7629 -2.8075 0.9748
5.7179 -0.2550 -2.8075 0.9748
5.6725 0.7629 -2.8075 0.9748
5.5821 1.2647 -2.8075 0.9748
5.2694 2.2344 -2.8075 0.9748
5.0496 2.6945 -2.8075 0.9748
4.7897 3.1333 -2.8075 0.9748
4.1583 3.9329 -2.8075 0.9748
2.9715 4.8918 -2.8075 0.9748
2.5243 5.1368 -2.8075 0.9748
1.5735 5.5030 -2.8075 0.9748
0.0638 5.7232 -2.8075 0.9748
-3.6953 4.3708 -2.8075 0.9748
-4.0697 4.0246 -2.8075 0.9748
-4.4117 3.6464 -2.8075 0.9748
-4.7187 3.2392 -2.8075 0.9748
-4.9883 2.8064 -2.8075 0.9748
-1.2865 0.5797 -0.6922 0.9937
-1.3171 0.4573 -0.6839 0.9938
-1.3149 0.3289 -0.6649 0.9940
-1.3513 0.0905 -0.6643 0.9940
-1.3536 -0.0302 -0.6641 0.9940
-1.3419 -0.1501 -0.6624 0.9940
-1.3047 -0.2652 -0.6531 0.9941
-1.3200 -0.3934 -0.6756 0.9939
-3.8863 -4.2019 -2.8075 0.9748
-3.4969 -4.5311 -2.8075 0.9748
-3.0798 -4.8243 -2.8075 0.9748
-1.2025 -5.5958 -2.8075 0.9748
-0.1913 -5.7204 -2.8075 0.9748
0.8260 -5.6636 -2.8075 0.9748
1.8171 -5.4275 -2.8075 0.9748
2.2930 -5.2442 -2.8075 0.9748
3.5970 -4.4521 -2.8075 0.9748
4.6454 -3.3436 -2.8075 0.9748
4.9246 -2.9168 -2.8075 0.9748
5.1646 -2.4669 -2.8075 0.9748
5.5202 -1.5121 -2.8075 0.9748
5.7008 -0.5094 -2.8075 0.9748
5.3903 0.4817 -2.8075 0.9759
5.2195 1.4298 -2.8075 0.9759
5.0716 1.8887 -2.8075 0.9759
4.8833 2.3326 -2.8075 0.9759
3.7623 3.8901 -2.8075 0.9759
3.0129 4.4956 -2.8075 0.9759
2.6008 4.7459 -2.8075 0.9759
2.1681 4.9585 -2.8075 0.9759
1.7181 5.1318 -2.8075 0.9759
-0.6615 5.3712 -2.8075 0.9759
-2.0571 5.0056 -2.8075 0.9759
-2.4944 4.8027 -2.8075 0.9759
-3.3065 4.2843 -2.8075 0.9759
-3.6747 3.9730 -2.8075 0.9759
-4.3209 3.2585 -2.8075 0.9759
-4.5937 2.8610 -2.8075 0.9759
-1.0665 0.5389 -0.6199 0.9946
-1.1070 0.4406 -0.6181 0.9946
-1.1266 0.3358 -0.6099 0.9947
-1.1332 0.2303 -0.5999 0.9948
-1.1785 0.0263 -0.6115 0.9947
-1.1517 -0.1811 -0.6048 0.9948
-1.1198 -0.3888 -0.6150 0.9947
-4.7166 -2.6535 -2.8075 0.9759
-4.4617 -3.0628 -2.8075 0.9759
-3.8480 -3.8054 -2.8075 0.9759
-3.4940 -4.1328 -2.8075 0.9759
-2.7059 -4.6868 -2.8075 0.9759
-2.2780 -4.9090 -2.8075 0.9759
-1.3715 -5.2351 -2.8075 0.9759
-0.9001 -5.3364 -2.8075 0.9759
-0.4216 -5.3954 -2.8075 0.9759
0.0603 -5.4115 -2.8075 0.9759
0.5417 -5.3846 -2.8075 0.9759
1.4878 -5.2033 -2.8075 0.9759
1.9450 -5.0502 -2.8075 0.9759
2.3868 -4.8570 -2.8075 0.9759
2.8097 -4.6253 -2.8075 0.9759
3.2102 -4.3569 -2.8075 0.9759
3.5852 -4.0539 -2.8075 0.9759
4.9824 -2.1127 -2.8075 0.9759
5.1507 -1.6609 -2.8075 0.9759
5.3635 -0.7213 -2.8075 0.9759
5.4064 -0.2411 -2.8075 0.9759
5.4065 0.2411 -2.8075 0.9759
5.3635 0.7213 -2.8075 0.9759
5.2780 1.1958 -2.8075 0.9759
4.9824 2.1127 -2.8075 0.9759
4.7746 2.5478 -2.8075 0.9759
4.2472 3.3540 -2.8075 0.9759
3.9318 3.7187 -2.8075 0.9759
3.2102 4.3569 -2.8075 0.9759
2.8097 4.6253 -2.8075 0.9759
1.9451 5.0502 -2.8075 0.9759
1.0188 5.3151 -2.8075 0.9759
0.5417 5.3846 -2.8075 0.9759
-1.3715 5.2351 -2.8075 0.9759
-1.8321 5.0923 -2.8075 0.9759
-2.2780 4.9090 -2.8075 0.9759
-4.1714 3.4478 -2.8075 0.9759
-1.0898 0.4910 -0.6201 0.9946
-1.1198 0.3889 -0.6150 0.9947
-1.1275 0.2820 -0.6029 0.9948
-1.1517 0.1811 -0.6048 0.9948
-1.1739 0.0786 -0.6103 0.9947
-1.1332 -0.2303 -0.5999 0.9948
-1.1266 -0.3358 -0.6099 0.9947
-1.1070 -0.4406 -0.6181 0.9946
-1.0665 -0.5389 -0.6199 0.9946
-4.5937 -2.8610 -2.8075 0.9759
-4.0137 -3.6302 -2.8075 0.9759
-3.3065 -4.2843 -2.8075 0.9759
-2.4944 -4.8027 -2.8075 0.9759
-0.6615 -5.3712 -2.8075 0.9759
-0.1808 -5.4088 -2.8075 0.9759
0.3013 -5.4034 -2.8075 0.9759
0.7810 -5.3552 -2.8075 0.9759
1.7181 -5.1318 -2.8075 0.9759
3.0129 -4.4956 -2.8075 0.9759
3.7623 -3.8902 -2.8075 0.9759
4.3924 -3.1615 -2.8075 0.9759
4.6563 -2.7579 -2.8075 0.9759
5.0716 -1.8887 -2.8075 0.9759
5.2195 -1.4298 -2.8075 0.9759
5.3261 -0.9595 -2.8075 0.9759
5.3903 -0.4817 -2.8075 0.9759
2.0429 0.0000 -1.1189 0.9907
2.0036 0.3610 -1.1150 0.9908
2.0004 0.5480 -1.1360 0.9906
4.6254 2.2094 -2.8075 0.9769
4.1604 2.9945 -2.8075 0.9769
2.8538 4.2582 -2.8075 0.9769
2.4635 4.4953 -2.8075 0.9769
2.0536 4.6967 -2.8075 0.9769
1.6274 4.8608 -2.8075 0.9769
0.7398 5.0724 -2.8075 0.9769
-0.6266 5.0876 -2.8075 0.9769
-1.5187 4.8959 -2.8075 0.9769
-1.9484 4.7413 -2.8075 0.9769
-2.3627 4.5490 -2.8075 0.9769
-2.7582 4.3207 -2.8075 0.9769
-3.4806 3.7632 -2.8075 0.9769
-3.8017 3.4385 -2.8075 0.9769
-4.3511 2.7099 -2.8075 0.9769
-0.9364 0.4732 -0.5746 0.9952
-0.9638 0.3836 -0.5681 0.9953
-1.0415 0.0232 -0.5706 0.9953
-1.0376 -0.0695 -0.5696 0.9953
-0.9472 -0.4268 -0.5690 0.9953
-4.2261 -2.9011 -2.8075 0.9769
-3.9511 -3.2657 -2.8075 0.9769
-3.6448 -3.6044 -2.8075 0.9769
-2.5630 -4.4393 -2.8075 0.9769
-1.7353 -4.8234 -2.8075 0.9769
-0.8526 -5.0546 -2.8075 0.9769
-0.3993 -5.1104 -2.8075 0.9769
0.0571 -5.1257 -2.8075 0.9769
0.9650 -5.0344 -2.8075 0.9769
2.2608 -4.6005 -2.8075 0.9769
3.0407 -4.1268 -2.8075 0.9769
3.3959 -3.8398 -2.8075 0.9769
3.7242 -3.5223 -2.8075 0.9769
4.0229 -3.1769 -2.8075 0.9769
1.9407 -0.8229 -1.1546 0.9904
2.0041 -0.4541 -1.1255 0.9907
2.0226 -0.2720 -1.1178 0.9907
2.0434 -0.0911 -1.1203 0.9907
2.0226 0.2720 -1.1178 0.9907
2.0041 0.4541 -1.1255 0.9907
1.9895 0.6415 -1.1449 0.9905
4.2897 2.8062 -2.8075 0.9769
4.0229 3.1768 -2.8075 0.9769
1.4093 4.9285 -2.8075 0.9769
0.9650 5.0344 -2.8075 0.9769
0.5131 5.1003 -2.8075 0.9769
0.0571 5.1257 -2.8075 0.9769
-0.3993 5.1104 -2.8075 0.9769
-1.2991 4.9587 -2.8075 0.9769
-2.5630 4.4393 -2.8075 0.9769
-2.9480 4.1935 -2.8075 0.9769
-3.3095 3.9145 -2.8075 0.9769
-3.6447 3.6044 -2.8075 0.9769
-4.2261 2.9011 -2.8075 0.9769
-0.9472 0.4268 -0.5690 0.9953
-0.9847 0.2463 -0.5559 0.9954
-0.9638 -0.3836 -0.5681 0.9953
-4.3511 -2.7099 -2.8075 0.9769
-4.0927 -3.0864 -2.8075 0.9769
-3.8017 -3.4385 -2.8075 0.9769
-3.4806 -3.7632 -2.8075 0.9769
-3.1318 -4.0580 -2.8075 0.9769
-2.3627 -4.5490 -2.8075 0.9769
-1.5187 -4.8959 -2.8075 0.9769
-1.0769 -5.0116 -2.8075 0.9769
-0.6266 -5.0876 -2.8075 0.9769
-0.1713 -5.1232 -2.8075 0.9769
1.6274 -4.8608 -2.8075 0.9769
3.5636 -3.6847 -2.8075 0.9769
3.8774 -3.3529 -2.8075 0.9769
4.4104 -2.6123 -2.8075 0.9769
1.9714 -0.7342 -1.1522 0.9905
2.0004 -0.5480 -1.1360 0.9906
1.8700 0.1671 -1.0839 0.9914
1.8426 0.3320 -1.0810 0.9914
1.8267 0.5004 -1.0935 0.9913
1.7194 0.8213 -1.1001 0.9912
4.1840 2.4782 -2.8075 0.9778
3.9468 2.8407 -2.8075 0.9778
3.6783 3.1807 -2.8075 0.9778
2.7073 4.0395 -2.8075 0.9778
2.3370 4.2644 -2.8075 0.9778
1.1273 4.7303 -2.8075 0.9778
0.2707 4.8553 -2.8075 0.9778
-0.1625 4.8601 -2.8075 0.9778
-0.5944 4.8263 -2.8075 0.9778
-1.0216 4.7543 -2.8075 0.9778
-2.9710 3.8497 -2.8075 0.9778
-3.3019 3.5699 -2.8075 0.9778
-3.6065 3.2619 -2.8075 0.9778
-0.8491 0.5288 -0.5776 0.9954
-0.8932 0.3555 -0.5550 0.9956
-0.9012 0.2686 -0.5429 0.9957
-0.9120 0.1854 -0.5373 0.9957
-0.9237 0.1033 -0.5366 0.9957
-0.9189 -0.1445 -0.5370 0.9957
-0.8984 -0.3119 -0.5490 0.9956
-4.0091 -2.7521 -2.8075 0.9778
-3.4576 -3.4193 -2.8075 0.9778
-2.0469 -4.4110 -2.8075 0.9778
0.0542 -4.8625 -2.8075 0.9778
0.4867 -4.8384 -2.8075 0.9778
0.9155 -4.7759 -2.8075 0.9778
1.3369 -4.6754 -2.8075 0.9778
1.7477 -4.5379 -2.8075 0.9778
2.1447 -4.3643 -2.8075 0.9778
3.2215 -3.6426 -2.8075 0.9778
3.8163 -3.0137 -2.8075 0.9778
4.0694 -2.6621 -2.8075 0.9778
1.7564 -0.7448 -1.1014 0.9912
1.8108 -0.5839 -1.0985 0.9913
1.8316 -0.4150 -1.0843 0.9914
1.8592 -0.2500 -1.0831 0.9914
1.8592 0.2500 -1.0831 0.9914
1.8108 0.5839 -1.0985 0.9913
3.8163 3.0137 -2.8075 0.9778
3.5329 3.3414 -2.8075 0.9778
3.2215 3.6426 -2.8075 0.9778
2.8845 3.9149 -2.8075 0.9778
2.5246 4.1561 -2.8075 0.9778
2.1447 4.3643 -2.8075 0.9778
0.4867 4.8384 -2.8075 0.9778
-0.8088 4.7951 -2.8075 0.9778
-1.2324 4.7040 -2.8075 0.9778
-3.1396 3.7135 -2.8075 0.9778
-3.4576 3.4193 -2.8075 0.9778
-3.7482 3.0980 -2.8075 0.9778
-0.8983 0.3119 -0.5490 0.9956
-0.9273 0.0621 -0.5366 0.9957
-0.9306 -0.0207 -0.5374 0.9957
-0.9237 -0.1033 -0.5366 0.9957
-0.9012 -0.2686 -0.5429 0.9957
-0.8932 -0.3555 -0.5550 0.9956
-3.6065 -3.2619 -2.8075 0.9778
-2.6166 -4.0988 -2.8075 0.9778
-1.8484 -4.4978 -2.8075 0.9778
-1.4407 -4.6445 -2.8075 0.9778
-1.0216 -4.7543 -2.8075 0.9778
-0.5944 -4.8263 -2.8075 0.9778
0.7018 -4.8119 -2.8075 0.9778
1.5438 -4.6112 -2.8075 0.9778
2.3370 -4.2644 -2.8075 0.9778
2.7073 -4.0395 -2.8075 0.9778
3.0560 -3.7825 -2.8075 0.9778
1.7194 -0.8213 -1.1001 0.9912
1.7869 -0.6654 -1.1009 0.9912
1.8267 -0.5004 -1.0935 0.9913
1.8426 -0.3320 -1.0810 0.9914
1.8700 -0.1671 -1.0839 0.9914
