ply
format ascii 1.0
element vertex 488
property float32 x
property float32 y
property float32 z
property float32 I
end_header
13.2168 13.6661 -5.8476 0.9235
11.9480 14.7882 -5.8476 0.9235
-16.1378 10.0507 -5.8476 0.9235
-17.9598 -6.2363 -5.8476 0.9235
-17.3335 -7.8101 -5.8476 0.9235
18.8421 -2.5340 -5.8476 0.9235
12.5949 14.2413 -5.8476 0.9235
-15.6741 10.7596 -5.8476 0.9235
18.7105 -3.3709 -5.8476 0.9235
18.9363 -1.6922 -5.8476 0.9235
17.9786 1.6066 -6.0000 0.9267
17.4089 4.7688 -6.0000 0.9267
16.9154 6.2994 -6.0000 0.9267
14.6501 10.5445 -6.0000 0.9267
13.6534 11.8066 -6.0000 0.9267
-13.0470 11.8003 -5.8476 0.9285
-14.0455 10.5922 -5.8476 0.9285
-15.3093 9.5347 -5.9952 0.9268
-17.2983 5.1555 -6.0000 0.9267
-17.6885 3.5954 -6.0000 0.9267
-18.0099 -1.2056 -6.0000 0.9267
-16.0388 -7.2267 -5.8476 0.9285
17.1569 -3.8873 -5.8476 0.9285
17.4348 -2.3448 -5.8476 0.9285
18.0323 0.8041 -6.0000 0.9267
16.6180 7.0466 -6.0000 0.9267
15.1053 9.8814 -6.0000 0.9267
14.1658 11.1866 -6.0000 0.9267
11.6542 13.1776 -5.8476 0.9285
-13.5597 11.2074 -5.8476 0.9285
-14.5034 9.9560 -5.8476 0.9285
-15.7315 8.8504 -6.0000 0.9267
-17.0515 5.9209 -6.0000 0.9267
-18.0458 -0.4021 -6.0000 0.9267
-17.9383 -2.0067 -6.0000 0.9267
-16.3448 -6.5051 -5.8476 0.9285
17.9756 -1.6063 -5.9990 0.9267
16.7782 0.0000 -6.0000 0.9312
16.5123 2.9748 -6.0000 0.9312
15.7233 5.8554 -6.0000 0.9312
15.1397 7.2316 -6.0000 0.9312
9.1036 13.5835 -5.8476 0.9329
-12.1275 10.9687 -5.8476 0.9329
-13.0556 9.8457 -5.8476 0.9329
-14.9748 7.5671 -6.0000 0.9312
-15.5889 6.2043 -6.0000 0.9312
-16.4420 3.3420 -6.0000 0.9312
-16.6742 1.8653 -6.0000 0.9312
-16.7407 -1.1207 -6.0000 0.9312
-16.5745 -2.6062 -6.0000 0.9312
-16.2768 -4.0711 -6.0000 0.9312
-14.9085 -6.7175 -5.8476 0.9329
-14.2515 -8.0177 -5.8476 0.9329
15.5629 -5.0184 -5.8476 0.9329
15.9478 -3.6133 -5.8476 0.9329
16.6260 -2.2360 -5.9991 0.9312
16.7615 0.7474 -6.0000 0.9312
15.9685 5.1492 -6.0000 0.9312
12.1897 11.5290 -6.0000 0.9312
10.8329 12.2489 -5.8476 0.9329
-11.6268 11.4980 -5.8476 0.9329
-16.2768 4.0711 -6.0000 0.9312
-16.5745 2.6062 -6.0000 0.9312
-16.7407 1.1207 -6.0000 0.9312
-16.0793 -4.7921 -6.0000 0.9312
-15.5693 -6.1964 -5.9924 0.9313
-14.5945 -7.3749 -5.8476 0.9329
16.1421 -2.9082 -5.8655 0.9327
15.6569 0.0000 -6.0000 0.9351
15.4088 2.7760 -6.0000 0.9351
12.7076 9.1464 -6.0000 0.9351
11.8431 10.2411 -6.0000 0.9351
8.4952 12.6757 -5.8476 0.9367
-12.4946 9.4226 -5.9971 0.9352
-13.9741 7.0614 -6.0000 0.9351
-15.0047 4.4719 -6.0000 0.9351
-15.3431 3.1186 -6.0000 0.9351
-15.6219 -1.0458 -6.0000 0.9351
-15.4668 -2.4320 -6.0000 0.9351
-15.1890 -3.7990 -6.0000 0.9351
-13.9122 -6.2685 -5.8476 0.9367
14.0484 -5.9570 -5.8476 0.9367
14.5228 -4.6830 -5.8476 0.9367
15.6413 0.6975 -6.0000 0.9351
14.9013 4.8051 -6.0000 0.9351
14.4145 6.1123 -6.0000 0.9351
13.8133 7.3710 -6.0000 0.9351
13.1024 8.5712 -6.0000 0.9351
12.2875 9.7033 -6.0000 0.9351
-9.8518 11.6527 -5.8476 0.9367
-10.8498 10.7296 -5.8476 0.9367
-13.6456 7.6769 -6.0000 0.9351
-15.6219 1.0458 -6.0000 0.9351
-15.6530 -0.3488 -6.0000 0.9351
-15.0047 -4.4719 -6.0000 0.9351
-14.5455 -5.7890 -5.9993 0.9351
14.2998 -5.3253 -5.8476 0.9367
14.7170 -4.0314 -5.8476 0.9367
15.4059 -2.7755 -5.9988 0.9351
15.5947 -1.3936 -6.0000 0.9351
14.4278 2.5993 -6.0000 0.9386
14.1392 3.8731 -6.0000 0.9386
12.6135 7.4710 -6.0000 0.9386
11.8985 8.5640 -6.0000 0.9386
10.1916 10.5380 -6.0000 0.9386
9.2030 11.3906 -5.9933 0.9387
7.9544 11.8687 -5.8476 0.9401
-10.7382 9.7121 -5.9258 0.9393
-11.7048 8.8270 -6.0000 0.9386
-14.0494 4.1872 -6.0000 0.9386
-2.1365 0.4343 -0.8923 0.9906
-2.1285 0.0474 -0.8714 0.9908
-2.1302 -0.1426 -0.8738 0.9908
-2.1308 -0.5329 -0.8989 0.9906
-13.8489 -4.8089 -6.0000 0.9386
-13.3558 -6.0178 -5.9955 0.9386
13.1540 -5.5778 -5.8476 0.9401
14.2940 -3.2386 -5.9984 0.9386
14.5293 -1.9540 -6.0000 0.9386
14.6455 -0.6531 -6.0000 0.9386
14.6455 0.6531 -6.0000 0.9386
14.5293 1.9540 -6.0000 0.9386
13.9526 4.4991 -6.0000 0.9386
13.4968 5.7231 -6.0000 0.9386
12.2682 8.0255 -6.0000 0.9386
8.4752 11.5026 -5.8476 0.9401
7.4177 12.2113 -5.8476 0.9401
-11.2972 9.3374 -5.9985 0.9386
-12.0864 8.2968 -6.0000 0.9386
-13.3659 6.0224 -6.0000 0.9386
-13.8489 4.8089 -6.0000 0.9386
-2.1308 0.5329 -0.8989 0.9906
-2.1302 0.1426 -0.8738 0.9908
-2.1285 -0.0474 -0.8714 0.9908
-2.1261 -0.2378 -0.8756 0.9908
-13.6210 -5.4210 -6.0000 0.9386
-12.7521 -6.4439 -5.8476 0.9401
-12.1279 -7.5533 -5.8476 0.9401
12.8924 -6.1582 -5.8476 0.9401
14.4278 -2.5993 -6.0000 0.9386
14.6019 -1.3048 -6.0000 0.9386
13.5491 2.4410 -6.0000 0.9417
13.2781 3.6373 -6.0000 0.9417
12.9017 4.8046 -6.0000 0.9417
11.8454 7.0160 -6.0000 0.9417
9.5709 9.8962 -6.0000 0.9417
8.6521 10.7088 -6.0000 0.9417
7.4699 11.1459 -5.8476 0.9431
6.4482 11.7665 -5.8476 0.9431
5.3753 12.2938 -5.8476 0.9431
-7.2198 11.3096 -5.8476 0.9431
-8.1977 10.6221 -5.8476 0.9431
-10.2105 9.2349 -6.0000 0.9417
-10.9919 8.2894 -6.0000 0.9417
-1.9300 0.3923 -0.8583 0.9914
-1.9479 -0.1304 -0.8508 0.9915
-1.9397 -0.3050 -0.8557 0.9915
-1.9080 -0.4772 -0.8571 0.9915
-1.8290 -0.6351 -0.8438 0.9916
-11.6940 -6.5789 -5.8476 0.9431
-11.0620 -7.5936 -5.8476 0.9431
11.8376 -6.3168 -5.8476 0.9431
13.7536 0.6133 -6.0000 0.9417
13.6444 1.8350 -6.0000 0.9417
13.4269 3.0422 -6.0000 0.9417
13.1029 4.2251 -6.0000 0.9417
12.6748 5.3746 -6.0000 0.9417
12.1462 6.4814 -6.0000 0.9417
10.0022 9.4600 -6.0000 0.9417
6.9660 11.4676 -5.8476 0.9431
5.9177 12.0421 -5.8476 0.9431
-9.7774 9.6691 -5.9929 0.9418
-10.6118 8.7709 -6.0000 0.9417
-11.3503 7.7915 -6.0000 0.9417
-1.9080 0.4772 -0.8571 0.9915
-1.9433 -0.2174 -0.8522 0.9915
-1.9300 -0.3923 -0.8583 0.9914
12.1073 -5.7832 -5.8476 0.9431
13.2736 -3.6360 -5.9980 0.9417
13.7126 -1.2254 -6.0000 0.9417
12.9622 0.0000 -6.0000 0.9445
12.9107 1.1537 -6.0000 0.9445
12.1472 4.5237 -6.0000 0.9445
11.6964 5.5869 -6.0000 0.9445
11.1527 6.6057 -6.0000 0.9445
10.5205 7.5722 -6.0000 0.9445
9.8048 8.4785 -6.0000 0.9445
8.1461 10.0826 -6.0000 0.9445
6.0712 11.0785 -5.8476 0.9458
4.0107 11.9794 -5.8476 0.9458
-4.8019 11.6847 -5.8476 0.9458
-5.8228 11.2110 -5.8476 0.9458
-6.7976 10.6482 -5.8476 0.9458
-7.7183 10.0009 -5.8476 0.9458
-10.3492 7.8047 -6.0000 0.9445
-1.5924 0.4746 -0.7692 0.9927
-1.6675 0.1865 -0.7767 0.9926
-1.6716 0.0373 -0.7739 0.9927
-1.6738 -0.1120 -0.7765 0.9926
-11.8179 -5.3249 -6.0000 0.9445
-11.0585 -6.2214 -5.8733 0.9456
-10.4151 -7.1496 -5.8476 0.9458
-9.7374 -8.0482 -5.8476 0.9458
12.3316 -3.9764 -5.9975 0.9445
12.8465 -1.7277 -6.0000 0.9445
12.9493 -0.5774 -6.0000 0.9445
12.9493 0.5774 -6.0000 0.9445
12.8465 1.7277 -6.0000 0.9445
12.6418 2.8643 -6.0000 0.9445
11.9336 5.0603 -6.0000 0.9445
11.4359 6.1024 -6.0000 0.9445
7.6889 10.4355 -6.0000 0.9445
6.5587 10.7970 -5.8476 0.9458
4.5404 11.7888 -5.8476 0.9458
3.4731 12.1462 -5.8476 0.9458
-7.2652 10.3348 -5.8476 0.9458
-9.2166 9.1145 -6.0000 0.9445
-10.6866 7.3359 -6.0000 0.9445
-11.8179 5.3249 -6.0000 0.9445
-1.6165 0.4043 -0.7713 0.9927
-1.6675 -0.1865 -0.7767 0.9926
-1.5924 -0.4746 -0.7692 0.9927
-11.5659 -5.8445 -5.9984 0.9445
-10.0863 -7.6064 -5.8476 0.9458
10.8694 -6.4380 -5.8476 0.9458
11.9263 -4.4414 -5.8909 0.9454
12.9107 -1.1537 -6.0000 0.9445
12.0380 2.1688 -6.0000 0.9470
11.7972 3.2316 -6.0000 0.9470
11.4628 4.2688 -6.0000 0.9470
11.0373 5.2721 -6.0000 0.9470
10.5243 6.2335 -6.0000 0.9470
6.8098 10.1609 -6.0000 0.9470
2.7636 11.5964 -5.8476 0.9483
1.7205 11.7963 -5.8476 0.9483
-3.5319 11.3859 -5.8476 0.9483
-5.4947 10.5793 -5.8476 0.9483
-6.4146 10.0482 -5.8476 0.9483
-7.4644 9.6719 -5.9929 0.9470
-8.3055 8.9798 -6.0000 0.9470
-9.0718 8.2049 -6.0000 0.9470
-9.7660 7.3649 -6.0000 0.9470
-1.3059 0.5197 -0.6895 0.9938
-1.3200 0.3934 -0.6756 0.9939
-1.3419 0.1501 -0.6624 0.9940
-1.3536 0.0302 -0.6641 0.9940
-1.3513 -0.0905 -0.6643 0.9940
-1.3257 -0.2085 -0.6583 0.9940
-1.3149 -0.3289 -0.6649 0.9940
-1.3171 -0.4573 -0.6839 0.9938
-1.2865 -0.5797 -0.6922 0.9937
-8.4764 -8.3824 -5.8476 0.9483
9.9761 -6.5261 -5.8476 0.9483
10.5174 -5.6123 -5.8476 0.9483
11.0668 -4.6927 -5.8964 0.9479
12.1227 -1.6304 -6.0000 0.9470
12.1227 1.6303 -6.0000 0.9470
11.2612 4.7752 -6.0000 0.9470
10.7915 5.7585 -6.0000 0.9470
9.5995 7.5807 -6.0000 0.9470
8.1034 9.1626 -6.0000 0.9470
7.2557 9.8475 -6.0000 0.9470
6.3436 10.4430 -5.9936 0.9470
5.2577 10.6991 -5.8476 0.9483
2.2442 11.7080 -5.8476 0.9483
-0.9287 11.8849 -5.8476 0.9483
-3.0212 11.5319 -5.8476 0.9483
-5.0180 10.8136 -5.8476 0.9483
-5.9606 10.3240 -5.8476 0.9483
-6.8558 9.7525 -5.8476 0.9483
-7.8952 9.3385 -5.9985 0.9470
-8.6973 8.6009 -6.0000 0.9470
-10.6606 5.9975 -6.0000 0.9470
-1.2865 0.5797 -0.6922 0.9937
-1.3171 0.4573 -0.6839 0.9938
-10.9171 -5.5167 -6.0000 0.9470
-9.5180 -7.1778 -5.8476 0.9483
-8.8413 -7.9965 -5.8476 0.9483
9.6755 -6.9640 -5.8476 0.9483
10.7570 -5.1382 -5.8476 0.9483
12.0380 -2.1688 -6.0000 0.9470
12.1833 -1.0887 -6.0000 0.9470
11.5656 0.0000 -6.0000 0.9492
11.5197 1.0294 -6.0000 0.9492
10.8384 4.0363 -6.0000 0.9492
9.3870 6.7563 -6.0000 0.9492
8.7484 7.5650 -6.0000 0.9492
8.0403 8.3136 -6.0000 0.9492
7.2685 8.9963 -6.0000 0.9492
5.5541 10.1349 -5.9955 0.9493
4.5157 10.3278 -5.8476 0.9505
3.5786 10.6887 -5.8476 0.9505
2.6130 10.9648 -5.8476 0.9505
1.6267 11.1538 -5.8476 0.9505
0.6275 11.2544 -5.8476 0.9505
-0.3767 11.2656 -5.8476 0.9505
-4.2845 10.4258 -5.8476 0.9505
-5.1955 10.0031 -5.8476 0.9505
-7.0662 9.1560 -6.0000 0.9492
-8.5777 7.7580 -6.0000 0.9492
-9.2341 6.9638 -6.0000 0.9492
-1.1266 0.3358 -0.6099 0.9947
-1.1332 0.2303 -0.5999 0.9948
-1.1649 0.1303 -0.6081 0.9947
-1.1739 -0.0786 -0.6103 0.9947
-1.1517 -0.1811 -0.6048 0.9948
-1.1198 -0.3888 -0.6150 0.9947
-10.0799 -5.6709 -6.0000 0.9492
-9.2930 -6.3793 -5.8476 0.9505
-8.6883 -7.1811 -5.8476 0.9505
8.8461 -6.9857 -5.8476 0.9505
9.9446 -5.3066 -5.8476 0.9505
10.6424 -4.5128 -5.9969 0.9492
11.2797 -2.5556 -6.0000 0.9492
11.4624 -1.5415 -6.0000 0.9492
11.5541 -0.5152 -6.0000 0.9492
11.5541 0.5152 -6.0000 0.9492
11.4624 1.5415 -6.0000 0.9492
11.2797 2.5556 -6.0000 0.9492
11.0075 3.5495 -6.0000 0.9492
9.6786 6.3315 -6.0000 0.9492
8.4027 7.9472 -6.0000 0.9492
7.6620 8.6635 -6.0000 0.9492
6.0045 9.8848 -6.0000 0.9492
4.0512 10.5187 -5.8476 0.9505
2.1220 11.0703 -5.8476 0.9505
0.1256 11.2711 -5.8476 0.9505
-0.8781 11.2376 -5.8476 0.9505
-2.8567 10.9039 -5.8476 0.9505
-4.7447 10.2246 -5.8476 0.9505
-7.4671 8.8321 -6.0000 0.9492
-8.9147 7.3682 -6.0000 0.9492
-1.0898 0.4910 -0.6201 0.9946
-1.1275 0.2820 -0.6029 0.9948
-1.1739 0.0786 -0.6103 0.9947
-1.1785 -0.0263 -0.6115 0.9947
-1.1649 -0.1303 -0.6081 0.9947
-1.1332 -0.2303 -0.5999 0.9948
-1.1266 -0.3358 -0.6099 0.9947
-1.1070 -0.4406 -0.6181 0.9946
-1.0665 -0.5389 -0.6199 0.9946
-8.9996 -6.7869 -5.8476 0.9505
-8.3598 -7.5610 -5.8476 0.9505
-7.6537 -8.2750 -5.8476 0.9505
8.5262 -7.3729 -5.8476 0.9505
9.6983 -5.7443 -5.8476 0.9505
10.2714 -4.9062 -5.9053 0.9500
10.8384 -4.0363 -6.0000 0.9492
11.3824 -2.0506 -6.0000 0.9492
2.0429 0.0000 -1.1189 0.9907
2.0356 0.1819 -1.1193 0.9907
2.0036 0.3610 -1.1150 0.9908
9.8850 4.7217 -6.0000 0.9513
9.4256 5.5828 -6.0000 0.9513
8.8913 6.3995 -6.0000 0.9513
7.6157 7.8746 -6.0000 0.9513
6.0989 9.1001 -6.0000 0.9513
5.2647 9.6068 -6.0000 0.9513
4.3839 10.0262 -5.9934 0.9513
3.3896 10.1242 -5.8476 0.9525
1.5408 10.5648 -5.8476 0.9525
-0.3568 10.6706 -5.8476 0.9525
-5.0384 9.7007 -5.9870 0.9514
-5.8946 9.2337 -6.0000 0.9513
-6.6931 8.6724 -6.0000 0.9513
-7.4384 8.0423 -6.0000 0.9513
-8.1247 7.3483 -6.0000 0.9513
-9.2988 5.7914 -6.0000 0.9513
-0.9638 0.3836 -0.5681 0.9953
-0.9825 0.2928 -0.5615 0.9953
-1.0415 0.0232 -0.5706 0.9953
-1.0376 -0.0695 -0.5696 0.9953
-1.0166 -0.1599 -0.5637 0.9953
-0.9847 -0.2463 -0.5559 0.9954
-0.9756 -0.3388 -0.5656 0.9953
-0.9240 -0.5198 -0.5806 0.9952
-9.0203 -6.1921 -5.9925 0.9513
-8.2295 -6.8018 -5.8476 0.9525
-7.5914 -7.5073 -5.8476 0.9525
7.7568 -7.3363 -5.8476 0.9525
9.5315 -5.0862 -5.9172 0.9519
1.9407 -0.8229 -1.1546 0.9904
2.0041 -0.4541 -1.1255 0.9907
2.0434 -0.0911 -1.1203 0.9907
2.0226 0.2720 -1.1178 0.9907
2.0041 0.4541 -1.1255 0.9907
1.9407 0.8229 -1.1546 0.9904
9.1675 5.9971 -6.0000 0.9513
8.5973 6.7893 -6.0000 0.9513
7.2574 8.2060 -6.0000 0.9513
6.4982 8.8194 -6.0000 0.9513
5.6874 9.3628 -6.0000 0.9513
3.8593 10.0205 -5.8813 0.9522
2.9352 10.2652 -5.8476 0.9525
1.0687 10.6230 -5.8476 0.9525
0.1189 10.6759 -5.8476 0.9525
-0.8317 10.6441 -5.8476 0.9525
-1.7758 10.5279 -5.8476 0.9525
-3.6143 10.0462 -5.8476 0.9525
-4.5116 9.7223 -5.8703 0.9523
-6.3001 8.9620 -6.0000 0.9513
-7.0727 8.3657 -6.0000 0.9513
-7.7893 7.7030 -6.0000 0.9513
-8.4440 6.9791 -6.0000 0.9513
-0.9240 0.5198 -0.5806 0.9952
-0.9472 0.4268 -0.5690 0.9953
-0.9756 0.3388 -0.5656 0.9953
-0.9847 0.2463 -0.5559 0.9954
-1.0166 0.1599 -0.5637 0.9953
-1.0376 0.0695 -0.5696 0.9953
-1.0415 -0.0232 -0.5706 0.9953
-1.0000 -0.2033 -0.5589 0.9954
-0.9825 -0.2928 -0.5615 0.9953
-0.9364 -0.4732 -0.5746 0.9952
-7.9183 -7.1617 -5.8476 0.9525
7.4223 -7.6746 -5.8476 0.9525
8.0759 -6.9835 -5.8476 0.9525
9.1861 -5.4410 -5.8476 0.9525
1.9715 -0.7342 -1.1522 0.9905
2.0004 -0.5480 -1.1360 0.9906
1.8754 0.0000 -1.0828 0.9914
1.8700 0.1671 -1.0839 0.9914
1.8426 0.3320 -1.0810 0.9914
1.8267 0.5004 -1.0935 0.9913
1.7869 0.6655 -1.1009 0.9912
8.9416 5.2961 -6.0000 0.9531
8.4347 6.0709 -6.0000 0.9531
7.8609 6.7976 -6.0000 0.9531
5.7857 8.6328 -6.0000 0.9531
4.9943 9.1135 -6.0000 0.9531
3.2959 9.8442 -5.9936 0.9532
2.3480 9.8524 -5.8476 0.9543
-0.3384 10.1227 -5.8476 0.9543
-1.2381 10.0524 -5.8476 0.9543
-2.1279 9.9023 -5.8476 0.9543
-4.7901 9.2225 -6.0000 0.9531
-5.5919 8.7596 -6.0000 0.9531
-7.0564 7.6293 -6.0000 0.9531
-8.2973 6.2573 -6.0000 0.9531
-0.8491 0.5288 -0.5776 0.9954
-0.8760 0.4427 -0.5667 0.9955
-0.9012 0.2686 -0.5429 0.9957
-0.9120 0.1854 -0.5373 0.9957
-0.9237 0.1033 -0.5366 0.9957
-0.9273 -0.0621 -0.5366 0.9957
-0.9189 -0.1445 -0.5370 0.9957
-0.9030 -0.2259 -0.5374 0.9957
-0.8984 -0.3119 -0.5490 0.9956
-8.5647 -5.8793 -5.9978 0.9532
6.7098 -7.5869 -5.8476 0.9543
7.3585 -6.9596 -5.8476 0.9543
8.4759 -5.5447 -5.8476 0.9543
1.6861 -0.8997 -1.1034 0.9912
1.8108 -0.5839 -1.0985 0.9913
1.8316 -0.4150 -1.0843 0.9914
1.8592 -0.2500 -1.0831 0.9914
1.8755 0.0836 -1.0839 0.9914
1.8592 0.2500 -1.0831 0.9914
1.8108 0.5839 -1.0985 0.9913
1.7564 0.7448 -1.1014 0.9912
1.6860 0.8997 -1.1034 0.9912
7.5503 7.1410 -6.0000 0.9531
6.8847 7.7847 -6.0000 0.9531
2.8231 9.8730 -5.9287 0.9537
1.9067 9.9472 -5.8476 0.9543
0.1128 10.1277 -5.8476 0.9543
-0.7890 10.0976 -5.8476 0.9543
-1.6846 9.9873 -5.8476 0.9543
-2.5669 9.7977 -5.8476 0.9543
-3.4921 9.7064 -5.9557 0.9535
-4.3724 9.4222 -5.9971 0.9532
-5.1961 9.0000 -6.0000 0.9531
-6.7096 7.9361 -6.0000 0.9531
-7.3893 7.3074 -6.0000 0.9531
-0.8858 0.3991 -0.5609 0.9955
-0.9273 0.0621 -0.5366 0.9957
-0.9306 -0.0207 -0.5374 0.9957
-0.9237 -0.1033 -0.5366 0.9957
-0.9120 -0.1854 -0.5373 0.9957
-0.9012 -0.2686 -0.5429 0.9957
-0.8932 -0.3555 -0.5550 0.9956
-0.8760 -0.4426 -0.5667 0.9955
-7.5117 -6.7939 -5.8476 0.9543
-6.1881 -8.0182 -5.8476 0.9543
6.3652 -7.8783 -5.8476 0.9543
7.0411 -7.2805 -5.8476 0.9543
8.8470 -5.2401 -5.9365 0.9536
1.7869 -0.6654 -1.1009 0.9912
