ply
format ascii 1.0
element vertex 479
property float32 x
property float32 y
property float32 z
property float32 I
end_header
13.0877 13.5325 -5.7905 0.9242
11.8312 14.6437 -5.7905 0.9242
-15.0309 11.3353 -5.7905 0.9242
-15.9801 9.9525 -5.7905 0.9242
-17.1641 -7.7338 -5.7905 0.9242
18.7663 -1.6770 -5.7951 0.9242
17.8074 1.5913 -5.9429 0.9274
16.7543 6.2394 -5.9429 0.9274
16.1324 7.7058 -5.9429 0.9274
15.3825 9.1111 -5.9429 0.9274
12.4178 12.8399 -5.9375 0.9275
-13.9082 10.4887 -5.7905 0.9292
-17.1336 5.1064 -5.9429 0.9274
-17.7675 1.9876 -5.9429 0.9274
-17.3441 -4.3380 -5.9429 0.9274
-16.8837 -5.8626 -5.9409 0.9274
16.9892 -3.8493 -5.7905 0.9292
17.3936 -2.3392 -5.8338 0.9287
17.7188 2.3830 -5.9429 0.9274
17.4364 3.9506 -5.9429 0.9274
17.0156 5.4868 -5.9429 0.9274
15.7731 8.4168 -5.9429 0.9274
14.9614 9.7873 -5.9429 0.9274
11.5403 13.0488 -5.7905 0.9292
-13.4272 11.0978 -5.7905 0.9292
-15.5817 8.7661 -5.9429 0.9274
-17.6613 2.7771 -5.9429 0.9274
-17.8739 -0.3983 -5.9429 0.9274
-17.7675 -1.9876 -5.9429 0.9274
-15.5476 -7.8565 -5.7905 0.9292
16.8009 -4.6023 -5.7905 0.9292
16.6184 0.0000 -5.9429 0.9318
16.0279 4.3905 -5.9429 0.9318
15.5735 5.7997 -5.9429 0.9318
14.9955 7.1628 -5.9429 0.9318
12.5704 10.8700 -5.9429 0.9318
11.5530 11.9457 -5.9429 0.9318
-12.0090 10.8615 -5.7905 0.9335
-12.9281 9.7495 -5.7905 0.9335
-14.8322 7.4951 -5.9429 0.9318
-15.4405 6.1452 -5.9429 0.9318
-15.9261 4.7465 -5.9429 0.9318
-16.2854 3.3102 -5.9429 0.9318
-16.6143 0.3702 -5.9429 0.9318
-16.4167 -2.5814 -5.9429 0.9318
15.4108 -4.9694 -5.7905 0.9335
15.7920 -3.5780 -5.7905 0.9335
16.4701 -2.2150 -5.9429 0.9318
15.2997 6.4877 -5.9429 0.9318
14.6616 7.8236 -5.9429 0.9318
13.9070 9.0976 -5.9429 0.9318
10.7466 12.1514 -5.8010 0.9334
9.6049 13.0359 -5.7905 0.9335
-11.5132 11.3857 -5.7905 0.9335
-12.4809 10.3157 -5.7905 0.9335
-13.6950 9.4011 -5.9403 0.9319
-16.1218 4.0323 -5.9429 0.9318
-16.2854 -3.3101 -5.9429 0.9318
-15.9261 -4.7465 -5.9429 0.9318
-15.4234 -6.1383 -5.9363 0.9319
15.6169 -4.2779 -5.7905 0.9335
16.1255 -2.9052 -5.8594 0.9328
16.5524 -1.4791 -5.9429 0.9318
15.5078 0.0000 -5.9429 0.9357
15.2621 2.7496 -5.9429 0.9357
14.9568 4.0971 -5.9429 0.9357
14.5327 5.4121 -5.9429 0.9357
10.7809 11.1474 -5.9429 0.9357
9.4960 11.7533 -5.7905 0.9373
-10.2598 11.0928 -5.7905 0.9373
-13.8410 6.9942 -5.9429 0.9357
-14.4085 5.7345 -5.9429 0.9357
-14.8618 4.4293 -5.9429 0.9357
-15.1970 3.0889 -5.9429 0.9357
-15.5039 0.3455 -5.9429 0.9357
-15.3195 -2.4089 -5.9429 0.9357
-15.0443 -3.7628 -5.9429 0.9357
-13.1691 -7.4088 -5.7905 0.9373
14.9443 -3.3860 -5.8721 0.9365
15.3694 -2.0670 -5.9429 0.9357
15.4924 -0.6908 -5.9429 0.9357
15.4924 0.6908 -5.9429 0.9357
15.3694 2.0670 -5.9429 0.9357
14.7594 4.7593 -5.9429 0.9357
14.2772 6.0541 -5.9429 0.9357
13.6817 7.3008 -5.9429 0.9357
12.9776 8.4896 -5.9429 0.9357
12.1705 9.6109 -5.9429 0.9357
11.2668 10.6560 -5.9429 0.9357
8.9630 12.1647 -5.7905 0.9373
7.8447 12.9142 -5.7905 0.9373
-10.7438 10.6248 -5.7905 0.9373
-13.5157 7.6038 -5.9429 0.9357
-14.1388 6.3706 -5.9429 0.9357
-15.0443 3.7628 -5.9429 0.9357
-15.3195 2.4089 -5.9429 0.9357
-15.4731 1.0358 -5.9429 0.9357
-15.5039 -0.3455 -5.9429 0.9357
-15.4116 -1.7240 -5.9429 0.9357
-15.1970 -3.0889 -5.9429 0.9357
-14.8618 -4.4293 -5.9429 0.9357
-13.4860 -6.8148 -5.7905 0.9373
14.1601 -5.2733 -5.7905 0.9373
14.5732 -3.9920 -5.7905 0.9373
15.2621 -2.7496 -5.9429 0.9357
14.5205 0.0000 -5.9429 0.9392
13.6075 5.0675 -5.9429 0.9392
13.1025 6.2585 -5.9429 0.9392
11.7852 8.4825 -5.9429 0.9392
10.9834 9.4978 -5.9429 0.9392
10.0945 10.4376 -5.9429 0.9392
7.8766 11.7527 -5.7905 0.9407
6.7993 12.4072 -5.7905 0.9407
-8.6440 11.2004 -5.7905 0.9407
-9.6066 10.3866 -5.7905 0.9407
-10.7277 9.7026 -5.9200 0.9394
-12.3254 7.6764 -5.9429 0.9392
-13.4912 5.3694 -5.9429 0.9392
-2.1261 0.2378 -0.8756 0.9908
-2.1285 0.0474 -0.8714 0.9908
-2.1308 -0.5329 -0.8989 0.9906
13.4653 -4.3420 -5.7905 0.9407
14.1609 -3.2084 -5.9426 0.9392
14.5060 0.6468 -5.9429 0.9392
14.1615 3.2086 -5.9429 0.9392
13.8197 4.4563 -5.9429 0.9392
13.3683 5.6686 -5.9429 0.9392
12.8107 6.8360 -5.9429 0.9392
11.3956 8.9990 -5.9429 0.9392
10.5495 9.9776 -5.9429 0.9392
-10.0598 9.9483 -5.7905 0.9407
-11.9713 8.2178 -5.9429 0.9392
-13.7170 4.7631 -5.9429 0.9392
-2.1308 0.5329 -0.8989 0.9906
-2.1345 0.3356 -0.8843 0.9907
-2.1285 -0.0474 -0.8714 0.9908
-13.9156 -4.1473 -5.9429 0.9392
-13.4912 -5.3694 -5.9429 0.9392
-12.0094 -7.4795 -5.7905 0.9407
13.2586 -4.9375 -5.7905 0.9407
14.2904 -2.5745 -5.9429 0.9392
13.6361 0.0000 -5.9429 0.9422
13.4201 2.4178 -5.9429 0.9422
11.7326 6.9492 -5.9429 0.9422
11.0675 7.9659 -5.9429 0.9422
7.3969 11.0370 -5.7905 0.9437
6.3852 11.6516 -5.7905 0.9437
5.3228 12.1736 -5.7905 0.9437
-6.1241 11.7909 -5.7905 0.9437
-11.5748 7.2089 -5.9429 0.9422
-1.9470 0.0434 -0.8487 0.9915
-1.9080 -0.4772 -0.8571 0.9915
-12.4324 -5.6018 -5.9429 0.9422
-10.9539 -7.5194 -5.7905 0.9437
11.7220 -6.2550 -5.7905 0.9437
13.2991 -3.0132 -5.9429 0.9422
13.5145 -1.8175 -5.9429 0.9422
13.5145 1.8175 -5.9429 0.9422
13.2991 3.0132 -5.9429 0.9422
12.0305 6.4196 -5.9429 0.9422
9.0337 10.2145 -5.9429 0.9422
6.8979 11.3555 -5.7905 0.9437
5.8598 11.9244 -5.7905 0.9437
-6.6432 11.5064 -5.7905 0.9437
-8.5781 10.1462 -5.7905 0.9437
-9.6867 9.5794 -5.9373 0.9423
-10.5107 8.6873 -5.9429 0.9422
-11.2422 7.7173 -5.9429 0.9422
-12.4324 5.6018 -5.9429 0.9422
-1.9080 0.4772 -0.8571 0.9915
-1.9397 0.3050 -0.8557 0.9915
-1.9479 0.1304 -0.8508 0.9915
-1.9470 -0.0434 -0.8487 0.9915
-1.9433 -0.2174 -0.8522 0.9915
-1.8741 -0.5585 -0.8523 0.9915
-12.6696 -5.0424 -5.9429 0.9422
11.4317 -6.7710 -5.7905 0.9437
11.9890 -5.7266 -5.7905 0.9437
13.1499 -3.6022 -5.9421 0.9422
12.8387 0.0000 -5.9429 0.9450
12.7878 1.1427 -5.9429 0.9450
12.0315 4.4806 -5.9429 0.9450
10.4203 7.5001 -5.9429 0.9450
8.9254 9.2288 -5.9429 0.9450
6.0118 10.9702 -5.7905 0.9464
5.0116 11.4618 -5.7905 0.9464
-4.7550 11.5706 -5.7905 0.9464
-5.7659 11.1014 -5.7905 0.9464
-6.7311 10.5442 -5.7905 0.9464
-7.6429 9.9032 -5.7905 0.9464
-8.7133 9.4208 -5.9400 0.9450
-1.5257 0.6072 -0.7601 0.9928
-1.6373 0.3328 -0.7734 0.9927
-1.6675 0.1865 -0.7767 0.9926
-1.6716 0.0373 -0.7739 0.9927
-1.6521 -0.2598 -0.7741 0.9927
-1.6165 -0.4043 -0.7713 0.9927
-11.7054 -5.2742 -5.9429 0.9450
-10.3134 -7.0797 -5.7905 0.9464
10.4685 -6.8482 -5.7905 0.9464
11.0365 -5.8893 -5.7905 0.9464
11.5169 -4.8836 -5.7905 0.9464
12.2166 -3.9393 -5.9416 0.9450
12.7242 -1.7112 -5.9429 0.9450
12.8260 -0.5719 -5.9429 0.9450
12.2192 3.9402 -5.9429 0.9450
11.3270 6.0442 -5.9429 0.9450
10.7440 7.0284 -5.9429 0.9450
10.0758 7.9568 -5.9429 0.9450
9.3277 8.8220 -5.9429 0.9450
8.5054 9.6172 -5.9429 0.9450
6.4946 10.6915 -5.7905 0.9464
5.5172 11.2271 -5.7905 0.9464
3.4392 12.0275 -5.7905 0.9464
-4.2348 11.7709 -5.7905 0.9464
-7.1942 10.2338 -5.7905 0.9464
-9.1288 9.0277 -5.9429 0.9450
-11.1895 6.2951 -5.9429 0.9450
-1.5621 0.5424 -0.7654 0.9927
-1.6165 0.4043 -0.7713 0.9927
-1.6521 0.2598 -0.7741 0.9927
-1.6716 -0.0373 -0.7739 0.9927
-1.6675 -0.1865 -0.7767 0.9926
-1.6373 -0.3328 -0.7734 0.9927
-10.6185 -6.6133 -5.7905 0.9464
10.7632 -6.3751 -5.7905 0.9464
12.1153 0.0000 -5.9429 0.9475
12.0673 1.0783 -5.9429 0.9475
11.9234 2.1481 -5.9429 0.9475
10.9322 5.2219 -5.9429 0.9475
10.4241 6.1742 -5.9429 0.9475
9.8332 7.0775 -5.9429 0.9475
9.1642 7.9246 -5.9429 0.9475
8.4225 8.7088 -5.9429 0.9475
7.6139 9.4239 -5.9429 0.9475
3.7477 11.1939 -5.7905 0.9488
1.7036 11.6811 -5.7905 0.9488
0.6572 11.7863 -5.7905 0.9488
-1.4430 11.7161 -5.7905 0.9488
-2.4800 11.5412 -5.7905 0.9488
-6.3519 9.9500 -5.7905 0.9488
-7.3951 9.5821 -5.9372 0.9475
-8.2264 8.8943 -5.9429 0.9475
-1.3059 0.5197 -0.6895 0.9938
-1.3200 0.3934 -0.6756 0.9939
-1.3536 0.0302 -0.6641 0.9940
-1.3513 -0.0905 -0.6643 0.9940
-1.3149 -0.3289 -0.6649 0.9940
-1.2865 -0.5797 -0.6922 0.9937
-10.5534 -5.9372 -5.9397 0.9475
-9.7322 -6.6808 -5.7905 0.9488
-9.0990 -7.5205 -5.7905 0.9488
-8.3935 -8.3005 -5.7905 0.9488
9.8787 -6.4623 -5.7905 0.9488
11.0531 -4.6869 -5.8891 0.9479
11.5307 -3.7182 -5.9429 0.9475
11.8159 -2.6771 -5.9429 0.9475
12.0072 -1.6148 -5.9429 0.9475
12.1033 0.5397 -5.9429 0.9475
12.0072 1.6148 -5.9429 0.9475
8.8021 8.3250 -5.9429 0.9475
8.0262 9.0753 -5.9429 0.9475
7.1866 9.7537 -5.9429 0.9475
6.2846 10.3458 -5.9378 0.9475
5.2063 10.5945 -5.7905 0.9488
4.2427 11.0159 -5.7905 0.9488
3.2454 11.3498 -5.7905 0.9488
1.1816 11.7454 -5.7905 0.9488
0.1315 11.8039 -5.7905 0.9488
-0.9196 11.7688 -5.7905 0.9488
-1.9635 11.6402 -5.7905 0.9488
-4.9690 10.7079 -5.7905 0.9488
-8.6144 8.5190 -5.9429 0.9475
-9.3385 7.7185 -5.9429 0.9475
-1.2865 0.5797 -0.6922 0.9937
-1.3149 0.3289 -0.6649 0.9940
-1.3257 0.2085 -0.6583 0.9940
-1.3513 0.0905 -0.6643 0.9940
-1.3419 -0.1501 -0.6624 0.9940
-1.3200 -0.3934 -0.6756 0.9939
-1.3059 -0.5198 -0.6895 0.9938
-10.8132 -5.4641 -5.9429 0.9475
-8.7549 -7.9184 -5.7905 0.9488
10.6519 -5.0880 -5.7905 0.9488
11.3504 -4.2270 -5.9412 0.9475
11.9234 -2.1481 -5.9429 0.9475
12.0673 -1.0783 -5.9429 0.9475
11.4100 1.0196 -5.9429 0.9497
11.2740 2.0311 -5.9429 0.9497
11.0484 3.0265 -5.9429 0.9497
10.7352 3.9978 -5.9429 0.9497
10.3368 4.9375 -5.9429 0.9497
9.2976 6.6920 -5.9429 0.9497
8.6651 7.4930 -5.9429 0.9497
7.9638 8.2345 -5.9429 0.9497
6.3776 9.5160 -5.9429 0.9497
5.5024 10.0406 -5.9397 0.9497
4.4716 10.2268 -5.7905 0.9509
3.5436 10.5842 -5.7905 0.9509
2.5875 10.8576 -5.7905 0.9509
0.6214 11.1444 -5.7905 0.9509
-1.3644 11.0780 -5.7905 0.9509
-3.3069 10.6606 -5.7905 0.9509
-7.7783 8.4098 -5.9429 0.9497
-9.7238 6.0560 -5.9429 0.9497
-1.1070 0.4406 -0.6181 0.9946
-1.1649 0.1303 -0.6081 0.9947
-1.1275 -0.2820 -0.6029 0.9948
-1.1198 -0.3888 -0.6150 0.9947
-8.6034 -7.1109 -5.7905 0.9509
-7.9364 -7.8484 -5.7905 0.9509
8.7597 -6.9175 -5.7905 0.9509
10.9026 -3.5157 -5.9429 0.9497
11.3533 -1.5269 -5.9429 0.9497
11.4441 -0.5103 -5.9429 0.9497
11.4441 0.5103 -5.9429 0.9497
11.3533 1.5269 -5.9429 0.9497
7.5890 8.5810 -5.9429 0.9497
6.7951 9.2225 -5.9429 0.9497
5.0191 10.2136 -5.9038 0.9500
4.0116 10.4159 -5.7905 0.9509
0.1243 11.1610 -5.7905 0.9509
-1.8565 11.0062 -5.7905 0.9509
-2.8288 10.7973 -5.7905 0.9509
-4.6983 10.1247 -5.7905 0.9509
-5.6121 9.7205 -5.8229 0.9507
-6.5858 9.3684 -5.9409 0.9497
-9.4444 6.4832 -5.9429 0.9497
-9.9839 5.6169 -5.9429 0.9497
-1.1275 0.2820 -0.6029 0.9948
-1.1739 0.0786 -0.6103 0.9947
-1.1649 -0.1303 -0.6081 0.9947
-1.1332 -0.2303 -0.5999 0.9948
-1.1266 -0.3358 -0.6099 0.9947
-1.1070 -0.4406 -0.6181 0.9946
-8.9116 -6.7206 -5.7905 0.9509
-8.2781 -7.4871 -5.7905 0.9509
-7.5789 -8.1942 -5.7905 0.9509
9.6035 -5.6882 -5.7905 0.9509
10.7352 -3.9979 -5.9429 0.9497
11.4100 -1.0196 -5.9429 0.9497
2.0004 0.5480 -1.1360 0.9906
1.9714 0.7342 -1.1522 0.9905
9.7909 4.6767 -5.9429 0.9517
9.3358 5.5296 -5.9429 0.9517
8.2075 7.0973 -5.9429 0.9517
7.5432 7.7996 -5.9429 0.9517
6.8190 8.4400 -5.9429 0.9517
6.0408 9.0135 -5.9429 0.9517
5.2146 9.5154 -5.9429 0.9517
4.3432 9.9331 -5.9377 0.9518
1.5258 10.4616 -5.7905 0.9529
0.5886 10.5559 -5.7905 0.9529
-0.3533 10.5663 -5.7905 0.9529
-3.1323 10.0976 -5.7905 0.9529
-4.0186 9.7787 -5.7905 0.9529
-4.9960 9.6190 -5.9366 0.9518
-5.8385 9.1458 -5.9429 0.9517
-6.6293 8.5899 -5.9429 0.9517
-8.0473 7.2783 -5.9429 0.9517
-0.9364 0.4732 -0.5746 0.9952
-0.9638 0.3836 -0.5681 0.9953
-0.9825 0.2928 -0.5615 0.9953
-1.0000 0.2033 -0.5589 0.9954
-0.9756 -0.3388 -0.5656 0.9953
-0.9472 -0.4268 -0.5690 0.9953
-0.9240 -0.5198 -0.5806 0.9952
-8.1491 -6.7354 -5.7905 0.9529
-7.5172 -7.4339 -5.7905 0.9529
8.2971 -6.5521 -5.7905 0.9529
8.8473 -5.7877 -5.7905 0.9529
1.9407 -0.8229 -1.1546 0.9904
1.9895 -0.6415 -1.1449 0.9905
2.0434 -0.0911 -1.1203 0.9907
2.0434 0.0911 -1.1203 0.9907
2.0226 0.2720 -1.1178 0.9907
2.0041 0.4541 -1.1255 0.9907
1.9407 0.8229 -1.1546 0.9904
9.5729 5.1082 -5.9429 0.9517
9.0802 5.9400 -5.9429 0.9517
7.1883 8.1279 -5.9429 0.9517
5.6333 9.2736 -5.9429 0.9517
4.7851 9.7373 -5.9423 0.9517
3.8554 10.0103 -5.8752 0.9523
1.9903 10.3832 -5.7905 0.9529
1.0582 10.5191 -5.7905 0.9529
-1.7585 10.4250 -5.7905 0.9529
-2.6794 10.2271 -5.7905 0.9529
-3.5790 9.9480 -5.7905 0.9529
-6.2401 8.8766 -5.9429 0.9517
-7.7151 7.6296 -5.9429 0.9517
-8.3635 6.9126 -5.9429 0.9517
-8.9456 6.1408 -5.9429 0.9517
-0.9240 0.5198 -0.5806 0.9952
-0.9756 0.3388 -0.5656 0.9953
-0.9847 0.2463 -0.5559 0.9954
-1.0415 -0.0232 -0.5706 0.9953
-1.0293 -0.1151 -0.5673 0.9953
-0.9825 -0.2928 -0.5615 0.9953
-0.9638 -0.3836 -0.5681 0.9953
-0.9364 -0.4732 -0.5746 0.9952
-9.2103 -5.7362 -5.9429 0.9517
-8.4410 -6.3657 -5.7905 0.9529
7.9970 -6.9153 -5.7905 0.9529
8.5807 -6.1760 -5.7905 0.9529
1.9714 -0.7342 -1.1522 0.9905
2.0036 -0.3610 -1.1150 0.9908
1.7869 0.6655 -1.1009 0.9912
8.8564 5.2457 -5.9429 0.9536
8.3544 6.0131 -5.9429 0.9536
7.1558 7.3991 -5.9429 0.9536
5.7306 8.5506 -5.9429 0.9536
4.9468 9.0267 -5.9429 0.9536
4.1237 9.4312 -5.9429 0.9536
2.3425 9.8297 -5.8341 0.9544
1.4474 9.9244 -5.7905 0.9547
-2.1071 9.8055 -5.7905 0.9547
-3.0126 9.7116 -5.8706 0.9541
-3.9096 9.5136 -5.9384 0.9536
-5.5387 8.6762 -5.9429 0.9536
-6.2889 8.1488 -5.9429 0.9536
-6.9892 7.5567 -5.9429 0.9536
-8.2183 6.1977 -5.9429 0.9536
-0.9120 0.1854 -0.5373 0.9957
-0.9237 0.1033 -0.5366 0.9957
-0.9189 -0.1445 -0.5370 0.9957
-0.9030 -0.2259 -0.5374 0.9957
-0.8983 -0.3119 -0.5490 0.9956
-0.8858 -0.3991 -0.5609 0.9955
-0.8638 -0.4859 -0.5722 0.9954
-8.4845 -5.8242 -5.9416 0.9536
-7.7306 -6.3895 -5.7905 0.9547
-7.1312 -7.0522 -5.7905 0.9547
-5.7679 -8.2049 -5.7905 0.9547
7.8710 -6.2157 -5.7905 0.9547
1.7564 -0.7448 -1.1014 0.9912
1.8316 -0.4150 -1.0843 0.9914
1.8592 -0.2500 -1.0831 0.9914
1.8755 -0.0836 -1.0839 0.9914
1.8755 0.0836 -1.0839 0.9914
1.8316 0.4150 -1.0843 0.9914
1.8108 0.5839 -1.0985 0.9913
1.7564 0.7448 -1.1014 0.9912
8.6139 5.6350 -5.9429 0.9536
8.0782 6.3793 -5.9429 0.9536
6.1058 8.2869 -5.9429 0.9536
5.3440 8.7974 -5.9429 0.9536
4.5398 9.2381 -5.9429 0.9536
3.6986 9.6033 -5.9415 0.9536
2.8203 9.8632 -5.9227 0.9537
1.8881 9.8500 -5.7905 0.9547
0.1117 10.0288 -5.7905 0.9547
-1.6682 9.8897 -5.7905 0.9547
-2.5476 9.7240 -5.8036 0.9546
-3.4804 9.6739 -5.9357 0.9536
-5.1467 8.9143 -5.9429 0.9536
-6.6457 7.8605 -5.9429 0.9536
-7.3189 7.2378 -5.9429 0.9536
-7.9341 6.5577 -5.9429 0.9536
-0.8638 0.4860 -0.5722 0.9954
-0.8983 0.3119 -0.5490 0.9956
-0.9030 0.2259 -0.5374 0.9957
-0.9273 0.0621 -0.5366 0.9957
-0.9237 -0.1033 -0.5366 0.9957
-0.9012 -0.2686 -0.5429 0.9957
-0.8932 -0.3555 -0.5550 0.9956
-0.8491 -0.5288 -0.5776 0.9954
-8.2080 -6.1900 -5.9354 0.9536
-7.4383 -6.7275 -5.7905 0.9547
-6.8100 -7.3629 -5.7905 0.9547
-6.1276 -7.9398 -5.7905 0.9547
6.9723 -7.2093 -5.7905 0.9547
7.5863 -6.5602 -5.7905 0.9547
8.1401 -5.8589 -5.7905 0.9547
8.8354 -5.2332 -5.9288 0.9537
1.7194 -0.8213 -1.1001 0.9912
1.7869 -0.6654 -1.1009 0.9912
1.8267 -0.5004 -1.0935 0.9913
1.8426 -0.3320 -1.0810 0.9914
