ply
format ascii 1.0
element vertex 1331
property float32 x
property float32 y
property float32 z
property float32 I
end_header
-16.1295 10.0456 -1.8243 0.9265
-19.8487 -1.3287 -1.9098 0.9232
-16.7829 -7.5620 -1.7672 0.9287
-15.7167 10.7890 -1.8302 0.9263
-19.7524 -2.2096 -1.9082 0.9232
-19.0146 -5.6669 -1.9048 0.9234
-17.0968 -6.8043 -1.7666 0.9287
-16.4385 -8.3067 -1.7682 0.9287
19.0572 1.7030 -2.2727 0.9258
18.4907 5.0651 -2.2773 0.9257
17.9660 6.6906 -2.2773 0.9257
17.2867 8.2572 -2.2756 0.9257
16.4600 9.7493 -2.2725 0.9258
15.4948 11.1525 -2.2677 0.9260
12.7951 13.2301 -2.1863 0.9285
11.0137 13.6319 -2.0817 0.9318
-10.7345 11.6061 -1.8779 0.9383
-11.6534 10.5399 -1.8665 0.9387
-12.8831 9.7156 -1.9167 0.9371
-14.8824 7.5204 -1.9807 0.9350
-16.1443 3.2815 -1.9569 0.9358
-16.1348 -2.5371 -1.9401 0.9363
-15.8336 -3.9602 -1.9387 0.9364
17.1320 -3.8816 -2.0866 0.9317
17.4724 -2.3498 -2.0942 0.9314
19.0514 -0.8495 -2.2653 0.9261
19.0964 0.8515 -2.2706 0.9259
18.2480 5.8842 -2.2775 0.9257
14.9634 11.8165 -2.2648 0.9261
11.6338 13.1546 -2.0860 0.9317
-12.0759 9.9810 -1.8610 0.9388
-13.8255 9.4907 -1.9920 0.9347
-14.5680 8.1958 -1.9855 0.9349
-15.1675 6.8341 -1.9761 0.9352
-15.6484 5.4337 -1.9677 0.9355
-16.0092 4.0042 -1.9603 0.9357
-16.2490 2.5550 -1.9539 0.9359
-16.3673 1.0957 -1.9486 0.9361
-12.8734 -8.0176 -1.8015 0.9407
18.7162 -1.6725 -2.2321 0.9271
15.7960 0.0000 -2.2381 0.9382
15.5893 2.8085 -2.2444 0.9380
14.8522 5.5310 -2.2456 0.9380
8.0554 12.0195 -2.0501 0.9432
6.9248 12.6362 -2.0416 0.9434
-7.2493 11.3558 -1.9089 0.9470
-8.1852 10.6058 -1.8982 0.9473
-9.0476 9.7821 -1.8880 0.9476
-12.0215 7.4871 -2.0067 0.9444
-12.5872 6.3606 -1.9982 0.9446
-13.0533 5.1951 -1.9906 0.9448
-13.4180 3.9990 -1.9838 0.9450
-13.6797 2.7806 -1.9779 0.9452
-13.8421 -0.9266 -1.9657 0.9455
-13.6896 -2.1526 -1.9635 0.9456
-13.0817 -4.5424 -1.9621 0.9456
-9.9423 -8.2175 -1.8276 0.9492
13.2983 -5.6390 -2.0466 0.9433
13.8013 -4.4503 -2.0547 0.9431
15.7639 -0.7029 -2.2358 0.9382
15.6912 2.1103 -2.2433 0.9380
15.0851 4.8643 -2.2458 0.9380
13.9670 7.4530 -2.2431 0.9380
10.3733 11.7293 -2.2186 0.9387
8.5993 11.6712 -2.0541 0.9431
7.4968 12.3414 -2.0460 0.9433
-8.6259 10.2027 -1.8930 0.9475
-10.9925 9.0855 -2.0207 0.9440
-13.2484 4.6004 -1.9871 0.9449
-13.8778 0.9290 -1.9707 0.9454
-13.2710 -3.9552 -1.9621 0.9456
-10.9202 -6.8011 -1.8228 0.9494
-10.2883 -7.7587 -1.8258 0.9493
15.6985 -1.4028 -2.2332 0.9383
13.4566 0.0000 -2.2168 0.9469
13.0155 3.5654 -2.2232 0.9468
12.6463 4.7096 -2.2231 0.9468
12.1708 5.8135 -2.2220 0.9468
10.9204 7.8600 -2.2166 0.9469
10.1579 8.7839 -2.2123 0.9470
7.2216 10.7754 -2.1369 0.9488
5.9134 10.7907 -2.0271 0.9513
3.8751 11.5745 -2.0108 0.9517
2.8170 11.8208 -2.0019 0.9519
-2.4905 11.5899 -1.9529 0.9531
-6.2499 9.7903 -1.9135 0.9540
-7.4901 9.7053 -2.0196 0.9515
-8.4251 9.1092 -2.0441 0.9509
-9.1615 8.2861 -2.0350 0.9512
-11.6264 3.4651 -1.9986 0.9520
-11.8579 2.4102 -1.9934 0.9521
-11.8780 -1.8677 -1.9808 0.9524
-11.6585 -2.9160 -1.9798 0.9524
-11.3517 -3.9417 -1.9796 0.9525
-10.9595 -4.9381 -1.9803 0.9524
-9.2073 -6.3205 -1.8398 0.9557
-8.6222 -7.1264 -1.8428 0.9557
12.6628 -4.0832 -2.1918 0.9475
13.4313 -0.5989 -2.2149 0.9470
13.4536 0.5999 -2.2185 0.9469
13.1592 2.9815 -2.2228 0.9468
12.8445 4.1418 -2.2233 0.9468
11.8946 6.3471 -2.2210 0.9468
10.5499 8.3311 -2.2145 0.9470
9.7455 9.2172 -2.2098 0.9471
8.8636 10.0222 -2.2041 0.9472
7.8997 10.7215 -2.1939 0.9474
6.4190 10.5671 -2.0368 0.9511
5.4166 11.0224 -2.0232 0.9514
4.3962 11.4146 -2.0151 0.9516
2.2824 11.9070 -1.9973 0.9520
-1.9769 11.7196 -1.9580 0.9530
-2.9966 11.4379 -1.9479 0.9532
-3.9821 11.0684 -1.9378 0.9534
-5.8220 10.0839 -1.9182 0.9539
-6.8317 9.7182 -1.9570 0.9530
-8.8027 8.7052 -2.0395 0.9511
-10.1211 6.9477 -2.0224 0.9515
-11.1115 5.0066 -2.0077 0.9518
-11.4770 3.9852 -2.0015 0.9519
-12.0354 0.8057 -1.9871 0.9523
-11.7793 -2.3942 -1.9802 0.9524
-11.5159 -3.4321 -1.9796 0.9525
-10.7322 -5.4232 -1.9809 0.9524
-9.9659 -6.2068 -1.9341 0.9535
-8.3042 -7.5107 -1.8446 0.9556
10.5492 -6.2483 -2.0198 0.9515
11.1062 -5.3050 -2.0276 0.9513
11.9201 -4.4391 -2.0955 0.9497
13.1876 -2.3759 -2.2075 0.9471
13.3779 -1.1954 -2.2126 0.9470
11.7095 0.0000 -2.2009 0.9535
11.6775 1.0435 -2.2037 0.9534
11.5479 2.0805 -2.2055 0.9534
11.3215 3.1013 -2.2064 0.9533
10.5874 5.0572 -2.2054 0.9534
10.0866 5.9743 -2.2035 0.9534
7.3129 9.0513 -2.1872 0.9537
6.4603 9.6395 -2.1811 0.9539
3.3816 10.1002 -2.0020 0.9576
0.5858 10.5059 -1.9778 0.9581
-0.3501 10.4705 -1.9691 0.9583
-2.1813 10.1510 -1.9515 0.9586
-3.9943 9.7195 -1.9751 0.9581
-5.0395 9.7027 -2.0550 0.9565
-6.6915 8.6704 -2.0586 0.9564
-8.0579 7.2879 -2.0422 0.9567
-9.1565 5.7027 -2.0276 0.9570
-9.5969 4.8495 -2.0211 0.9572
-9.9614 3.9645 -2.0152 0.9573
-10.2479 3.0542 -2.0099 0.9574
-10.4552 2.1251 -2.0054 0.9575
-10.5823 1.1838 -2.0015 0.9576
-10.6288 0.2369 -1.9983 0.9577
-10.4807 -1.6480 -1.9942 0.9577
-9.6706 -4.3574 -1.9937 0.9577
-9.2507 -5.2044 -1.9951 0.9577
-8.7422 -6.0012 -1.9931 0.9578
-7.6050 -6.2856 -1.8545 0.9606
-7.0279 -6.9500 -1.8578 0.9606
-5.7105 -8.1233 -1.8664 0.9604
7.6953 -7.2781 -1.9909 0.9578
11.5747 -1.5566 -2.1952 0.9536
11.6888 -0.5212 -2.1992 0.9535
11.7057 0.5220 -2.2024 0.9534
11.6249 1.5634 -2.2047 0.9534
11.4467 2.5935 -2.2061 0.9534
10.3477 5.5217 -2.2046 0.9534
6.0154 9.9028 -2.1778 0.9539
5.0188 10.2130 -2.1389 0.9547
3.8613 10.0257 -2.0194 0.9572
1.9934 10.3994 -1.9903 0.9578
1.0555 10.4917 -1.9820 0.9580
-0.8143 10.4213 -1.9648 0.9583
-4.5067 9.7116 -2.0124 0.9574
-6.3119 8.9788 -2.0630 0.9563
-8.3588 6.9088 -2.0383 0.9568
-8.9085 6.1154 -2.0310 0.9570
-9.3860 5.2805 -2.0242 0.9571
-9.7888 4.4106 -2.0181 0.9572
-10.1145 3.5121 -2.0125 0.9574
-10.6156 0.7106 -1.9998 0.9576
-10.3940 -2.1127 -1.9936 0.9577
-9.0141 -5.6140 -1.9960 0.9577
-8.2333 -6.2090 -1.9383 0.9589
-6.7182 -7.2636 -1.8597 0.9605
-6.0590 -7.8509 -1.8640 0.9604
7.3483 -7.5981 -1.9868 0.9579
8.0280 -6.9421 -1.9949 0.9577
8.6473 -6.2240 -2.0026 0.9576
9.2003 -5.4494 -2.0099 0.9574
11.6439 -1.0405 -2.1973 0.9535
10.0079 2.7415 -2.1934 0.9585
8.4026 6.0479 -2.1884 0.9586
7.1735 7.4173 -2.1812 0.9587
3.2271 9.6389 -2.1486 0.9593
-0.3247 9.7108 -2.0538 0.9611
-1.1955 9.7068 -2.0673 0.9608
-4.5321 8.7259 -2.0784 0.9606
-5.9614 7.7244 -2.0625 0.9609
-6.6011 7.1370 -2.0550 0.9610
-7.7093 5.8139 -2.0410 0.9613
-9.3408 1.8986 -2.0148 0.9618
-9.4995 0.2117 -2.0085 0.9619
-9.4703 -0.6339 -2.0063 0.9619
-9.1971 -2.3003 -2.0040 0.9620
-8.9552 -3.1096 -2.0038 0.9620
-7.8298 -5.3748 -2.0075 0.9619
-7.3122 -6.0437 -2.0053 0.9620
-6.2962 -6.2264 -1.8718 0.9644
-5.7127 -6.7570 -1.8703 0.9645
-5.0999 -7.2546 -1.8745 0.9644
-3.7524 -8.0862 -1.8843 0.9642
5.5297 -7.5049 -1.9705 0.9626
6.8237 -6.4538 -1.9853 0.9623
7.3970 -5.8413 -1.9923 0.9622
8.2205 -5.3776 -2.0764 0.9606
9.7898 -3.1568 -2.1743 0.9588
10.0548 -2.2781 -2.1793 0.9587
10.3497 0.4615 -2.1899 0.9585
9.8762 3.1847 -2.1935 0.9585
9.5516 4.0502 -2.1930 0.9585
9.1480 4.8815 -2.1918 0.9585
8.6690 5.6710 -2.1897 0.9585
8.1192 6.4117 -2.1869 0.9586
5.3255 8.7669 -2.1683 0.9589
4.5110 9.1797 -2.1620 0.9590
0.1082 9.7130 -2.0533 0.9611
-0.7587 9.7092 -2.0586 0.9610
-2.5102 9.5815 -2.0937 0.9603
-3.3471 9.3035 -2.0900 0.9604
-5.6220 7.9973 -2.0664 0.9608
-6.2880 7.4375 -2.0587 0.9610
-6.9003 6.8238 -2.0513 0.9611
-7.4548 6.1616 -2.0444 0.9612
-8.3772 4.7130 -2.0318 0.9615
-8.7395 3.9378 -2.0262 0.9616
-9.2561 2.3151 -2.0168 0.9617
-9.4870 0.6351 -2.0098 0.9619
-9.4287 -1.0547 -2.0055 0.9620
-9.0848 -2.7075 -2.0038 0.9620
-8.4653 -4.2777 -2.0049 0.9620
-6.0021 -6.4893 -1.8685 0.9645
-4.7774 -7.4836 -1.8767 0.9644
-4.1031 -7.8999 -1.8817 0.9643
-3.3934 -8.2574 -1.8871 0.9642
4.4536 -8.1269 -1.9589 0.9628
7.1171 -6.1543 -1.9889 0.9623
7.6628 -5.5153 -1.9957 0.9621
9.2450 -4.4159 -2.1657 0.9590
9.9324 -2.7208 -2.1769 0.9588
10.1567 -1.8298 -2.1815 0.9587
10.2977 -0.9202 -2.1854 0.9586
9.2703 0.0000 -2.1787 0.9626
9.2426 0.8259 -2.1809 0.9626
8.9585 2.4540 -2.1830 0.9626
6.4250 6.6434 -2.1721 0.9627
5.1242 7.6458 -2.1632 0.9629
4.4125 8.0518 -2.1579 0.9630
3.6684 8.3900 -2.1521 0.9631
2.1101 8.8543 -2.1392 0.9633
1.3094 8.9778 -2.1323 0.9634
-0.3011 9.0058 -2.1177 0.9637
-1.8796 8.7468 -2.1026 0.9639
-3.3761 8.2153 -2.0875 0.9642
-4.0793 7.8541 -2.0800 0.9643
-4.7455 7.4337 -2.0727 0.9644
-8.0274 3.1949 -2.0306 0.9651
-8.4334 1.7142 -2.0226 0.9653
-8.5792 0.1912 -2.0168 0.9654
-7.8093 -3.5187 -2.0131 0.9654
-7.0716 -4.8544 -2.0159 0.9654
-6.6191 -5.4708 -2.0182 0.9653
-6.1007 -6.0331 -2.0165 0.9654
-4.6029 -6.5477 -1.8811 0.9676
-4.0108 -6.9470 -1.8853 0.9676
-3.3850 -7.2945 -1.8900 0.9675
0.0910 -8.1650 -1.9191 0.9670
0.8202 -8.1527 -1.9258 0.9669
2.2689 -7.9347 -1.9396 0.9667
3.6662 -7.4605 -1.9537 0.9664
4.3312 -7.1301 -1.9607 0.9663
6.1235 -5.7915 -1.9809 0.9660
7.0727 -5.5853 -2.1181 0.9636
9.0066 -2.0406 -2.1704 0.9628
9.1686 -1.2331 -2.1742 0.9627
9.2554 -0.4127 -2.1774 0.9626
9.2000 1.2373 -2.1817 0.9626
9.0578 2.0522 -2.1827 0.9626
8.1894 4.3700 -2.1816 0.9626
7.7613 5.0772 -2.1797 0.9626
7.2701 5.7412 -2.1772 0.9627
6.1170 6.9167 -2.1701 0.9628
5.4659 7.4183 -2.1656 0.9628
4.7728 7.8571 -2.1606 0.9629
4.0441 8.2295 -2.1550 0.9630
3.2864 8.5329 -2.1490 0.9631
2.5063 8.7652 -2.1426 0.9632
0.1006 9.0260 -2.1215 0.9636
-0.7007 8.9675 -2.1140 0.9637
-1.4908 8.8378 -2.1064 0.9638
-2.2632 8.6387 -2.0988 0.9640
-5.6651 6.7007 -2.0622 0.9646
-6.2189 6.1501 -2.0556 0.9647
-6.7210 5.5551 -2.0493 0.9648
-7.1680 4.9206 -2.0434 0.9649
-7.8861 3.5533 -2.0329 0.9651
-8.1529 2.8310 -2.0284 0.9652
-8.5747 -0.1911 -2.0158 0.9654
-8.5165 -0.9527 -2.0141 0.9654
-8.3935 -1.7060 -2.0130 0.9654
-8.2065 -2.4458 -2.0126 0.9654
-7.2775 -4.5324 -2.0150 0.9654
-5.7386 -6.2045 -1.9863 0.9659
-4.8850 -6.3296 -1.8791 0.9677
-3.7019 -7.1274 -1.8876 0.9675
-3.0608 -7.4479 -1.8925 0.9675
-2.3924 -7.7124 -1.8978 0.9674
-0.9932 -8.0638 -1.9095 0.9672
0.4554 -8.1669 -1.9224 0.9669
2.6248 -7.8399 -1.9431 0.9666
3.3242 -7.6027 -1.9501 0.9665
4.6527 -6.9424 -1.9642 0.9662
5.2704 -6.5233 -1.9710 0.9661
6.5703 -5.6815 -2.0414 0.9649
7.8803 -4.6675 -2.1525 0.9631
8.2865 -3.9581 -2.1583 0.9630
8.8980 -2.4374 -2.1683 0.9628
9.2215 -0.8240 -2.1759 0.9627
8.3836 0.0000 -2.1707 0.9660
8.3577 0.7469 -2.1726 0.9659
8.2630 1.4887 -2.1739 0.9659
7.8703 2.9309 -2.1745 0.9659
7.2192 4.2760 -2.1725 0.9659
5.8122 6.0098 -2.1647 0.9660
4.6372 6.9192 -2.1566 0.9662
3.3214 7.5964 -2.1466 0.9663
1.9116 8.0213 -2.1350 0.9665
1.1866 8.1357 -2.1288 0.9666
0.4563 8.1839 -2.1222 0.9667
-3.0655 7.4594 -2.0881 0.9672
-6.3234 4.7687 -2.0506 0.9678
-6.7057 4.1764 -2.0454 0.9679
-7.0343 3.5546 -2.0406 0.9680
-7.5226 2.2420 -2.0324 0.9681
-7.7767 0.8700 -2.0261 0.9682
-7.7917 -0.5216 -2.0219 0.9682
-7.7095 -1.2123 -2.0207 0.9683
-7.5684 -1.8930 -2.0200 0.9683
-7.3695 -2.5590 -2.0199 0.9683
-7.1141 -3.2054 -2.0203 0.9683
-6.8039 -3.8278 -2.0213 0.9683
-6.4413 -4.4217 -2.0229 0.9682
-6.0285 -4.9827 -2.0250 0.9682
-5.5684 -5.5067 -2.0277 0.9682
-4.3659 -6.2106 -1.9656 0.9691
-3.6505 -6.3229 -1.8904 0.9703
-3.0802 -6.6377 -1.8947 0.9702
-2.4833 -6.9025 -1.8993 0.9701
-1.8640 -7.1148 -1.9043 0.9701
-1.2268 -7.2728 -1.9097 0.9700
-0.5763 -7.3748 -1.9153 0.9699
0.0827 -7.4195 -1.9212 0.9698
0.7450 -7.4060 -1.9272 0.9697
1.4058 -7.3339 -1.9335 0.9696
3.3260 -6.7682 -1.9526 0.9693
5.2019 -5.8819 -2.0331 0.9681
6.9305 -4.5337 -2.1443 0.9664
7.3249 -3.9087 -2.1497 0.9663
7.6615 -3.2487 -2.1547 0.9662
7.9368 -2.5593 -2.1592 0.9661
8.3189 1.1188 -2.1733 0.9659
7.9934 2.5776 -2.1746 0.9659
7.7310 3.2782 -2.1742 0.9659
7.4051 3.9515 -2.1732 0.9659
7.0187 4.5914 -2.1716 0.9659
6.5752 5.1924 -2.1693 0.9660
6.0788 5.7493 -2.1664 0.9660
4.9459 6.7126 -2.1588 0.9661
0.0912 8.1833 -2.1189 0.9668
-2.0540 7.8399 -2.0984 0.9671
-2.7346 7.6010 -2.0915 0.9672
-3.3892 7.3035 -2.0847 0.9673
-6.1129 5.0524 -2.0534 0.9678
-7.4221 2.5772 -2.0343 0.9681
-7.7355 1.2164 -2.0275 0.9682
-7.7580 -0.8679 -2.0212 0.9683
-7.6463 -1.5542 -2.0202 0.9683
-6.6290 -4.1286 -2.0220 0.9682
-5.8042 -5.2496 -2.0263 0.9682
-5.3214 -5.7534 -2.0292 0.9681
-3.9715 -6.2212 -1.9110 0.9700
-3.3690 -6.4864 -1.8925 0.9703
-2.7848 -6.7765 -1.8969 0.9702
-0.9029 -7.3309 -1.9125 0.9699
2.3824 -7.1160 -1.9430 0.9695
3.0163 -6.8984 -1.9494 0.9694
4.2189 -6.2950 -1.9621 0.9692
4.7984 -5.9390 -1.9769 0.9689
5.6218 -5.8129 -2.0938 0.9671
6.2325 -5.3894 -2.1334 0.9665
6.7127 -4.8315 -2.1414 0.9664
7.1347 -4.2259 -2.1470 0.9663
8.2291 -1.4825 -2.1650 0.9660
7.6439 0.0000 -2.1639 0.9687
7.5329 1.3571 -2.1669 0.9687
7.3842 2.0227 -2.1674 0.9687
6.9065 3.2990 -2.1668 0.9687
6.5818 3.8984 -2.1656 0.9687
6.2035 4.4650 -2.1638 0.9687
4.7842 5.9215 -2.1551 0.9688
3.0313 6.9329 -2.1421 0.9690
2.3965 7.1580 -2.1369 0.9691
1.7454 7.3242 -2.1315 0.9692
-0.9100 7.3888 -2.1075 0.9695
-1.5594 7.2567 -2.1012 0.9696
-3.3906 6.5280 -2.0824 0.9699
-3.9466 6.1823 -2.0764 0.9700
-4.4685 5.7900 -2.0705 0.9701
-6.1453 3.8274 -2.0495 0.9704
-6.8976 2.0557 -2.0375 0.9705
-7.1325 0.7979 -2.0317 0.9706
-7.1675 0.1597 -2.0296 0.9706
-7.0724 -1.1121 -2.0268 0.9707
-6.2415 -3.5114 -2.0274 0.9707
-5.5293 -4.5701 -2.0308 0.9706
-4.1387 -5.8873 -2.0373 0.9705
-3.5800 -6.2007 -2.0270 0.9707
-2.2755 -6.3249 -1.9029 0.9724
-1.7077 -6.5181 -1.9075 0.9724
-1.1236 -6.6612 -1.9124 0.9723
0.6819 -6.7780 -1.9285 0.9721
3.0406 -6.1873 -1.9517 0.9717
3.6743 -6.0488 -2.0036 0.9710
4.9621 -5.6107 -2.1204 0.9693
5.4640 -5.1679 -2.1291 0.9692
5.9178 -4.6732 -2.1347 0.9691
6.6843 -3.5669 -2.1448 0.9690
6.9900 -2.9640 -2.1494 0.9689
7.2399 -2.3345 -2.1535 0.9689
7.6396 0.3407 -2.1649 0.9687
7.5841 1.0200 -2.1663 0.9687
7.4663 1.6916 -2.1672 0.9687
7.2870 2.3498 -2.1675 0.9687
6.3991 4.1861 -2.1647 0.9687
5.9954 4.7345 -2.1627 0.9687
5.0474 5.7071 -2.1568 0.9688
4.5117 6.1233 -2.1532 0.9689
3.9412 6.4881 -2.1490 0.9689
3.3410 6.7986 -2.1445 0.9690
2.7163 7.0527 -2.1395 0.9691
1.4156 7.3849 -2.1287 0.9692
0.0833 7.4769 -2.1168 0.9694
-1.2364 7.3299 -2.1044 0.9696
-1.8783 7.1692 -2.0981 0.9697
-3.1010 6.6824 -2.0855 0.9698
-3.6726 6.3611 -2.0794 0.9699
-4.7154 5.5775 -2.0676 0.9701
-5.1792 5.1219 -2.0621 0.9702
-5.6002 4.6287 -2.0568 0.9702
-5.9756 4.1020 -2.0519 0.9703
-6.5799 2.9647 -2.0431 0.9704
-6.9768 1.7450 -2.0359 0.9705
-7.0943 1.1155 -2.0330 0.9706
-7.1569 0.4791 -2.0306 0.9706
-6.8585 -2.0440 -2.0260 0.9707
-6.3900 -3.2290 -2.0268 0.9707
-5.7245 -4.3170 -2.0297 0.9706
-4.3979 -5.6985 -2.0378 0.9705
-1.9939 -6.4276 -1.9051 0.9724
-0.8269 -6.7136 -1.9149 0.9723
-0.2267 -6.7792 -1.9202 0.9722
0.3787 -6.7918 -1.9257 0.9721
2.1789 -6.5080 -1.9429 0.9719
6.1277 -4.4105 -2.1373 0.9691
6.5115 -3.8567 -2.1424 0.9690
7.6054 -0.6796 -2.1616 0.9688
7.0168 0.0000 -2.1582 0.9711
6.9142 1.2457 -2.1609 0.9710
6.0415 3.5784 -2.1597 0.9710
5.3019 4.5848 -2.1559 0.9711
4.3932 5.4375 -2.1501 0.9712
2.7850 6.3694 -2.1382 0.9713
2.2022 6.5775 -2.1335 0.9714
0.9962 6.8308 -2.1232 0.9715
-0.2295 6.8633 -2.1122 0.9717
-1.4349 6.6773 -2.1007 0.9718
-2.0179 6.5050 -2.0949 0.9719
-3.1221 6.0110 -2.0834 0.9721
-3.6349 5.6940 -2.0778 0.9721
-5.6658 3.5287 -2.0530 0.9725
-5.9456 3.0044 -2.0490 0.9725
-6.1782 2.4589 -2.0453 0.9726
-6.5803 0.7361 -2.0366 0.9727
-6.5951 -0.4415 -2.0330 0.9727
-6.5262 -1.0262 -2.0320 0.9727
-6.2387 -2.1663 -2.0313 0.9727
-6.0223 -2.7135 -2.0317 0.9727
-5.7593 -3.2401 -2.0325 0.9727
-5.4516 -3.7423 -2.0339 0.9727
-4.7112 -4.6590 -2.0380 0.9727
-4.2835 -5.0665 -2.0407 0.9726
-3.8214 -5.4360 -2.0438 0.9726
-3.3278 -5.7638 -2.0471 0.9725
-2.2316 -6.2029 -2.0276 0.9728
-1.6279 -6.2134 -1.9756 0.9735
1.1894 -6.2050 -1.9433 0.9739
2.3648 -6.1402 -2.0238 0.9728
2.9928 -6.0901 -2.0872 0.9720
4.0797 -5.5370 -2.1154 0.9716
4.5682 -5.1654 -2.1209 0.9716
5.4383 -4.2946 -2.1314 0.9714
5.8121 -3.8021 -2.1362 0.9714
6.1404 -3.2766 -2.1407 0.9713
6.6486 -2.1439 -2.1486 0.9712
6.9433 -0.9338 -2.1548 0.9711
7.0066 -0.3124 -2.1572 0.9711
7.0127 0.3127 -2.1591 0.9711
6.8529 1.5527 -2.1612 0.9710
5.5038 4.3463 -2.1571 0.9711
3.6199 5.9592 -2.1446 0.9712
2.4958 6.4801 -2.1359 0.9714
1.9048 6.6614 -2.1310 0.9714
0.6901 6.8597 -2.1205 0.9716
-0.5343 6.8370 -2.1093 0.9717
-1.1375 6.7439 -2.1036 0.9718
-1.7285 6.5976 -2.0978 0.9719
-4.7728 4.7199 -2.0646 0.9723
-5.5088 3.7816 -2.0552 0.9724
-5.8115 3.2695 -2.0509 0.9725
-6.0679 2.7341 -2.0471 0.9725
-6.4356 1.6097 -2.0404 0.9726
-6.5448 1.0291 -2.0378 0.9727
-6.6032 0.4420 -2.0355 0.9727
-6.6105 -0.1473 -2.0338 0.9727
-6.4729 -1.3157 -2.0316 0.9727
-6.3290 -1.8862 -2.0313 0.9727
-6.1364 -2.4422 -2.0314 0.9727
-5.8965 -2.9796 -2.0320 0.9727
-5.2817 -3.9831 -2.0347 0.9727
-4.9112 -4.4419 -2.0368 0.9727
-3.5785 -5.6056 -2.0455 0.9726
-0.7665 -6.2234 -1.9287 0.9741
-0.2088 -6.2451 -1.9219 0.9742
0.3488 -6.2552 -1.9270 0.9741
2.0634 -6.1632 -1.9991 0.9732
2.6741 -6.1159 -2.0531 0.9725
3.2820 -5.9889 -2.1005 0.9718
4.7999 -4.9630 -2.1236 0.9715
5.6307 -4.0527 -2.1338 0.9714
6.2865 -3.0028 -2.1429 0.9713
6.5409 -2.4358 -2.1468 0.9712
6.7429 -1.8471 -2.1504 0.9712
6.4567 0.5770 -2.1548 0.9730
6.2564 1.7138 -2.1563 0.9730
6.0790 2.2638 -2.1562 0.9730
5.2574 3.7840 -2.1532 0.9731
4.8952 4.2330 -2.1512 0.9731
3.5884 5.3543 -2.1425 0.9732
2.5729 5.8845 -2.1348 0.9733
2.0348 6.0778 -2.1305 0.9733
0.9209 6.3141 -2.1211 0.9735
-0.2122 6.3466 -2.1108 0.9736
-0.7743 6.2868 -2.1055 0.9737
-1.3274 6.1772 -2.1002 0.9737
-1.8671 6.0191 -2.0948 0.9738
-2.3893 5.8141 -2.0895 0.9739
-2.8900 5.5643 -2.0842 0.9739
-3.8120 4.9394 -2.0740 0.9740
-4.6063 4.1661 -2.0645 0.9742
-4.9483 3.7317 -2.0601 0.9742
-5.2503 3.2699 -2.0561 0.9743
-6.0232 1.2243 -2.0431 0.9744
-6.1014 0.6826 -2.0408 0.9745
-6.1323 0.1367 -2.0389 0.9745
-6.1159 -0.4094 -2.0375 0.9745
-5.3409 -3.0047 -2.0370 0.9745
-4.7303 -3.9097 -2.0400 0.9745
-4.3681 -4.3197 -2.0421 0.9744
-3.5424 -5.0391 -2.0475 0.9744
-2.6016 -5.6062 -2.0544 0.9743
-1.5695 -5.9908 -2.0586 0.9742
-1.0313 -6.1140 -2.0610 0.9742
-0.4838 -6.1919 -2.0645 0.9742
0.0691 -6.1998 -2.0610 0.9742
1.7261 -6.0366 -2.0870 0.9739
2.2647 -5.8802 -2.0946 0.9738
2.7900 -5.6776 -2.1028 0.9737
6.3010 -1.4276 -2.1476 0.9731
6.4109 -0.8622 -2.1502 0.9731
6.4688 -0.2884 -2.1524 0.9731
6.4262 0.8643 -2.1553 0.9730
6.3260 1.4333 -2.1561 0.9730
5.9715 2.5322 -2.1560 0.9730
4.2796 4.8391 -2.1473 0.9731
3.8264 5.1933 -2.1442 0.9732
2.8353 5.7696 -2.1369 0.9733
2.3060 5.9873 -2.1327 0.9733
1.7602 6.1558 -2.1282 0.9734
1.2026 6.2741 -2.1235 0.9734
0.0708 6.3576 -2.1134 0.9736
-0.4941 6.3230 -2.1082 0.9736
-1.0522 6.2381 -2.1029 0.9737
-1.5992 6.1041 -2.0975 0.9738
-3.1311 5.4232 -2.0816 0.9739
-4.0235 4.7591 -2.0715 0.9741
-4.4210 4.3720 -2.0668 0.9741
-4.7821 3.9525 -2.0623 0.9742
-5.3857 3.0300 -2.0541 0.9743
-5.8181 2.0203 -2.0473 0.9744
-5.9664 1.4923 -2.0444 0.9744
-6.0682 0.9542 -2.0419 0.9744
-6.1228 0.4099 -2.0398 0.9745
-6.1300 -0.1366 -2.0382 0.9745
-6.0899 -0.6812 -2.0369 0.9745
-6.0028 -1.2201 -2.0362 0.9745
-5.8695 -1.7493 -2.0359 0.9745
-5.6909 -2.2649 -2.0360 0.9745
-4.8977 -3.6935 -2.0391 0.9745
-4.5537 -4.1186 -2.0410 0.9745
-3.3170 -5.1959 -2.0491 0.9744
-2.8461 -5.4798 -2.0525 0.9743
-1.8341 -5.9125 -2.0577 0.9742
-1.3018 -6.0580 -2.0597 0.9742
-0.7585 -6.1587 -2.0626 0.9742
0.9018 -6.1832 -2.0771 0.9740
1.9969 -5.9643 -2.0907 0.9738
2.5293 -5.7846 -2.0986 0.9737
4.4367 -4.5876 -2.1214 0.9735
5.8069 -2.7737 -2.1392 0.9732
6.0411 -2.2497 -2.1428 0.9732
6.3624 -1.1462 -2.1489 0.9731
5.9895 0.5352 -2.1504 0.9748
5.8034 1.5897 -2.1518 0.9748
5.6388 2.0999 -2.1518 0.9748
4.5415 3.9272 -2.1471 0.9748
4.1695 4.3113 -2.1448 0.9748
3.3301 4.9689 -2.1391 0.9749
0.8552 5.8639 -2.1191 0.9751
-0.1971 5.8961 -2.1097 0.9753
-1.2336 5.7407 -2.0998 0.9754
-2.2213 5.4053 -2.0898 0.9755
-3.5458 4.5944 -2.0754 0.9756
-4.2860 3.8764 -2.0666 0.9757
-4.6049 3.4727 -2.0625 0.9758
-5.3314 2.1218 -2.0520 0.9759
-5.6817 0.6356 -2.0445 0.9760
-5.7108 0.1273 -2.0427 0.9760
-5.6958 -0.3813 -2.0414 0.9760
-5.5340 -1.3841 -2.0400 0.9761
-5.3886 -1.8711 -2.0399 0.9761
-4.9741 -2.7984 -2.0410 0.9760
-4.7080 -3.2318 -2.0421 0.9760
-4.4050 -3.6408 -2.0437 0.9760
-3.6975 -4.3734 -2.0480 0.9760
-2.8716 -4.9737 -2.0538 0.9759
-2.4215 -5.2181 -2.0572 0.9759
-0.9624 -5.7052 -2.0690 0.9757
1.0990 -5.7336 -2.0877 0.9755
4.6660 -3.6847 -2.1261 0.9751
5.2651 -2.8095 -2.1341 0.9750
5.8680 1.3295 -2.1516 0.9748
5.0305 3.2908 -2.1497 0.9748
4.7141 3.7227 -2.1481 0.9748
3.9710 4.4900 -2.1435 0.9749
3.5508 4.8192 -2.1407 0.9749
2.1407 5.5582 -2.1300 0.9750
1.6343 5.7155 -2.1258 0.9751
0.5925 5.8897 -2.1168 0.9752
0.0658 5.9058 -2.1121 0.9752
-0.4591 5.8746 -2.1072 0.9753
-0.9778 5.7968 -2.1023 0.9753
-1.4863 5.6733 -2.0973 0.9754
-1.9807 5.5054 -2.0923 0.9755
-2.9117 5.0432 -2.0825 0.9756
-3.3414 4.7532 -2.0777 0.9756
-3.7428 4.4271 -2.0731 0.9757
-4.4499 3.6780 -2.0645 0.9758
-5.0130 2.8203 -2.0569 0.9759
-5.4167 1.8809 -2.0505 0.9759
-5.6505 0.8885 -2.0455 0.9760
-5.7018 0.3817 -2.0436 0.9760
-5.5907 -1.1363 -2.0402 0.9761
-5.0928 -2.5735 -2.0405 0.9761
-4.5610 -3.4396 -2.0429 0.9760
-4.2404 -3.8352 -2.0446 0.9760
-3.8863 -4.2018 -2.0468 0.9760
-3.5012 -4.5367 -2.0493 0.9759
-2.6493 -5.1008 -2.0554 0.9759
-1.7090 -5.5094 -2.0628 0.9758
-1.2143 -5.6508 -2.0669 0.9757
-0.1939 -5.7990 -2.0749 0.9757
2.8290 -5.1623 -2.1051 0.9753
3.2849 -4.9014 -2.1100 0.9752
3.7166 -4.6001 -2.1148 0.9752
5.1301 -3.0386 -2.1322 0.9750
5.3896 -2.5744 -2.1359 0.9749
5.6062 -2.0878 -2.1393 0.9749
5.7779 -1.5827 -2.1423 0.9749
5.5981 0.0000 -2.1453 0.9763
5.5149 0.9936 -2.1474 0.9763
5.2523 1.9560 -2.1478 0.9763
5.0563 2.4152 -2.1474 0.9763
4.8193 2.8545 -2.1465 0.9763
3.8846 4.0167 -2.1414 0.9763
2.6747 4.8808 -2.1329 0.9764
2.2261 5.0912 -2.1294 0.9765
1.7610 5.2599 -2.1256 0.9765
0.7974 5.4677 -2.1175 0.9766
0.3070 5.5056 -2.1131 0.9767
-0.1839 5.4994 -2.1086 0.9767
-0.6711 5.4493 -2.1041 0.9768
-1.1510 5.3561 -2.0994 0.9768
-4.3015 3.2439 -2.0646 0.9772
-4.7925 2.4218 -2.0578 0.9773
-4.9818 1.9827 -2.0548 0.9773
-5.3104 0.5941 -2.0477 0.9774
-5.3380 0.1190 -2.0461 0.9774
-5.3241 -0.3564 -2.0449 0.9774
-5.2690 -0.8285 -2.0440 0.9774
-5.1731 -1.2939 -2.0435 0.9774
-3.4555 -4.0872 -2.0510 0.9773
-1.3668 -5.2171 -2.0668 0.9772
-0.8988 -5.3282 -2.0707 0.9771
-0.4218 -5.3978 -2.0749 0.9771
0.5442 -5.4098 -2.0836 0.9770
1.0258 -5.3516 -2.0882 0.9769
3.6574 -4.1354 -2.1156 0.9766
4.3497 -3.4349 -2.1240 0.9765
4.6466 -3.0397 -2.1278 0.9765
4.9070 -2.6184 -2.1314 0.9765
5.1285 -2.1747 -2.1347 0.9764
5.3091 -1.7120 -2.1377 0.9764
5.5905 -0.2493 -2.1445 0.9763
5.5527 0.7468 -2.1471 0.9763
4.0618 3.8416 -2.1425 0.9763
3.6998 4.1834 -2.1402 0.9764
3.3086 4.4905 -2.1375 0.9764
1.0413 5.4321 -2.1196 0.9766
0.5525 5.4922 -2.1153 0.9766
-1.3869 5.2937 -2.0971 0.9768
-3.4951 4.1340 -2.0745 0.9771
-3.8415 3.7989 -2.0704 0.9771
-4.1565 3.4354 -2.0665 0.9772
-4.4378 3.0464 -2.0628 0.9772
-4.8920 2.2042 -2.0562 0.9773
-5.0618 1.7576 -2.0534 0.9773
-5.1918 1.2986 -2.0509 0.9773
-5.2811 0.8304 -2.0487 0.9774
-5.3294 0.3568 -2.0469 0.9774
-5.1101 -1.5230 -2.0434 0.9774
-4.9546 -1.9719 -2.0435 0.9774
-4.5296 -2.8210 -2.0449 0.9774
-3.2720 -4.2396 -2.0523 0.9773
-2.4753 -4.7658 -2.0580 0.9773
-1.5964 -5.1464 -2.0649 0.9772
-1.1341 -5.2778 -2.0687 0.9771
-0.6612 -5.3682 -2.0728 0.9771
0.3024 -5.4229 -2.0814 0.9770
0.7855 -5.3860 -2.0859 0.9770
1.7357 -5.1843 -2.0951 0.9769
2.6391 -4.8157 -2.1044 0.9768
3.0639 -4.5716 -2.1090 0.9767
3.4659 -4.2898 -2.1135 0.9767
4.7815 -2.8321 -2.1297 0.9765
5.0227 -2.3992 -2.1331 0.9764
5.3835 -1.4747 -2.1391 0.9764
5.4997 -0.9908 -2.1415 0.9763
5.5715 -0.4979 -2.1436 0.9763
5.2336 0.0000 -2.1420 0.9776
5.2157 0.4661 -2.1432 0.9776
5.0533 1.3842 -2.1444 0.9776
4.9100 1.8285 -2.1443 0.9776
4.7268 2.2578 -2.1439 0.9776
4.2475 3.0572 -2.1419 0.9776
3.6321 3.7556 -2.1383 0.9777
2.9019 4.3300 -2.1333 0.9777
2.0821 4.7620 -2.1271 0.9778
1.6473 4.9203 -2.1236 0.9778
0.7461 5.1160 -2.1160 0.9779
0.2873 5.1521 -2.1119 0.9779
-0.1721 5.1470 -2.1077 0.9780
-0.6282 5.1009 -2.1034 0.9780
-1.5164 4.8884 -2.0947 0.9781
-1.9414 4.7242 -2.0904 0.9782
-2.7371 4.2876 -2.0819 0.9783
-3.1017 4.0190 -2.0778 0.9783
-3.4406 3.7199 -2.0738 0.9783
-3.7512 3.3927 -2.0701 0.9784
-4.0313 3.0401 -2.0665 0.9784
-4.2789 2.6650 -2.0631 0.9784
-4.4924 2.2701 -2.0600 0.9785
-4.6702 1.8587 -2.0572 0.9785
-2.1285 0.0474 -0.8714 0.9908
-2.1302 -0.1426 -0.8738 0.9908
-2.1308 -0.5329 -0.8989 0.9906
-4.1266 -2.8328 -2.0486 0.9786
-3.8607 -3.1910 -2.0500 0.9786
-3.5644 -3.5249 -2.0517 0.9786
-3.2398 -3.8320 -2.0537 0.9785
-2.8892 -4.1099 -2.0561 0.9785
-2.1205 -4.5696 -2.0618 0.9785
-0.8421 -4.9926 -2.0722 0.9784
-0.3952 -5.0572 -2.0761 0.9783
0.0566 -5.0821 -2.0801 0.9783
0.5097 -5.0671 -2.0843 0.9782
0.9607 -5.0118 -2.0886 0.9782
1.8417 -4.7819 -2.0972 0.9781
2.2647 -4.6085 -2.1016 0.9781
2.6714 -4.3977 -2.1059 0.9780
3.7602 -3.5564 -2.1183 0.9779
4.0691 -3.2133 -2.1221 0.9778
4.3463 -2.8432 -2.1257 0.9778
4.7961 -2.0337 -2.1321 0.9777
5.0932 -1.1540 -2.1374 0.9777
5.2300 0.2332 -2.1426 0.9776
5.1096 1.1577 -2.1442 0.9776
4.9867 1.6080 -2.1444 0.9776
4.6207 2.4657 -2.1436 0.9776
4.1057 3.2422 -2.1411 0.9776
3.4594 3.9116 -2.1372 0.9777
3.0939 4.1991 -2.1347 0.9777
2.7043 4.4519 -2.1319 0.9777
2.2940 4.6681 -2.1288 0.9778
1.4253 4.9845 -2.1218 0.9778
0.5170 5.1392 -2.1140 0.9779
0.0574 5.1547 -2.1098 0.9780
-0.8540 5.0626 -2.1013 0.9781
-2.1477 4.6282 -2.0882 0.9782
-3.2745 3.8731 -2.0758 0.9783
-4.1593 2.8552 -2.0648 0.9784
-4.3900 2.4698 -2.0616 0.9785
-4.5859 2.0663 -2.0586 0.9785
-4.7454 1.6478 -2.0559 0.9785
-2.1345 0.3356 -0.8843 0.9907
-2.1302 0.1426 -0.8738 0.9908
-2.1285 -0.0474 -0.8714 0.9908
-2.1365 -0.4343 -0.8923 0.9906
-4.7922 -1.4282 -2.0466 0.9786
-4.6463 -1.8492 -2.0467 0.9786
-4.2476 -2.6454 -2.0480 0.9786
-3.4055 -3.6819 -2.0527 0.9786
-3.0676 -3.9748 -2.0549 0.9785
-1.9163 -4.6631 -2.0634 0.9784
-0.1697 -5.0746 -2.0781 0.9783
0.2832 -5.0796 -2.0822 0.9783
0.7357 -5.0444 -2.0864 0.9782
1.1842 -4.9692 -2.0907 0.9782
1.6252 -4.8541 -2.0951 0.9781
2.0550 -4.7000 -2.0994 0.9781
2.4703 -4.5077 -2.1038 0.9780
2.8675 -4.2786 -2.1080 0.9780
3.2434 -4.0144 -2.1122 0.9779
3.5947 -3.7169 -2.1163 0.9779
4.2119 -3.0315 -2.1239 0.9778
4.4723 -2.6489 -2.1274 0.9778
4.6974 -2.2438 -2.1306 0.9778
5.0339 -1.3790 -2.1362 0.9777
4.8911 0.4371 -2.1401 0.9788
4.7386 1.2980 -2.1412 0.9788
3.9834 2.8671 -2.1389 0.9788
3.7098 3.2080 -2.1374 0.9788
3.0764 3.8077 -2.1334 0.9789
2.3467 4.2822 -2.1281 0.9789
1.9535 4.4677 -2.1251 0.9789
1.5457 4.6167 -2.1218 0.9790
1.1268 4.7282 -2.1183 0.9790
0.7003 4.8014 -2.1147 0.9791
0.2696 4.8359 -2.1108 0.9791
-1.0118 4.7083 -2.0988 0.9792
-1.4240 4.5906 -2.0947 0.9792
-1.8234 4.4370 -2.0906 0.9793
-2.9142 3.7761 -2.0788 0.9794
-3.2330 3.4955 -2.0751 0.9794
-4.0220 2.5049 -2.0650 0.9795
-4.3906 1.7474 -2.0595 0.9796
-1.8741 0.5585 -0.8523 0.9915
-1.9300 0.3923 -0.8583 0.9914
-1.9433 0.2174 -0.8522 0.9915
-1.9470 0.0434 -0.8487 0.9915
-1.9397 -0.3050 -0.8557 0.9915
-1.8290 -0.6351 -0.8438 0.9916
-4.2880 -1.9321 -2.0497 0.9797
-4.1002 -2.3067 -2.0503 0.9797
-3.8805 -2.6638 -2.0513 0.9797
-3.0461 -3.6029 -2.0562 0.9796
-2.3645 -4.0954 -2.0609 0.9796
-1.9933 -4.2954 -2.0637 0.9795
-1.6054 -4.4623 -2.0668 0.9795
0.0532 -4.7746 -2.0810 0.9794
0.4788 -4.7599 -2.0849 0.9793
0.9023 -4.7074 -2.0889 0.9793
1.3203 -4.6173 -2.0930 0.9793
1.7294 -4.4903 -2.0971 0.9792
2.1263 -4.3269 -2.1012 0.9792
2.5078 -4.1285 -2.1052 0.9791
3.2120 -3.6319 -2.1130 0.9791
3.8182 -3.0152 -2.1204 0.9790
4.3056 -2.2975 -2.1269 0.9789
4.4991 -1.9078 -2.1298 0.9789
4.6567 -1.5016 -2.1324 0.9789
4.8590 -0.6534 -2.1367 0.9788
4.9016 -0.2186 -2.1383 0.9788
4.9046 0.2187 -2.1396 0.9788
4.7914 1.0856 -2.1411 0.9788
4.5230 1.9179 -2.1411 0.9788
4.3331 2.3122 -2.1405 0.9788
4.1083 2.6875 -2.1395 0.9788
3.8504 3.0406 -2.1382 0.9788
3.2447 3.6688 -2.1345 0.9789
2.9021 3.9387 -2.1322 0.9789
0.9143 4.7696 -2.1165 0.9790
0.0539 4.8386 -2.1089 0.9791
-0.8018 4.7533 -2.1008 0.9792
-1.2193 4.6540 -2.0968 0.9792
-2.0173 4.3471 -2.0886 0.9793
-2.3916 4.1424 -2.0846 0.9793
-3.3825 3.3451 -2.0733 0.9795
-3.6607 3.0257 -2.0698 0.9795
-4.1266 2.3216 -2.0635 0.9796
-1.9397 0.3050 -0.8557 0.9915
-1.9479 0.1304 -0.8508 0.9915
-1.9470 -0.0434 -0.8487 0.9915
-1.8741 -0.5585 -0.8523 0.9915
-4.1982 -2.1214 -2.0500 0.9797
-3.9943 -2.4876 -2.0508 0.9797
-3.7591 -2.8348 -2.0519 0.9797
-3.2020 -3.4619 -2.0552 0.9796
-2.8841 -3.7370 -2.0573 0.9796
-2.1811 -4.1994 -2.0623 0.9796
-1.4061 -4.5329 -2.0684 0.9795
-0.9987 -4.6477 -2.0718 0.9795
-0.5821 -4.7262 -2.0753 0.9794
-0.1594 -4.7678 -2.0791 0.9794
0.2661 -4.7720 -2.0829 0.9794
1.1122 -4.6670 -2.0909 0.9793
1.5262 -4.5584 -2.0950 0.9792
3.0443 -3.7679 -2.1111 0.9791
3.3736 -3.4883 -2.1149 0.9790
3.9520 -2.8444 -2.1221 0.9790
4.4067 -2.1049 -2.1284 0.9789
4.5825 -1.7065 -2.1311 0.9789
4.8229 -0.8689 -2.1357 0.9788
4.8852 -0.4365 -2.1375 0.9788
4.6153 0.0000 -2.1364 0.9799
4.5992 0.4110 -2.1374 0.9799
4.5459 0.8190 -2.1381 0.9798
4.4557 1.2205 -2.1384 0.9798
4.3293 1.6123 -2.1384 0.9798
3.9728 2.3531 -2.1373 0.9799
3.4886 3.0167 -2.1349 0.9799
2.5603 3.8203 -2.1287 0.9799
2.2074 4.0280 -2.1261 0.9800
1.8377 4.2029 -2.1233 0.9800
1.4542 4.3434 -2.1202 0.9800
0.6589 4.5180 -2.1135 0.9801
0.2538 4.5510 -2.1099 0.9801
-1.3407 4.3221 -2.0947 0.9803
-1.7169 4.1780 -2.0908 0.9803
-2.0782 4.0013 -2.0870 0.9803
-2.4218 3.7936 -2.0833 0.9804
-2.7450 3.5568 -2.0797 0.9804
-3.0456 3.2928 -2.0762 0.9804
-3.7899 2.3604 -2.0667 0.9805
-1.5924 0.4746 -0.7692 0.9927
-1.6373 0.3328 -0.7734 0.9927
-1.6738 -0.1120 -0.7765 0.9926
-1.6165 -0.4043 -0.7713 0.9927
-4.0423 -1.8214 -2.0523 0.9806
-3.8652 -2.1745 -2.0529 0.9806
-3.6580 -2.5110 -2.0538 0.9806
-3.4220 -2.8283 -2.0550 0.9806
-2.8710 -3.3958 -2.0584 0.9806
-2.5600 -3.6416 -2.0605 0.9806
-1.5127 -4.2046 -2.0684 0.9805
-0.7455 -4.4198 -2.0747 0.9804
-0.3498 -4.4760 -2.0782 0.9804
0.0501 -4.4971 -2.0818 0.9804
1.2431 -4.3475 -2.0931 0.9803
2.3605 -3.8859 -2.1046 0.9802
2.7018 -3.6669 -2.1083 0.9801
3.0226 -3.4177 -2.1119 0.9801
3.5924 -2.8368 -2.1188 0.9800
3.8363 -2.5096 -2.1220 0.9800
4.0501 -2.1612 -2.1249 0.9800
4.2318 -1.7944 -2.1277 0.9799
4.4926 -1.0179 -2.1323 0.9799
4.5772 0.6156 -2.1378 0.9798
4.5054 1.0208 -2.1383 0.9798
4.0745 2.1742 -2.1377 0.9798
2.7295 3.7045 -2.1299 0.9799
1.6474 4.2775 -2.1218 0.9800
1.2583 4.4005 -2.1186 0.9800
0.4566 4.5391 -2.1117 0.9801
-0.7548 4.4746 -2.1005 0.9802
-1.1479 4.3816 -2.0966 0.9802
-1.5305 4.2542 -2.0928 0.9803
-2.2524 3.9012 -2.0852 0.9803
-3.1866 3.1513 -2.0745 0.9804
-3.4490 2.8507 -2.0712 0.9805
-3.6836 2.5287 -2.0682 0.9805
-3.8887 2.1877 -2.0653 0.9805
-1.6738 0.1121 -0.7765 0.9926
-1.6716 -0.0372 -0.7739 0.9927
-1.6675 -0.1865 -0.7767 0.9926
-1.6373 -0.3328 -0.7734 0.9927
-1.5924 -0.4746 -0.7692 0.9927
-3.7653 -2.3450 -2.0533 0.9806
-3.5435 -2.6723 -2.0543 0.9806
-3.2938 -2.9790 -2.0557 0.9806
-2.3966 -3.7542 -2.0616 0.9806
-2.0554 -3.9574 -2.0642 0.9805
-1.6973 -4.1301 -2.0669 0.9805
-0.5483 -4.4522 -2.0764 0.9804
-0.1501 -4.4909 -2.0800 0.9804
0.6508 -4.4622 -2.0873 0.9803
1.0473 -4.3946 -2.0911 0.9803
1.4369 -4.2918 -2.0950 0.9802
2.1830 -3.9836 -2.1027 0.9802
2.5335 -3.7802 -2.1064 0.9801
2.8649 -3.5460 -2.1101 0.9801
3.9471 -2.3379 -2.1235 0.9800
4.3101 -1.6051 -2.1289 0.9799
4.4407 -1.2164 -2.1312 0.9799
4.3503 0.0000 -2.1339 0.9808
4.0806 1.5196 -2.1359 0.9808
3.7447 2.2180 -2.1349 0.9808
3.2885 2.8437 -2.1325 0.9808
3.0200 3.1227 -2.1309 0.9808
1.7328 3.9630 -2.1216 0.9809
-0.1434 4.2900 -2.1055 0.9811
-0.5238 4.2529 -2.1019 0.9811
-1.9615 3.7766 -2.0875 0.9812
-2.2860 3.5809 -2.0839 0.9813
-2.5914 3.3577 -2.0805 0.9813
-3.3710 2.5422 -2.0710 0.9814
-1.3059 0.5198 -0.6895 0.9938
-1.3200 0.3934 -0.6756 0.9939
-1.3047 0.2652 -0.6531 0.9941
-1.3536 0.0302 -0.6641 0.9940
-1.3257 -0.2084 -0.6583 0.9940
-1.3149 -0.3289 -0.6649 0.9940
-1.3171 -0.4573 -0.6839 0.9938
-1.2865 -0.5797 -0.6922 0.9937
-3.6515 -2.0543 -2.0552 0.9815
-2.7119 -3.2076 -2.0604 0.9815
-2.4179 -3.4396 -2.0624 0.9814
-2.1045 -3.6451 -2.0646 0.9814
-1.7739 -3.8226 -2.0671 0.9814
-1.0709 -4.0876 -2.0727 0.9813
0.0473 -4.2451 -2.0825 0.9813
0.4257 -4.2311 -2.0859 0.9812
1.1731 -4.1027 -2.0931 0.9812
1.5363 -3.9889 -2.0968 0.9811
2.2269 -3.6659 -2.1040 0.9811
2.5486 -3.4589 -2.1075 0.9810
3.1315 -2.9617 -2.1143 0.9810
3.8188 -2.0377 -2.1232 0.9809
3.9898 -1.6918 -2.1258 0.9809
4.1290 -1.3314 -2.1281 0.9809
4.3448 -0.1937 -2.1333 0.9808
4.3143 0.5802 -2.1353 0.9808
4.2465 0.9621 -2.1358 0.9808
4.0086 1.6998 -2.1358 0.9808
3.6414 2.3821 -2.1344 0.9808
3.1574 2.9862 -2.1318 0.9808
2.8767 3.2527 -2.1300 0.9808
2.2497 3.7035 -2.1256 0.9809
1.5535 4.0335 -2.1202 0.9809
1.1866 4.1499 -2.1172 0.9810
0.8113 4.2327 -2.1140 0.9810
0.0479 4.2957 -2.1072 0.9810
-0.7121 4.2218 -2.1001 0.9811
-1.0832 4.1344 -2.0965 0.9811
-2.1260 3.6823 -2.0857 0.9812
-2.4412 3.4727 -2.0822 0.9813
-3.4785 2.3878 -2.0696 0.9814
-3.6724 2.0661 -2.0669 0.9814
-1.3171 0.4573 -0.6839 0.9938
-1.3149 0.3289 -0.6649 0.9940
-1.3257 0.2085 -0.6583 0.9940
-1.3419 -0.1501 -0.6624 0.9940
-1.3047 -0.2652 -0.6531 0.9941
-1.3200 -0.3934 -0.6756 0.9939
-3.3474 -2.5244 -2.0566 0.9815
-2.8508 -3.0822 -2.0595 0.9815
-2.2635 -3.5458 -2.0635 0.9814
-1.9412 -3.7374 -2.0658 0.9814
-1.2510 -4.0330 -2.0713 0.9814
-0.8884 -4.1343 -2.0743 0.9813
-0.1417 -4.2395 -2.0808 0.9813
0.2365 -4.2423 -2.0842 0.9812
0.6142 -4.2115 -2.0877 0.9812
1.3559 -4.0499 -2.0949 0.9812
1.7139 -3.9199 -2.0986 0.9811
2.0596 -3.7583 -2.1022 0.9811
2.3900 -3.5661 -2.1058 0.9811
3.5060 -2.5235 -2.1189 0.9809
3.7218 -2.2044 -2.1218 0.9809
4.1863 -1.1467 -2.1291 0.9808
4.2756 -0.7703 -2.1310 0.9808
4.1092 0.0000 -2.1318 0.9817
4.0946 0.3659 -2.1327 0.9816
4.0470 0.7291 -2.1333 0.9816
3.9666 1.0866 -2.1336 0.9816
3.8541 1.4353 -2.1336 0.9816
3.5370 2.0950 -2.1326 0.9816
3.1063 2.6861 -2.1304 0.9817
2.8528 2.9498 -2.1289 0.9817
1.9664 3.5882 -2.1227 0.9817
0.5874 4.0273 -2.1114 0.9818
-0.4952 4.0205 -2.1015 0.9819
-0.8497 3.9540 -2.0981 0.9819
-1.1963 3.8564 -2.0947 0.9820
-1.5322 3.7285 -2.0912 0.9820
-2.4511 3.1760 -2.0813 0.9821
-2.9666 2.6832 -2.0751 0.9821
-3.1893 2.4052 -2.0723 0.9822
-1.0665 0.5390 -0.6199 0.9946
-1.1266 0.3358 -0.6099 0.9947
-1.1332 0.2304 -0.5999 0.9948
-1.1785 0.0263 -0.6115 0.9947
-1.1739 -0.0786 -0.6103 0.9947
-1.0898 -0.4910 -0.6201 0.9946
-3.2707 -2.2452 -2.0581 0.9823
-3.0595 -2.5287 -2.0592 0.9823
-2.8242 -2.7929 -2.0605 0.9823
-2.5664 -3.0356 -2.0622 0.9822
-2.2882 -3.2549 -2.0641 0.9822
-1.9914 -3.4492 -2.0662 0.9822
-1.0132 -3.8671 -2.0739 0.9821
-0.6659 -3.9476 -2.0768 0.9821
-0.3123 -3.9970 -2.0799 0.9821
0.7583 -3.9562 -2.0898 0.9820
1.1093 -3.8794 -2.0932 0.9820
1.7854 -3.6331 -2.1001 0.9819
2.1050 -3.4654 -2.1035 0.9819
3.2013 -2.5280 -2.1162 0.9818
3.6081 -1.9253 -2.1216 0.9817
3.7694 -1.5983 -2.1240 0.9817
3.9007 -1.2578 -2.1262 0.9817
4.1040 -0.1830 -2.1312 0.9817
4.1061 0.1831 -2.1323 0.9816
4.0109 0.9087 -2.1335 0.9816
3.9143 1.2622 -2.1336 0.9816
3.7862 1.6055 -2.1335 0.9816
2.1254 3.4990 -2.1238 0.9817
0.4071 4.0464 -2.1098 0.9818
0.0452 4.0603 -2.1065 0.9819
-0.3158 4.0418 -2.1032 0.9819
-0.6732 3.9912 -2.0998 0.9819
-1.0241 3.9091 -2.0964 0.9820
-1.3657 3.7961 -2.0929 0.9820
-2.3090 3.2846 -2.0829 0.9821
-2.5882 3.0613 -2.0797 0.9821
-2.8462 2.8147 -2.0766 0.9821
-3.0811 2.5466 -2.0737 0.9821
-3.2911 2.2593 -2.0710 0.9822
-1.1198 0.3889 -0.6150 0.9947
-1.1275 0.2820 -0.6029 0.9948
-1.1517 0.1811 -0.6048 0.9948
-1.1739 0.0786 -0.6103 0.9947
-1.1785 -0.0263 -0.6115 0.9947
-1.1266 -0.3358 -0.6099 0.9947
-1.0665 -0.5390 -0.6199 0.9946
-3.3667 -2.0968 -2.0576 0.9823
-2.9447 -2.6634 -2.0598 0.9823
-2.1420 -3.3553 -2.0651 0.9822
-1.5166 -3.6904 -2.0698 0.9822
-1.1836 -3.8156 -2.0725 0.9822
-0.4897 -3.9762 -2.0784 0.9821
-0.1341 -4.0100 -2.0815 0.9821
0.9346 -3.9217 -2.0915 0.9820
1.2820 -3.8292 -2.0949 0.9820
1.9470 -3.5529 -2.1018 0.9819
2.2591 -3.3708 -2.1051 0.9819
2.5542 -3.1613 -2.1084 0.9819
3.0833 -2.6663 -2.1147 0.9818
3.5166 -2.0829 -2.1203 0.9818
3.8389 -1.4296 -2.1251 0.9817
3.9547 -1.0833 -2.1272 0.9817
4.0388 -0.7276 -2.1290 0.9817
4.0905 -0.3655 -2.1305 0.9817
2.0036 0.3610 -1.1150 0.9908
2.0004 0.5480 -1.1360 0.9906
1.9715 0.7342 -1.1522 0.9905
3.3470 1.9824 -2.1306 0.9824
3.1559 2.2715 -2.1297 0.9824
2.9396 2.5420 -2.1285 0.9824
2.6998 2.7916 -2.1270 0.9824
2.4386 3.0184 -2.1253 0.9825
2.1583 3.2205 -2.1233 0.9825
1.2266 3.6638 -2.1161 0.9825
0.8945 3.7535 -2.1134 0.9826
0.2142 3.8418 -2.1074 0.9826
-0.1284 3.8399 -2.1043 0.9826
-0.8047 3.7449 -2.0979 0.9827
-1.1331 3.6527 -2.0946 0.9827
-1.7573 3.3835 -2.0882 0.9828
-2.5774 2.7866 -2.0790 0.9828
-2.8113 2.5427 -2.0761 0.9829
-0.9638 0.3836 -0.5681 0.9953
-0.9825 0.2928 -0.5615 0.9953
-1.0293 0.1152 -0.5673 0.9953
-0.9472 -0.4268 -0.5690 0.9953
-3.1008 -2.1286 -2.0600 0.9830
-2.6773 -2.6476 -2.0623 0.9830
-2.4329 -2.8776 -2.0639 0.9830
-2.1690 -3.0854 -2.0657 0.9829
-1.5908 -3.4281 -2.0699 0.9829
-0.9601 -3.6648 -2.0750 0.9829
-0.2960 -3.7873 -2.0807 0.9828
0.3814 -3.7910 -2.0868 0.9828
0.7184 -3.7477 -2.0900 0.9827
1.6908 -3.4407 -2.0998 0.9827
1.9934 -3.2816 -2.1030 0.9826
3.4152 -1.8224 -2.1201 0.9825
1.9895 -0.6415 -1.1449 0.9905
2.0434 -0.0911 -1.1203 0.9907
2.0434 0.0911 -1.1203 0.9907
1.9895 0.6415 -1.1449 0.9905
1.9407 0.8229 -1.1546 0.9904
3.2547 2.1291 -2.1302 0.9824
1.7071 3.4739 -2.1200 0.9825
1.3895 3.6078 -2.1175 0.9825
0.7259 3.7871 -2.1119 0.9826
0.3854 3.8312 -2.1090 0.9826
-0.6376 3.7799 -2.0995 0.9827
-2.6971 2.6672 -2.0775 0.9828
-2.9199 2.4133 -2.0748 0.9829
-3.1192 2.1412 -2.0722 0.9829
-0.9847 0.2463 -0.5559 0.9954
-1.0166 0.1599 -0.5637 0.9953
-1.0376 0.0695 -0.5696 0.9953
-1.0293 -0.1151 -0.5673 0.9953
-1.0000 -0.2033 -0.5589 0.9954
-0.9825 -0.2928 -0.5615 0.9953
-0.9638 -0.3836 -0.5681 0.9953
-0.9364 -0.4732 -0.5746 0.9952
-3.0036 -2.2651 -2.0604 0.9830
-2.0303 -3.1805 -2.0666 0.9829
-1.7410 -3.3520 -2.0688 0.9829
-1.4374 -3.4976 -2.0711 0.9829
-0.7965 -3.7064 -2.0763 0.9829
-0.4640 -3.7677 -2.0792 0.9828
0.8853 -3.7149 -2.0916 0.9827
1.2143 -3.6270 -2.0949 0.9827
1.5347 -3.5099 -2.0981 0.9827
1.8438 -3.3646 -2.1014 0.9827
2.4184 -2.9933 -2.1077 0.9826
3.1362 -2.2573 -2.1163 0.9825
3.3287 -1.9716 -2.1189 0.9825
3.4949 -1.6694 -2.1213 0.9825
1.9714 -0.7342 -1.1522 0.9905
1.8754 0.0000 -1.0828 0.9914
1.8426 0.3320 -1.0810 0.9914
1.8267 0.5004 -1.0935 0.9913
1.7194 0.8213 -1.1001 0.9912
3.1723 1.8790 -2.1287 0.9831
2.9913 2.1530 -2.1278 0.9831
2.7863 2.4094 -2.1267 0.9831
2.3117 2.8612 -2.1237 0.9832
2.0460 3.0529 -2.1218 0.9832
1.7645 3.2198 -2.1198 0.9832
0.8482 3.5591 -2.1124 0.9832
0.5273 3.6158 -2.1096 0.9833
0.2032 3.6434 -2.1068 0.9833
-0.4448 3.6114 -2.1008 0.9833
-1.0749 3.4651 -2.0946 0.9834
-2.6682 2.4132 -2.0771 0.9835
-2.8688 2.1635 -2.0745 0.9835
-0.8491 0.5288 -0.5776 0.9954
-0.9120 0.1854 -0.5373 0.9957
-0.9306 0.0207 -0.5374 0.9957
-0.9274 -0.0621 -0.5366 0.9957
-0.9030 -0.2258 -0.5374 0.9957
-0.8983 -0.3119 -0.5490 0.9956
-0.8858 -0.3991 -0.5609 0.9955
-0.8638 -0.4860 -0.5722 0.9954
-2.7538 -2.2761 -2.0627 0.9836
-2.3097 -2.7319 -2.0654 0.9836
-1.7918 -3.1036 -2.0690 0.9836
-1.2158 -3.3793 -2.0735 0.9835
-0.5988 -3.5501 -2.0786 0.9835
0.0402 -3.6098 -2.0842 0.9835
0.3619 -3.5970 -2.0872 0.9834
0.9968 -3.4860 -2.0933 0.9834
1.6038 -3.2636 -2.0995 0.9833
2.1632 -2.9360 -2.1055 0.9833
2.4193 -2.7356 -2.1084 0.9833
2.8735 -2.2692 -2.1139 0.9832
3.0677 -2.0068 -2.1165 0.9832
1.7564 -0.7448 -1.1014 0.9912
1.8108 -0.5839 -1.0985 0.9913
1.8316 -0.4150 -1.0843 0.9914
1.8592 -0.2500 -1.0831 0.9914
1.8755 -0.0836 -1.0839 0.9914
1.8755 0.0836 -1.0839 0.9914
1.8592 0.2501 -1.0831 0.9914
1.8316 0.4150 -1.0843 0.9914
1.6861 0.8997 -1.1034 0.9912
3.0849 2.0180 -2.1283 0.9831
2.6754 2.5303 -2.1260 0.9831
1.9071 3.1395 -2.1208 0.9832
0.6883 3.5911 -2.1110 0.9833
-0.9201 3.5121 -2.0962 0.9834
-1.5238 3.2837 -2.0900 0.9834
-2.0759 2.9530 -2.0840 0.9835
-2.5596 2.5313 -2.0784 0.9835
-2.7713 2.2905 -2.0758 0.9835
-0.8638 0.4859 -0.5722 0.9954
-0.8984 0.3119 -0.5490 0.9956
-0.9030 0.2259 -0.5374 0.9957
-0.9189 0.1445 -0.5370 0.9957
-0.9274 0.0621 -0.5366 0.9957
-0.9120 -0.1854 -0.5373 0.9957
-0.8491 -0.5288 -0.5776 0.9954
-2.8517 -2.1506 -2.0622 0.9836
-2.1865 -2.8332 -2.0662 0.9836
-1.6526 -3.1819 -2.0701 0.9836
-1.3643 -3.3199 -2.0723 0.9836
-1.0647 -3.4321 -2.0747 0.9835
-0.4404 -3.5756 -2.0800 0.9835
-0.1205 -3.6055 -2.0828 0.9835
1.4557 -3.3294 -2.0979 0.9834
1.7489 -3.1913 -2.1010 0.9833
2.9735 -2.1402 -2.1152 0.9832
1.7194 -0.8213 -1.1001 0.9912
1.7869 -0.6654 -1.1009 0.9912
1.8267 -0.5004 -1.0935 0.9913
1.8700 -0.1671 -1.0839 0.9914
