ply
format ascii 1.0
element vertex 503
property float32 x
property float32 y
property float32 z
property float32 I
end_header
18.4461 0.0000 -5.6736 0.9257
18.3729 1.6418 -5.6736 0.9257
18.1539 3.2706 -5.6736 0.9257
16.6448 7.9505 -5.6736 0.9257
15.8711 9.4005 -5.6736 0.9257
14.9714 10.7758 -5.6736 0.9257
11.2812 13.9629 -5.5212 0.9276
-14.3320 10.8083 -5.5212 0.9276
-15.5805 9.7037 -5.6457 0.9261
-18.0765 3.6742 -5.6736 0.9257
-18.3318 2.0507 -5.6736 0.9257
-18.4416 0.4110 -5.6736 0.9257
-18.2223 -2.8653 -5.6736 0.9257
-17.4101 -6.0454 -5.6686 0.9258
-16.3661 -7.3742 -5.5212 0.9276
17.5069 -3.9666 -5.5212 0.9276
18.4278 0.8217 -5.6736 0.9257
16.9825 7.2012 -5.6736 0.9257
10.6480 14.4516 -5.5212 0.9276
-13.8363 11.4360 -5.5212 0.9276
-16.0766 9.0445 -5.6736 0.9257
-16.8178 7.5777 -5.6736 0.9257
-17.4255 6.0508 -5.6736 0.9257
-17.8949 4.4758 -5.6736 0.9257
-18.2223 2.8653 -5.6736 0.9257
-18.4050 1.2321 -5.6736 0.9257
-18.4416 -0.4110 -5.6736 0.9257
-18.0765 -3.6742 -5.6736 0.9257
-16.0213 -8.0959 -5.5212 0.9276
17.6663 -3.1827 -5.5212 0.9276
18.3586 -1.6405 -5.6692 0.9258
17.0684 0.0000 -5.6736 0.9306
17.0007 1.5192 -5.6736 0.9306
16.7980 3.0263 -5.6736 0.9306
16.4620 4.5094 -5.6736 0.9306
15.4016 7.3567 -5.6736 0.9306
10.4386 12.9200 -5.5212 0.9324
9.2472 13.7978 -5.5212 0.9324
-14.4883 9.0234 -5.6736 0.9306
-15.2339 7.6980 -5.6736 0.9306
-15.8586 6.3116 -5.6736 0.9306
-16.3574 4.8750 -5.6736 0.9306
-16.7264 3.3998 -5.6736 0.9306
-17.0642 0.3803 -5.6736 0.9306
-17.0303 -1.1400 -5.6736 0.9306
-15.1437 -6.8234 -5.5212 0.9324
-14.4763 -8.1442 -5.5212 0.9324
15.8084 -5.0976 -5.5212 0.9324
16.1994 -3.6703 -5.5212 0.9324
16.9060 -2.2736 -5.6702 0.9306
17.0515 0.7603 -5.6736 0.9306
16.2447 5.2383 -5.6736 0.9306
15.7141 6.6633 -5.6736 0.9306
15.0586 8.0355 -5.6736 0.9306
14.2836 9.3439 -5.6736 0.9306
11.0038 12.4422 -5.5212 0.9324
-12.8029 10.5819 -5.5212 0.9324
-14.0552 9.6483 -5.6669 0.9307
-14.8758 8.3690 -5.6736 0.9306
-15.5617 7.0118 -5.6736 0.9306
-16.1240 5.5989 -5.6736 0.9306
-16.5583 4.1415 -5.6736 0.9306
-17.0642 -0.3803 -5.6736 0.9306
-16.9626 -1.8975 -5.6736 0.9306
-15.6137 -6.2141 -5.5860 0.9316
-14.8247 -7.4912 -5.5212 0.9324
16.3468 -2.9450 -5.5212 0.9324
15.3018 4.1916 -5.6736 0.9348
14.8680 5.5369 -5.6736 0.9348
14.3162 6.8383 -5.6736 0.9348
13.6508 8.0854 -5.6736 0.9348
-11.4507 10.3565 -5.5212 0.9365
-14.1603 7.1555 -5.6736 0.9348
-15.5476 3.1602 -5.6736 0.9348
-15.7672 1.7638 -5.6736 0.9348
-15.8301 -1.0597 -5.6736 0.9348
-15.6730 -2.4645 -5.6736 0.9348
-15.3914 -3.8497 -5.6736 0.9348
-14.0765 -6.3425 -5.5212 0.9365
-13.4561 -7.5703 -5.5212 0.9365
15.0577 -3.4116 -5.5212 0.9365
15.7240 -2.1147 -5.6736 0.9348
15.8498 -0.7068 -5.6736 0.9348
15.8498 0.7068 -5.6736 0.9348
15.7240 2.1147 -5.6736 0.9348
13.2770 8.6854 -5.6736 0.9348
10.5004 11.8729 -5.6681 0.9349
8.0157 13.1956 -5.5212 0.9365
-10.9779 10.8563 -5.5212 0.9365
-11.9006 9.8361 -5.5212 0.9365
-13.0802 8.9791 -5.6736 0.9348
-14.4650 6.5176 -5.6736 0.9348
-14.9877 5.2043 -5.6736 0.9348
-15.3914 3.8497 -5.6736 0.9348
-15.6730 2.4645 -5.6736 0.9348
-15.8301 1.0597 -5.6736 0.9348
-15.8616 -0.3535 -5.6736 0.9348
-14.7359 -5.8648 -5.6717 0.9348
-13.7800 -6.9633 -5.5212 0.9365
14.4687 -5.3882 -5.5212 0.9365
14.8908 -4.0790 -5.5212 0.9365
15.6059 -2.8115 -5.6706 0.9349
15.8026 -1.4121 -5.6736 0.9348
14.8053 0.0000 -5.6736 0.9385
14.5707 2.6250 -5.6736 0.9385
14.2792 3.9115 -5.6736 0.9385
13.3595 6.3813 -5.6736 0.9385
12.0164 8.6488 -5.6736 0.9385
8.0211 11.9683 -5.5212 0.9401
-8.8026 11.4058 -5.5212 0.9401
-13.7558 5.4747 -5.6736 0.9385
-14.5086 2.9490 -5.6736 0.9385
-14.7135 1.6460 -5.6736 0.9385
-14.7722 -0.9889 -5.6736 0.9385
-12.5568 -7.0643 -5.5212 0.9401
-11.8782 -8.1539 -5.5212 0.9401
13.2643 -5.6246 -5.5212 0.9401
13.7123 -4.4217 -5.5212 0.9401
14.6732 -1.9734 -5.6736 0.9385
14.6732 1.9733 -5.6736 0.9385
14.4393 3.2715 -5.6736 0.9385
12.3897 8.1050 -5.6736 0.9385
11.6192 9.1756 -5.6736 0.9385
10.7564 10.1733 -5.6736 0.9385
9.8082 11.0903 -5.6736 0.9385
8.5463 11.5991 -5.5212 0.9401
7.4800 12.3137 -5.5212 0.9401
-10.2443 10.1308 -5.5212 0.9401
-11.4058 9.4272 -5.6706 0.9386
-12.9034 7.2593 -5.6736 0.9385
-13.9861 4.8565 -5.6736 0.9385
-14.3628 3.5924 -5.6736 0.9385
-14.5086 -2.9490 -5.6736 0.9385
-13.7558 -5.4747 -5.6736 0.9385
-12.8590 -6.4979 -5.5212 0.9401
13.0006 -6.2099 -5.5212 0.9401
14.5707 -2.6250 -5.6736 0.9385
14.7465 -1.3178 -5.6736 0.9385
13.8627 0.0000 -5.6736 0.9418
13.8076 1.2339 -5.6736 0.9418
13.6430 2.4579 -5.6736 0.9418
12.9911 4.8379 -5.6736 0.9418
11.9275 7.0647 -5.6736 0.9418
8.7120 10.7830 -5.6736 0.9418
7.5104 11.2063 -5.5212 0.9434
6.4832 11.8303 -5.5212 0.9434
5.4045 12.3604 -5.5212 0.9434
-8.2421 10.6797 -5.5212 0.9434
-9.1600 9.9037 -5.5212 0.9434
-12.3727 6.2522 -5.6736 0.9418
-12.8801 5.1262 -5.6736 0.9418
-13.2852 3.9594 -5.6736 0.9418
-2.1345 -0.3356 -0.8843 0.9907
-13.0956 -4.5473 -5.6736 0.9418
-12.6389 -5.6948 -5.6736 0.9418
-11.1220 -7.6348 -5.5212 0.9434
11.9018 -6.3510 -5.5212 0.9434
12.4198 -5.2665 -5.5212 0.9434
13.5200 -3.0632 -5.6736 0.9418
13.8489 0.6175 -5.6736 0.9418
13.7390 1.8477 -5.6736 0.9418
12.7627 5.4118 -5.6736 0.9418
11.6009 7.5890 -5.6736 0.9418
10.8794 8.5914 -5.6736 0.9418
8.1594 11.0741 -5.6297 0.9423
7.0038 11.5298 -5.5212 0.9434
-6.7452 11.6829 -5.5212 0.9434
-7.7582 11.0362 -5.5212 0.9434
-10.6853 8.8316 -5.6736 0.9418
-12.0819 6.7972 -5.6736 0.9418
-12.6389 5.6948 -5.6736 0.9418
-13.0956 4.5473 -5.6736 0.9418
-2.1345 0.3356 -0.8843 0.9907
-2.1302 0.1426 -0.8738 0.9908
-13.2852 -3.9594 -5.6736 0.9418
-12.8801 -5.1261 -5.6736 0.9418
-12.2808 -6.2057 -5.6315 0.9423
-11.4510 -7.1318 -5.5212 0.9434
-10.7708 -8.1227 -5.5212 0.9434
12.6421 -4.7080 -5.5212 0.9434
13.3633 -3.6606 -5.6707 0.9419
13.6430 -2.4579 -5.6736 0.9418
12.9667 1.1587 -5.6736 0.9448
12.8121 2.3082 -5.6736 0.9448
12.5559 3.4394 -5.6736 0.9448
12.1999 4.5433 -5.6736 0.9448
10.5661 7.6050 -5.6736 0.9448
9.8473 8.5153 -5.6736 0.9448
8.1815 10.1263 -5.6736 0.9448
7.2158 10.7667 -5.6486 0.9450
6.0884 11.1098 -5.5212 0.9462
4.0221 12.0133 -5.5212 0.9462
-4.8155 11.7178 -5.5212 0.9462
-5.8393 11.2427 -5.5212 0.9462
-8.8317 9.5487 -5.6686 0.9448
-9.6551 8.7326 -5.6736 0.9448
-10.3941 7.8385 -5.6736 0.9448
-11.6192 5.8714 -5.6736 0.9448
-1.8741 0.5585 -0.8523 0.9915
-1.9470 0.0434 -0.8487 0.9915
-1.9080 -0.4772 -0.8571 0.9915
-10.4446 -7.1698 -5.5212 0.9462
10.6018 -6.9354 -5.5212 0.9462
11.1770 -5.9642 -5.5212 0.9462
11.6635 -4.9457 -5.5212 0.9462
12.3836 -3.9932 -5.6706 0.9448
12.6966 2.8767 -5.6736 0.9448
10.8944 7.1268 -5.6736 0.9448
10.2168 8.0682 -5.6736 0.9448
9.4582 8.9455 -5.6736 0.9448
5.5874 11.3700 -5.5212 0.9462
-5.3327 11.4917 -5.5212 0.9462
-6.3344 10.9714 -5.5212 0.9462
-8.2191 9.7216 -5.5481 0.9460
-11.3461 6.3832 -5.6736 0.9448
-1.9397 0.3050 -0.8557 0.9915
-1.9433 -0.2174 -0.8522 0.9915
-12.0957 -4.8140 -5.6736 0.9448
-11.6150 -5.8693 -5.6716 0.9448
-10.7536 -6.6974 -5.5212 0.9462
-10.1149 -7.6280 -5.5212 0.9462
12.8121 -2.3082 -5.6736 0.9448
12.9667 -1.1587 -5.6736 0.9448
12.2571 -0.0000 -5.6736 0.9474
12.0629 2.1732 -5.6736 0.9474
11.4865 4.2776 -5.6736 0.9474
11.0602 5.2830 -5.6736 0.9474
9.2714 8.0173 -5.6736 0.9474
8.5211 8.8107 -5.6736 0.9474
5.7323 10.4602 -5.5212 0.9488
1.7214 11.8030 -5.5212 0.9488
-1.4580 11.8384 -5.5212 0.9488
-2.5059 11.6617 -5.5212 0.9488
-5.4979 10.5853 -5.5212 0.9488
-6.4182 10.0539 -5.5212 0.9488
-8.3227 8.9984 -5.6736 0.9474
-10.9397 5.5281 -5.6736 0.9474
-1.6373 0.3328 -0.7734 0.9927
-1.6716 0.0373 -0.7739 0.9927
-1.6738 -0.1120 -0.7765 0.9926
-1.6165 -0.4043 -0.7713 0.9927
-1.5621 -0.5424 -0.7654 0.9927
-11.1751 -5.0353 -5.6736 0.9474
-9.1940 -7.5990 -5.5212 0.9488
9.9818 -6.5298 -5.5212 0.9488
10.5234 -5.6154 -5.5212 0.9488
11.0682 -4.6933 -5.5649 0.9484
11.9541 -2.7085 -5.6736 0.9474
12.1478 -1.6337 -5.6736 0.9474
12.2450 -0.5460 -5.6736 0.9474
12.2450 0.5460 -5.6736 0.9474
12.1478 1.6337 -5.6736 0.9474
11.9541 2.7085 -5.6736 0.9474
11.6656 3.7617 -5.6736 0.9474
10.2573 6.7100 -5.6736 0.9474
9.6194 7.5964 -5.6736 0.9474
8.9051 8.4224 -5.6736 0.9474
8.1201 9.1816 -5.6736 0.9474
7.2707 9.8679 -5.6736 0.9474
6.3560 10.4635 -5.6670 0.9475
5.2607 10.7051 -5.5212 0.9488
4.2870 11.1309 -5.5212 0.9488
2.2455 11.7146 -5.5212 0.9488
1.1939 11.8680 -5.5212 0.9488
-1.9840 11.7617 -5.5212 0.9488
-3.0229 11.5385 -5.5212 0.9488
-5.0209 10.8197 -5.5212 0.9488
-5.9640 10.3299 -5.5212 0.9488
-8.7152 8.6187 -5.6736 0.9474
-10.1053 6.9369 -5.6736 0.9474
-10.6826 6.0099 -5.6736 0.9474
-11.1751 5.0353 -5.6736 0.9474
-1.6165 0.4043 -0.7713 0.9927
-1.6521 0.2598 -0.7741 0.9927
-1.6738 0.1120 -0.7765 0.9926
-1.6716 -0.0373 -0.7739 0.9927
-1.6675 -0.1865 -0.7767 0.9926
-10.1248 -6.3058 -5.5212 0.9488
-8.8464 -8.0010 -5.5212 0.9488
10.7631 -5.1411 -5.5212 0.9488
12.0629 -2.1732 -5.6736 0.9474
11.5665 0.0000 -5.6736 0.9498
11.5206 1.0295 -5.6736 0.9498
11.1555 3.0558 -5.6736 0.9498
8.7490 7.5656 -5.6736 0.9498
8.0409 8.3143 -5.6736 0.9498
7.2690 8.9970 -5.6736 0.9498
3.5735 10.6735 -5.5212 0.9511
2.6093 10.9492 -5.5212 0.9511
0.6266 11.2384 -5.5212 0.9511
-0.3761 11.2495 -5.5212 0.9511
-2.3647 11.0046 -5.5212 0.9511
-5.1881 9.9889 -5.5212 0.9511
-6.1943 9.7033 -5.6468 0.9500
-7.8537 8.4914 -5.6736 0.9498
-8.5783 7.7586 -5.6736 0.9498
-9.8180 6.1147 -5.6736 0.9498
-1.3059 0.5197 -0.6895 0.9938
-1.3536 0.0302 -0.6641 0.9940
-1.3257 -0.2085 -0.6583 0.9940
-1.3171 -0.4573 -0.6839 0.9938
-10.0807 -5.6713 -5.6736 0.9498
-8.6760 -7.1709 -5.5212 0.9511
-8.0033 -7.9146 -5.5212 0.9511
9.4194 -6.1619 -5.5212 0.9511
11.0083 -3.5497 -5.6736 0.9498
11.2806 -2.5558 -5.6736 0.9498
11.5550 0.5152 -5.6736 0.9498
11.4633 1.5417 -5.6736 0.9498
11.0083 3.5497 -5.6736 0.9498
10.6487 4.5154 -5.6736 0.9498
9.6794 6.3319 -5.6736 0.9498
9.0774 7.1683 -5.6736 0.9498
6.8610 9.3118 -5.6736 0.9498
5.0240 10.2236 -5.5877 0.9505
4.0454 10.5037 -5.5212 0.9511
3.0945 10.8221 -5.5212 0.9511
-0.8769 11.2216 -5.5212 0.9511
-3.8104 10.5912 -5.5212 0.9511
-5.6279 9.7478 -5.5212 0.9511
-7.4677 8.8328 -5.6736 0.9498
-8.2242 8.1331 -5.6736 0.9498
-9.5359 6.5460 -5.6736 0.9498
-1.3171 0.4573 -0.6839 0.9938
-1.3149 0.3289 -0.6649 0.9940
-1.3513 0.0905 -0.6643 0.9940
-1.3536 -0.0302 -0.6641 0.9940
-1.3047 -0.2652 -0.6531 0.9941
-1.3059 -0.5198 -0.6895 0.9938
-8.3479 -7.5502 -5.5212 0.9511
9.6845 -5.7361 -5.5212 0.9511
11.1555 -3.0558 -5.6736 0.9498
11.3832 -2.0508 -5.6736 0.9498
11.5206 -1.0295 -5.6736 0.9498
10.9365 0.0000 -5.6736 0.9519
10.8931 0.9734 -5.6736 0.9519
10.7632 1.9391 -5.6736 0.9519
10.5479 2.8894 -5.6736 0.9519
10.2489 3.8167 -5.6736 0.9519
9.8685 4.7138 -5.6736 0.9519
8.2725 7.1535 -5.6736 0.9519
6.0887 9.0849 -5.6736 0.9519
2.4672 10.3528 -5.5212 0.9532
-0.3556 10.6368 -5.5212 0.9532
-3.1532 10.1649 -5.5212 0.9532
-4.0454 9.8439 -5.5212 0.9532
-8.1111 7.3361 -5.6736 0.9519
-8.7318 6.5850 -5.6736 0.9519
-9.2833 5.7817 -5.6736 0.9519
-1.0665 0.5389 -0.6199 0.9946
-1.1070 0.4406 -0.6181 0.9946
-1.1266 0.3358 -0.6099 0.9947
-1.1785 0.0263 -0.6115 0.9947
-1.1517 -0.1811 -0.6048 0.9948
-1.1198 -0.3888 -0.6150 0.9947
-1.0898 -0.4910 -0.6201 0.9946
-8.2034 -6.7803 -5.5212 0.9532
-6.8713 -8.1274 -5.5212 0.9532
8.3524 -6.5958 -5.5212 0.9532
8.9063 -5.8263 -5.5212 0.9532
10.8389 -1.4577 -5.6736 0.9519
10.9257 0.4872 -5.6736 0.9519
10.4088 3.3564 -5.6736 0.9519
9.6487 5.1487 -5.6736 0.9519
8.5830 6.7779 -5.6736 0.9519
7.2452 8.1923 -5.6736 0.9519
6.4873 8.8047 -5.6736 0.9519
5.6779 9.3471 -5.6736 0.9519
4.8220 9.8125 -5.6720 0.9519
2.9259 10.2327 -5.5212 0.9532
2.0036 10.4525 -5.5212 0.9532
0.1186 10.6421 -5.5212 0.9532
-0.8291 10.6104 -5.5212 0.9532
-1.7702 10.4945 -5.5212 0.9532
-2.6972 10.2953 -5.5212 0.9532
-6.2896 8.9470 -5.6736 0.9519
-7.0609 8.3517 -5.6736 0.9519
-8.4298 6.9674 -5.6736 0.9519
-1.0898 0.4910 -0.6201 0.9946
-1.1275 0.2820 -0.6029 0.9948
-1.1517 0.1811 -0.6048 0.9948
-1.1649 -0.1303 -0.6081 0.9947
-1.1333 -0.2303 -0.5999 0.9948
-1.0665 -0.5389 -0.6199 0.9946
-7.8932 -7.1390 -5.5212 0.9532
-7.2265 -7.8132 -5.5212 0.9532
7.3988 -7.6503 -5.5212 0.9532
8.6380 -6.2172 -5.5212 0.9532
9.1570 -5.4237 -5.5212 0.9532
10.2489 -3.8167 -5.6736 0.9519
10.5479 -2.8894 -5.6736 0.9519
10.8931 -0.9734 -5.6736 0.9519
2.0429 0.0000 -1.1189 0.9907
2.0004 0.5480 -1.1360 0.9906
1.9715 0.7342 -1.1522 0.9905
9.3474 4.4649 -5.6736 0.9539
8.9129 5.2791 -5.6736 0.9539
6.5101 8.0577 -5.6736 0.9539
4.9783 9.0843 -5.6736 0.9539
4.1500 9.4913 -5.6736 0.9539
3.2854 9.8129 -5.6678 0.9539
2.3438 9.8349 -5.5375 0.9549
1.4548 9.9752 -5.5212 0.9551
-0.3368 10.0751 -5.5212 0.9551
-1.2322 10.0051 -5.5212 0.9551
-3.0142 9.7170 -5.5722 0.9547
-4.7747 9.1930 -5.6736 0.9539
-5.5740 8.7315 -5.6736 0.9539
-8.2707 6.2373 -5.6736 0.9539
-8.7930 5.4764 -5.6736 0.9539
-0.9364 0.4732 -0.5746 0.9952
-0.9825 0.2928 -0.5615 0.9953
-1.0000 0.2033 -0.5589 0.9954
-1.0293 0.1151 -0.5673 0.9953
-1.0415 0.0232 -0.5706 0.9953
-1.0376 -0.0695 -0.5696 0.9953
-0.9847 -0.2463 -0.5559 0.9954
-8.5375 -5.8607 -5.6718 0.9539
-7.7702 -6.4222 -5.5212 0.9551
-7.1677 -7.0883 -5.5212 0.9551
-6.5084 -7.6982 -5.5212 0.9551
7.9113 -6.2475 -5.5212 0.9551
9.1347 -4.8744 -5.6709 0.9539
1.9407 -0.8229 -1.1546 0.9904
2.0042 -0.4541 -1.1255 0.9907
2.0434 -0.0911 -1.1203 0.9907
2.0226 0.2720 -1.1178 0.9907
1.9895 0.6415 -1.1449 0.9905
8.1297 6.4200 -5.6736 0.9539
7.5260 7.1181 -5.6736 0.9539
6.1447 8.3397 -5.6736 0.9539
4.5687 9.2970 -5.6736 0.9539
-0.7853 10.0501 -5.5212 0.9551
-1.6767 9.9403 -5.5212 0.9551
-0.9240 0.5198 -0.5806 0.9952
-0.9472 0.4268 -0.5690 0.9953
-1.0376 0.0695 -0.5696 0.9953
-1.0000 -0.2033 -0.5589 0.9954
-0.9825 -0.2928 -0.5615 0.9953
-0.9638 -0.3836 -0.5681 0.9953
-0.9364 -0.4732 -0.5746 0.9952
-8.7931 -5.4764 -5.6736 0.9539
-6.8449 -7.4006 -5.5212 0.9551
7.0080 -7.2463 -5.5212 0.9551
8.8426 -5.2375 -5.6289 0.9542
9.3474 -4.4649 -5.6736 0.9539
2.0036 -0.3610 -1.1150 0.9908
1.8754 0.0000 -1.0828 0.9914
1.7869 0.6655 -1.1009 0.9912
8.4552 5.0080 -5.6736 0.9556
7.9759 5.7407 -5.6736 0.9556
7.4333 6.4278 -5.6736 0.9556
6.1758 7.6439 -5.6736 0.9556
5.4710 8.1633 -5.6736 0.9556
2.2768 9.5537 -5.6703 0.9557
-0.3246 9.7101 -5.6093 0.9561
-1.1951 9.7036 -5.6447 0.9558
-2.0624 9.5977 -5.6677 0.9557
-2.9104 9.3821 -5.6714 0.9556
-3.7353 9.0894 -5.6736 0.9556
-5.2878 8.2831 -5.6736 0.9556
-6.0040 7.7796 -5.6736 0.9556
-0.9189 -0.1445 -0.5370 0.9957
-0.8638 -0.4859 -0.5722 0.9954
-6.7997 -6.7243 -5.5212 0.9568
-6.1742 -7.3029 -5.5212 0.9568
5.6726 -7.6990 -5.5212 0.9568
6.3354 -7.1635 -5.5212 0.9568
6.9478 -6.5712 -5.5212 0.9568
1.8108 -0.5839 -1.0985 0.9913
1.8316 -0.4150 -1.0843 0.9914
1.8592 -0.2500 -1.0831 0.9914
1.8755 0.0836 -1.0839 0.9914
1.8592 0.2500 -1.0831 0.9914
1.8316 0.4150 -1.0843 0.9914
1.7564 0.7448 -1.1014 0.9912
1.6860 0.8997 -1.1034 0.9912
8.2237 5.3797 -5.6736 0.9556
7.1396 6.7526 -5.6736 0.9556
6.5102 7.3612 -5.6736 0.9556
3.5319 9.1704 -5.6736 0.9556
2.7013 9.4469 -5.6728 0.9556
1.8482 9.6420 -5.6682 0.9557
-0.7586 9.7078 -5.6219 0.9560
-1.6324 9.6778 -5.6664 0.9557
-2.4887 9.4991 -5.6694 0.9557
-6.3446 7.5044 -5.6736 0.9556
-8.1018 5.5616 -5.6736 0.9556
-0.8984 0.3119 -0.5490 0.9956
-0.9189 0.1445 -0.5370 0.9957
-0.9274 0.0621 -0.5366 0.9957
-0.9237 -0.1033 -0.5366 0.9957
-0.9120 -0.1854 -0.5373 0.9957
-0.9012 -0.2686 -0.5429 0.9957
-0.8932 -0.3555 -0.5550 0.9956
-0.8491 -0.5288 -0.5776 0.9954
-7.8422 -5.9141 -5.6709 0.9556
-5.1457 -8.0606 -5.5212 0.9568
5.3240 -7.9440 -5.5212 0.9568
1.7194 -0.8213 -1.1001 0.9912
1.8267 -0.5004 -1.0935 0.9913
1.8426 -0.3320 -1.0810 0.9914
1.8700 -0.1671 -1.0839 0.9914
