ply
format ascii 1.0
element vertex 1355
property float32 x
property float32 y
property float32 z
property float32 I
end_header
-15.5445 11.7227 -1.8692 0.9247
-18.1659 -6.3079 -1.8462 0.9256
-16.0208 10.9977 -1.8656 0.9249
-17.2750 9.7187 -1.9029 0.9234
18.9819 1.6962 -2.2638 0.9261
18.7451 3.3771 -2.2625 0.9261
18.3507 5.0268 -2.2601 0.9262
17.8030 6.6299 -2.2566 0.9263
14.2168 12.2938 -2.2326 0.9271
-10.8737 11.7565 -1.9023 0.9375
-11.8329 10.7022 -1.8952 0.9378
-12.8910 9.7215 -1.9179 0.9370
-14.4943 9.0271 -2.0283 0.9335
-15.2002 7.6810 -2.0230 0.9337
-15.7883 6.2836 -2.0185 0.9338
-16.2553 4.8446 -2.0148 0.9340
-16.8174 1.8813 -2.0101 0.9341
-16.9095 0.3768 -2.0091 0.9341
-16.8749 -1.1297 -2.0090 0.9341
-16.7138 -2.6281 -2.0098 0.9341
-14.3758 -6.4774 -1.8730 0.9385
-13.7714 -7.7476 -1.8770 0.9383
17.2215 -3.9019 -2.0975 0.9313
19.0367 -0.8489 -2.2635 0.9261
18.5674 4.2068 -2.2614 0.9262
18.0957 5.8351 -2.2585 0.9263
17.4733 7.4093 -2.2545 0.9264
15.8045 10.3388 -2.2434 0.9267
14.7755 11.6681 -2.2364 0.9270
13.6306 12.8917 -2.2286 0.9272
11.4948 12.9974 -2.0611 0.9325
10.2494 13.9106 -2.0525 0.9328
-11.3650 11.2391 -1.8987 0.9376
-14.0539 9.6474 -2.0249 0.9336
-14.8618 8.3611 -2.0256 0.9336
-16.0371 5.5687 -2.0166 0.9339
-16.4427 4.1126 -2.0133 0.9340
-16.9080 -0.3768 -2.0089 0.9341
-16.8101 -1.8805 -2.0093 0.9341
-15.5829 -6.2019 -1.9922 0.9347
-13.4289 -8.3635 -1.8792 0.9383
15.8157 0.0000 -2.2409 0.9381
15.7522 1.4076 -2.2408 0.9381
13.5210 8.0085 -2.2266 0.9385
12.7238 9.1581 -2.2212 0.9386
9.2996 11.5103 -2.0967 0.9420
8.0001 11.9369 -2.0361 0.9436
6.8795 12.5534 -2.0283 0.9438
-8.2807 10.7297 -1.9204 0.9467
-9.1717 9.9163 -1.9139 0.9469
-10.7186 9.6944 -2.0477 0.9433
-11.5468 8.7079 -2.0491 0.9432
-13.3480 5.3124 -2.0356 0.9436
-13.7468 4.0970 -2.0324 0.9437
-14.2272 1.5916 -2.0284 0.9438
-14.1400 -2.2234 -2.0281 0.9438
-13.0772 -5.8923 -2.0323 0.9437
13.4526 -5.7044 -2.0704 0.9427
13.9317 -4.4924 -2.0741 0.9426
15.6635 -2.1066 -2.2393 0.9381
13.8792 7.4062 -2.2290 0.9384
11.3414 10.7266 -2.2118 0.9389
7.4463 12.2583 -2.0322 0.9437
-7.8085 11.1078 -1.9238 0.9466
-8.7354 10.3322 -1.9171 0.9468
-9.8268 9.7180 -1.9582 0.9457
-11.9076 8.1741 -2.0465 0.9433
-13.1099 5.9070 -2.0374 0.9436
-13.9068 3.4783 -2.0311 0.9437
-14.1472 2.2246 -2.0291 0.9438
-14.3052 -0.3188 -2.0274 0.9438
-14.0312 -2.8520 -2.0287 0.9438
-13.3318 -5.3059 -2.0331 0.9437
-12.2966 -6.2137 -1.9521 0.9459
-11.3484 -7.0678 -1.8943 0.9474
-10.6988 -8.0683 -1.8987 0.9473
13.1716 -6.2915 -2.0682 0.9427
13.7062 -5.1043 -2.0723 0.9426
14.1286 -3.8702 -2.0756 0.9425
13.2836 2.3932 -2.2236 0.9468
13.0081 3.5633 -2.2219 0.9468
12.1395 5.7985 -2.2163 0.9469
7.2199 10.7729 -2.1364 0.9488
4.8975 11.2008 -2.0139 0.9517
3.8672 11.5507 -2.0067 0.9518
2.8134 11.8053 -1.9993 0.9520
-2.5016 11.6413 -1.9616 0.9529
-3.5147 11.3304 -1.9543 0.9530
-5.4294 10.4534 -1.9405 0.9534
-7.4933 9.7094 -2.0205 0.9515
-9.9835 7.5289 -2.0599 0.9506
-10.5907 6.5959 -2.0554 0.9507
-11.1143 5.6163 -2.0515 0.9508
-11.5512 4.5973 -2.0481 0.9508
-12.1548 2.4706 -2.0433 0.9510
-12.3870 0.2760 -2.0411 0.9510
-12.3619 -0.8275 -2.0410 0.9510
-11.3305 -5.1053 -2.0473 0.9509
-10.8188 -6.0866 -2.0450 0.9509
-9.5446 -6.5520 -1.9072 0.9542
-8.9426 -7.3912 -1.9113 0.9541
10.9942 -5.8667 -2.0529 0.9507
13.3747 -1.7987 -2.2232 0.9468
13.4903 0.6016 -2.2246 0.9467
13.1595 2.9815 -2.2228 0.9468
12.8300 4.1371 -2.2208 0.9468
12.3952 5.2560 -2.2180 0.9469
11.8592 6.3283 -2.2144 0.9470
11.2274 7.3446 -2.2102 0.9471
10.5059 8.2964 -2.2053 0.9472
8.8221 9.9753 -2.1938 0.9474
7.8651 10.6746 -2.1843 0.9477
6.4167 10.5633 -2.0361 0.9511
4.3858 11.3875 -2.0103 0.9517
-4.9669 10.7033 -1.9439 0.9533
-6.8343 9.7219 -1.9577 0.9530
-8.1049 9.5865 -2.0681 0.9504
-8.9247 8.8258 -2.0678 0.9504
-9.6498 7.9758 -2.0624 0.9505
-10.8632 6.1115 -2.0534 0.9507
-11.3438 5.1113 -2.0497 0.9508
-12.2480 1.9259 -2.0425 0.9510
-12.3642 0.8277 -2.0414 0.9510
-12.3862 -0.2760 -2.0410 0.9510
-11.8891 -3.5433 -2.0437 0.9510
-11.1000 -5.6091 -2.0488 0.9508
10.7109 -6.3441 -2.0508 0.9508
11.2555 -5.3763 -2.0549 0.9507
11.9270 -4.4417 -2.0967 0.9497
12.9975 -3.5604 -2.2201 0.9468
13.2763 -2.3919 -2.2223 0.9468
13.4455 -1.2015 -2.2238 0.9467
11.7226 1.0475 -2.2122 0.9532
11.5789 2.0860 -2.2114 0.9532
11.3398 3.1063 -2.2100 0.9533
11.0078 4.0993 -2.2079 0.9533
10.5860 5.0565 -2.2051 0.9534
9.4901 6.8306 -2.1978 0.9535
8.8263 7.6324 -2.1933 0.9536
6.4478 9.6208 -2.1769 0.9540
5.5393 10.1079 -2.1665 0.9542
4.4200 10.1089 -2.0738 0.9561
3.3830 10.1046 -2.0029 0.9576
2.4623 10.3321 -1.9964 0.9577
1.5278 10.4756 -1.9898 0.9578
-1.2811 10.4018 -1.9699 0.9582
-2.1945 10.2126 -1.9634 0.9584
-3.9954 9.7221 -1.9757 0.9581
-5.0412 9.7060 -2.0557 0.9565
-8.1784 7.3969 -2.0727 0.9561
-10.7063 2.1761 -2.0535 0.9565
-10.8508 1.2138 -2.0522 0.9565
-10.8901 -0.7290 -2.0515 0.9565
-9.5512 -5.3734 -2.0598 0.9564
-7.8698 -6.5046 -1.9191 0.9593
-7.2750 -7.1944 -1.9231 0.9592
7.8475 -7.4221 -2.0302 0.9570
8.4969 -6.7099 -2.0350 0.9569
9.0796 -5.9396 -2.0393 0.9568
11.1760 -3.6038 -2.2072 0.9533
11.6585 -1.5679 -2.2111 0.9533
11.7583 0.5243 -2.2123 0.9532
11.6628 1.5685 -2.2119 0.9532
11.4711 2.5990 -2.2108 0.9533
10.3427 5.5190 -2.2035 0.9534
7.7032 8.7101 -2.1856 0.9538
5.0184 10.2122 -2.1387 0.9547
2.9248 10.2288 -1.9997 0.9576
1.9963 10.4144 -1.9931 0.9578
0.1173 10.5326 -1.9798 0.9580
-1.7403 10.3172 -1.9666 0.9583
-2.6430 10.0882 -1.9602 0.9584
-3.5191 9.7814 -1.9539 0.9586
-5.5484 9.6102 -2.0858 0.9558
-6.3820 9.0785 -2.0858 0.9558
-10.3356 3.5889 -2.0565 0.9564
-10.8919 0.7291 -2.0518 0.9565
-10.9116 -0.2432 -2.0515 0.9566
-10.4720 -3.1210 -2.0539 0.9565
-8.2493 -6.2211 -1.9420 0.9588
-7.5800 -6.8557 -1.9210 0.9593
-6.9552 -7.5198 -1.9253 0.9592
8.1801 -7.0736 -2.0327 0.9569
8.7969 -6.3316 -2.0372 0.9568
10.2621 -4.9018 -2.1376 0.9548
10.9974 -4.0955 -2.2058 0.9534
11.7198 -1.0473 -2.2116 0.9532
10.4205 0.0000 -2.2027 0.9583
10.3788 0.9275 -2.2026 0.9583
10.0411 2.7505 -2.2007 0.9583
9.7482 3.6302 -2.1988 0.9584
7.8222 6.7642 -2.1859 0.9586
7.1746 7.4185 -2.1815 0.9587
4.9244 8.9858 -2.1659 0.9590
4.0940 9.3633 -2.1601 0.9591
2.3384 9.8125 -2.1322 0.9596
1.4222 9.7513 -2.0830 0.9605
0.5420 9.7195 -2.0577 0.9610
-0.3247 9.7123 -2.0541 0.9610
-1.1957 9.7086 -2.0677 0.9608
-2.0848 9.7019 -2.0976 0.9602
-3.7840 9.2078 -2.1043 0.9601
-6.0351 7.8199 -2.0880 0.9604
-6.6917 7.2350 -2.0832 0.9605
-8.3172 5.1800 -2.0712 0.9607
-8.7320 4.4125 -2.0680 0.9608
-9.0784 3.6131 -2.0654 0.9608
-9.7424 0.2171 -2.0599 0.9609
-9.4599 -2.3661 -2.0612 0.9609
-9.2185 -3.2010 -2.0627 0.9609
-8.0746 -5.5429 -2.0703 0.9607
-7.5022 -6.2007 -2.0574 0.9610
-5.2707 -7.4976 -1.9373 0.9632
-4.5935 -7.9561 -1.9419 0.9631
-3.8770 -8.3548 -1.9469 0.9630
6.3294 -7.1568 -2.0195 0.9617
7.5307 -5.9470 -2.0284 0.9615
10.1515 -2.3000 -2.2002 0.9583
10.3227 -1.3883 -2.2017 0.9583
10.4104 0.4642 -2.2027 0.9583
10.3260 1.3887 -2.2024 0.9583
10.1569 2.3013 -2.2014 0.9583
9.9047 3.1939 -2.1998 0.9583
9.5718 4.0588 -2.1977 0.9584
9.1612 4.8886 -2.1950 0.9584
7.5057 7.0989 -2.1838 0.9586
6.8296 7.7223 -2.1791 0.9587
6.1010 8.2804 -2.1741 0.9588
4.5132 9.1841 -2.1631 0.9590
-0.7588 9.7108 -2.0589 0.9610
-1.6371 9.7057 -2.0806 0.9606
-3.3715 9.3713 -2.1052 0.9601
-6.3700 7.5344 -2.0855 0.9605
-6.9998 6.9222 -2.0809 0.9606
-7.5727 6.2590 -2.0767 0.9606
-8.0849 5.5500 -2.0729 0.9607
-8.5330 4.8006 -2.0695 0.9608
-9.2253 3.2034 -2.0643 0.9609
-9.4650 2.3674 -2.0623 0.9609
-9.7242 0.6509 -2.0601 0.9609
-9.7419 -0.2171 -2.0598 0.9609
-9.6848 -1.0834 -2.0599 0.9609
-9.5533 -1.9418 -2.0607 0.9609
-9.0709 -3.6101 -2.0637 0.9609
-8.3073 -5.1738 -2.0687 0.9608
-6.8767 -6.2196 -1.9599 0.9628
-6.2024 -6.7059 -1.9308 0.9633
-5.5930 -7.2470 -1.9350 0.9633
-4.2399 -8.1632 -1.9444 0.9631
6.6496 -6.8756 -2.0219 0.9616
7.2510 -6.2702 -2.0263 0.9616
10.0347 -2.7488 -2.1993 0.9584
10.3766 -0.9273 -2.2022 0.9583
9.3396 0.0000 -2.1950 0.9624
9.3023 0.8313 -2.1950 0.9624
9.0004 2.4655 -2.1932 0.9624
8.4059 4.0152 -2.1894 0.9624
7.5409 5.4276 -2.1836 0.9625
7.0164 6.0673 -2.1800 0.9626
6.4368 6.6556 -2.1761 0.9627
5.8073 7.1878 -2.1718 0.9627
4.4212 8.0677 -2.1621 0.9629
3.6768 8.4089 -2.1570 0.9630
2.9064 8.6811 -2.1516 0.9631
-0.3027 9.0533 -2.1289 0.9635
-2.6625 8.5832 -2.1121 0.9637
-4.1216 7.9355 -2.1016 0.9639
-4.8003 7.5195 -2.0967 0.9640
-5.4385 7.0468 -2.0920 0.9641
-6.0316 6.5213 -2.0877 0.9642
-8.1897 3.2594 -2.0716 0.9644
-8.6235 1.7528 -2.0682 0.9645
-8.7410 0.9778 -2.0671 0.9645
-8.7910 0.1959 -2.0666 0.9645
-8.7732 -0.5873 -2.0665 0.9645
-8.6879 -1.3661 -2.0669 0.9645
-8.5355 -2.1349 -2.0678 0.9645
-8.3171 -2.8880 -2.0692 0.9645
-7.6885 -4.3255 -2.0733 0.9644
-7.2825 -4.9992 -2.0760 0.9644
-5.3216 -6.2944 -1.9372 0.9667
-4.7499 -6.7568 -1.9411 0.9666
-4.1387 -7.1684 -1.9454 0.9666
-3.4923 -7.5256 -1.9499 0.9665
-2.8154 -7.8255 -1.9546 0.9664
-2.1130 -8.0652 -1.9595 0.9663
-1.3904 -8.2426 -1.9646 0.9662
-0.6529 -8.3557 -1.9698 0.9661
1.5906 -8.2978 -1.9857 0.9659
3.7554 -7.6420 -2.0012 0.9656
5.0749 -6.8877 -2.0107 0.9655
5.6802 -6.4227 -2.0151 0.9654
7.0795 -5.5906 -2.1201 0.9636
7.7666 -5.0807 -2.1812 0.9626
8.5738 -3.6356 -2.1887 0.9625
8.8727 -2.8611 -2.1910 0.9624
9.2524 -1.2443 -2.1941 0.9624
9.3296 -0.4160 -2.1949 0.9624
9.3305 0.4161 -2.1951 0.9624
9.1039 2.0627 -2.1939 0.9624
8.5810 3.6386 -2.1905 0.9624
7.7809 5.0900 -2.1852 0.9625
7.2858 5.7536 -2.1819 0.9626
6.1279 6.9290 -2.1740 0.9627
5.4756 7.4315 -2.1695 0.9628
4.0526 8.2468 -2.1596 0.9629
3.2944 8.5538 -2.1543 0.9630
2.5136 8.7906 -2.1488 0.9631
1.7167 8.9560 -2.1432 0.9632
0.1010 9.0699 -2.1318 0.9634
-0.7047 9.0187 -2.1261 0.9635
-1.5006 8.8963 -2.1204 0.9636
-2.2805 8.7045 -2.1148 0.9637
-3.7686 8.1210 -2.1041 0.9639
-4.4657 7.7348 -2.0991 0.9640
-5.1247 7.2900 -2.0943 0.9640
-5.7409 6.7904 -2.0898 0.9641
-6.3099 6.2400 -2.0857 0.9642
-6.8278 5.6432 -2.0818 0.9643
-7.2909 5.0049 -2.0784 0.9643
-8.5397 2.1359 -2.0689 0.9645
-8.7390 -0.9776 -2.0667 0.9645
-8.6200 -1.7521 -2.0673 0.9645
-8.1836 -3.2570 -2.0701 0.9645
-7.4929 -4.6666 -2.0746 0.9644
-7.0577 -5.3225 -2.0775 0.9643
-6.5570 -5.9305 -2.0779 0.9643
-5.7489 -6.2156 -1.9898 0.9658
-5.0410 -6.5318 -1.9391 0.9667
-4.4490 -6.9692 -1.9432 0.9666
-3.8196 -7.3540 -1.9476 0.9665
-2.4671 -7.9530 -1.9570 0.9664
-1.7539 -8.1619 -1.9620 0.9663
1.2177 -8.3492 -1.9830 0.9659
1.9612 -8.2297 -1.9883 0.9658
4.7576 -7.0988 -2.0084 0.9655
5.3827 -6.6622 -2.0130 0.9654
5.9669 -6.1697 -2.0172 0.9653
7.9967 -4.7365 -2.1844 0.9625
8.7321 -3.2519 -2.1899 0.9624
8.9953 -2.4641 -2.1920 0.9624
9.1854 -1.6548 -2.1935 0.9624
7.9106 2.9459 -2.1856 0.9657
7.6102 3.6351 -2.1837 0.9658
7.2485 4.2933 -2.1813 0.9658
6.8287 4.9150 -2.1784 0.9658
6.3548 5.4952 -2.1752 0.9659
5.8308 6.0290 -2.1716 0.9659
5.2616 6.5123 -2.1677 0.9660
4.6520 6.9412 -2.1635 0.9661
3.3334 7.6236 -2.1543 0.9662
2.6356 7.8722 -2.1494 0.9663
1.9200 8.0566 -2.1444 0.9664
1.1924 8.1759 -2.1393 0.9664
-1.7191 8.0000 -2.1186 0.9668
-5.4847 5.9300 -2.0914 0.9672
-6.4278 4.8474 -2.0845 0.9673
-6.8241 4.2501 -2.0815 0.9673
-7.1664 3.6213 -2.0789 0.9674
-7.8483 1.5952 -2.0736 0.9674
-8.0013 0.1783 -2.0722 0.9675
-6.6256 -4.5482 -2.0808 0.9673
-6.2030 -5.1269 -2.0836 0.9673
-5.7309 -5.6674 -2.0868 0.9672
-3.1739 -6.8396 -1.9523 0.9693
-1.9195 -7.3267 -1.9610 0.9692
-1.2628 -7.4861 -1.9657 0.9691
-0.5929 -7.5870 -1.9704 0.9690
0.0850 -7.6281 -1.9752 0.9690
0.7654 -7.6088 -1.9800 0.9689
1.4431 -7.5288 -1.9848 0.9688
2.1126 -7.3882 -1.9896 0.9687
2.7683 -7.1878 -1.9943 0.9687
3.4049 -6.9287 -1.9989 0.9686
4.0169 -6.6127 -2.0033 0.9685
5.2077 -5.8885 -2.0353 0.9680
6.0692 -5.7402 -2.1629 0.9661
7.0382 -4.6042 -2.1776 0.9658
7.4300 -3.9648 -2.1805 0.9658
7.7624 -3.2915 -2.1830 0.9658
8.0322 -2.5901 -2.1851 0.9657
8.2370 -1.8663 -2.1868 0.9657
8.3748 -1.1263 -2.1879 0.9657
8.3770 1.1266 -2.1885 0.9657
8.2405 1.8670 -2.1877 0.9657
7.4368 3.9684 -2.1825 0.9658
7.0456 4.6090 -2.1799 0.9658
5.5516 6.2772 -2.1697 0.9660
4.9615 6.7338 -2.1656 0.9660
2.2797 7.9725 -2.1469 0.9663
1.5573 8.1245 -2.1419 0.9664
0.0917 8.2318 -2.1315 0.9666
-0.6398 8.1873 -2.1263 0.9666
-1.3626 8.0783 -2.1212 0.9667
-2.7603 7.6724 -2.1112 0.9669
-3.4244 7.3795 -2.1064 0.9669
-4.6588 6.6272 -2.0975 0.9671
-5.7383 5.6747 -2.0896 0.9672
-6.2103 5.1329 -2.0861 0.9673
-6.6325 4.5530 -2.0830 0.9673
-7.0021 3.9393 -2.0802 0.9673
-7.3165 3.2967 -2.0778 0.9674
-7.5737 2.6299 -2.0758 0.9674
-7.9096 1.2437 -2.0731 0.9675
-7.9539 -0.8898 -2.0723 0.9675
-7.1604 -3.6183 -2.0772 0.9674
-5.4701 -5.9142 -2.0858 0.9673
-4.0447 -6.3358 -1.9462 0.9694
-1.5931 -7.4136 -1.9633 0.9692
-0.2546 -7.6151 -1.9728 0.9690
1.1050 -7.5764 -1.9824 0.9689
1.7792 -7.4660 -1.9872 0.9688
2.4425 -7.2954 -1.9920 0.9687
3.0893 -7.0655 -1.9966 0.9686
4.8776 -6.0371 -2.0095 0.9684
5.6278 -5.8191 -2.0960 0.9671
6.3353 -5.4783 -2.1686 0.9660
6.8210 -4.9095 -2.1760 0.9659
7.6039 -3.6321 -2.1818 0.9658
7.9053 -2.9440 -2.1841 0.9657
8.1429 -2.2306 -2.1860 0.9657
8.3144 -1.4979 -2.1874 0.9657
7.7130 0.0000 -2.1835 0.9684
7.6822 0.6865 -2.1835 0.9684
7.5889 1.3672 -2.1830 0.9685
6.6156 3.9184 -2.1767 0.9685
6.2332 4.4864 -2.1741 0.9686
5.8013 5.0166 -2.1712 0.9686
4.8048 5.9469 -2.1643 0.9687
4.2488 6.3397 -2.1605 0.9688
1.0901 7.4746 -2.1384 0.9691
-0.9172 7.4472 -2.1242 0.9693
-1.5729 7.3198 -2.1195 0.9694
-2.2134 7.1353 -2.1149 0.9694
-2.8337 6.8954 -2.1104 0.9695
-3.4292 6.6024 -2.1062 0.9695
-5.0239 5.4318 -2.0946 0.9697
-5.4786 4.9551 -2.0912 0.9698
-5.8894 4.4414 -2.0882 0.9698
-6.5675 3.3187 -2.0831 0.9699
-6.8303 2.7184 -2.0811 0.9699
-7.0395 2.0980 -2.0795 0.9699
-7.1940 1.4622 -2.0782 0.9699
-7.3347 0.1635 -2.0769 0.9700
-7.2485 -1.1398 -2.0772 0.9700
-7.1208 -1.7810 -2.0779 0.9699
-6.7008 -3.0192 -2.0806 0.9699
-6.0715 -4.1678 -2.0848 0.9698
-5.6836 -4.6976 -2.0874 0.9698
-5.2503 -5.1921 -2.0904 0.9698
-3.5860 -6.2110 -2.0303 0.9706
-2.3417 -6.5089 -1.9583 0.9717
2.5300 -6.5689 -1.9928 0.9712
3.1111 -6.3309 -1.9969 0.9711
3.6799 -6.0579 -2.0066 0.9710
5.0513 -5.7116 -2.1585 0.9688
5.5613 -5.2598 -2.1670 0.9687
6.4246 -4.2028 -2.1733 0.9686
6.7815 -3.6187 -2.1760 0.9686
7.5161 -1.7029 -2.1817 0.9685
7.6415 -1.0277 -2.1827 0.9685
7.7049 -0.3436 -2.1834 0.9684
7.7055 0.3436 -2.1835 0.9684
7.6434 1.0279 -2.1833 0.9684
7.5191 1.7036 -2.1825 0.9685
7.3337 2.3648 -2.1814 0.9685
7.0890 3.0060 -2.1798 0.9685
6.0232 4.7565 -2.1727 0.9686
5.5680 5.2662 -2.1696 0.9686
2.7295 7.0870 -2.1499 0.9689
1.4236 7.4268 -2.1407 0.9691
0.0839 7.5281 -2.1313 0.9692
-0.5852 7.4889 -2.1265 0.9693
-1.2467 7.3907 -2.1218 0.9693
-1.8954 7.2346 -2.1172 0.9694
-3.1348 6.7554 -2.1083 0.9695
-3.7162 6.4367 -2.1041 0.9696
-4.2663 6.0689 -2.1001 0.9696
-6.0773 4.1718 -2.0868 0.9698
-7.1237 1.7818 -2.0788 0.9699
-7.2504 1.1400 -2.0777 0.9699
-7.3344 -0.1634 -2.0768 0.9700
-6.8260 -2.7167 -2.0798 0.9699
-6.5625 -3.3162 -2.0815 0.9699
-5.8834 -4.4369 -2.0861 0.9698
-5.4724 -4.9495 -2.0889 0.9698
-4.5184 -5.8547 -2.0936 0.9697
-3.2306 -6.2201 -1.9842 0.9713
-2.6267 -6.3916 -1.9563 0.9717
-2.0516 -6.6136 -1.9603 0.9716
-1.4579 -6.7844 -1.9645 0.9716
1.6265 -6.8253 -1.9863 0.9713
2.2324 -6.6679 -1.9906 0.9712
2.8230 -6.4565 -1.9949 0.9711
4.7800 -5.9163 -2.1532 0.9689
5.3130 -5.4936 -2.1635 0.9687
5.7946 -5.0108 -2.1687 0.9687
6.6096 -3.9149 -2.1747 0.9686
6.9398 -3.3148 -2.1772 0.9685
7.5865 -1.3668 -2.1823 0.9685
7.6810 -0.6864 -2.1831 0.9684
6.9707 1.2558 -2.1785 0.9708
6.8286 1.8705 -2.1777 0.9708
6.6311 2.4695 -2.1764 0.9708
6.3802 3.0476 -2.1748 0.9708
6.0780 3.6000 -2.1728 0.9709
5.3310 4.6099 -2.1677 0.9709
3.9060 5.8281 -2.1579 0.9711
3.3659 6.1419 -2.1542 0.9711
2.8007 6.4054 -2.1503 0.9712
2.2153 6.6166 -2.1462 0.9712
1.0030 6.8771 -2.1376 0.9713
0.3861 6.9250 -2.1333 0.9714
-0.2313 6.9176 -2.1289 0.9714
-0.8443 6.8555 -2.1245 0.9715
-1.4482 6.7394 -2.1202 0.9716
-2.0382 6.5707 -2.1160 0.9716
-2.6099 6.3509 -2.1119 0.9717
-3.6811 5.7663 -2.1042 0.9718
-4.1726 5.4066 -2.1006 0.9718
-5.7647 3.5903 -2.0889 0.9720
-6.0551 3.0598 -2.0867 0.9720
-6.4911 1.9346 -2.0833 0.9721
-6.6339 1.3484 -2.0822 0.9721
-6.5664 -1.6424 -2.0819 0.9721
-5.9112 -3.3256 -2.0861 0.9720
-5.5974 -3.8424 -2.0882 0.9720
-5.2392 -4.3303 -2.0907 0.9720
-4.8393 -4.7857 -2.0934 0.9719
-3.9258 -5.5846 -2.0997 0.9718
-3.4144 -5.9140 -2.1004 0.9718
-1.6304 -6.2232 -1.9787 0.9734
-0.4993 -6.3898 -1.9713 0.9735
0.6442 -6.4033 -1.9794 0.9734
2.3680 -6.1484 -2.0265 0.9728
4.6535 -5.2618 -2.1605 0.9710
5.1113 -4.8342 -2.1639 0.9710
5.5291 -4.3663 -2.1670 0.9709
6.5081 -2.7597 -2.1743 0.9708
6.2354 3.3273 -2.1738 0.9709
5.5346 4.3707 -2.1691 0.9709
5.1169 4.8396 -2.1663 0.9710
4.1652 5.6530 -2.1597 0.9710
3.0861 6.2801 -2.1522 0.9711
2.5102 6.5176 -2.1482 0.9712
1.3097 6.8325 -2.1398 0.9713
0.6949 6.9079 -2.1355 0.9714
-2.8875 6.2224 -2.1099 0.9717
-3.4236 5.9298 -2.1060 0.9718
-4.4057 5.2111 -2.0989 0.9718
-4.8446 4.7910 -2.0957 0.9719
-5.2444 4.3346 -2.0927 0.9719
-5.6023 3.8458 -2.0901 0.9720
-5.9157 3.3281 -2.0877 0.9720
-6.4007 2.2226 -2.0840 0.9720
-6.5689 1.6430 -2.0827 0.9721
-6.6860 1.0513 -2.0817 0.9721
-6.7510 0.4519 -2.0811 0.9721
-6.7637 -0.1507 -2.0809 0.9721
-6.6318 -1.3480 -2.0815 0.9721
-5.7600 -3.5874 -2.0871 0.9720
-5.4237 -4.0902 -2.0894 0.9720
-4.6246 -5.0000 -2.0949 0.9719
-4.1674 -5.3999 -2.0980 0.9719
-3.6759 -5.7583 -2.1012 0.9718
-3.1467 -6.0585 -2.0998 0.9718
-1.9290 -6.2184 -2.0026 0.9731
-1.3425 -6.2473 -1.9654 0.9736
-0.7827 -6.3547 -1.9693 0.9736
1.4965 -6.2794 -1.9855 0.9733
2.0662 -6.1716 -2.0018 0.9731
3.3236 -6.0647 -2.1271 0.9715
3.8930 -5.8088 -2.1508 0.9712
4.4109 -5.4594 -2.1588 0.9711
4.8871 -5.0533 -2.1622 0.9710
5.7219 -4.1183 -2.1684 0.9709
6.0730 -3.5971 -2.1710 0.9709
6.8256 -1.8697 -2.1768 0.9708
7.0552 -0.6304 -2.1787 0.9708
6.5439 0.0000 -2.1752 0.9728
6.5178 0.5824 -2.1752 0.9728
6.4388 1.1600 -2.1748 0.9728
6.3077 1.7279 -2.1740 0.9728
6.1256 2.2812 -2.1728 0.9728
5.8942 2.8154 -2.1713 0.9728
5.6154 3.3260 -2.1695 0.9729
4.9261 4.2598 -2.1648 0.9729
4.0819 5.0522 -2.1590 0.9730
3.1117 5.6781 -2.1523 0.9731
2.5896 5.9225 -2.1486 0.9731
0.9278 6.3615 -2.1370 0.9733
0.3572 6.4067 -2.1329 0.9733
-0.2140 6.4009 -2.1289 0.9734
-1.3405 6.2380 -2.1209 0.9735
-1.8869 6.0827 -2.1170 0.9735
-2.4164 5.8800 -2.1132 0.9736
-2.9251 5.6318 -2.1095 0.9736
-3.4091 5.3402 -2.1060 0.9736
-3.8648 5.0077 -2.1027 0.9737
-5.6111 2.8354 -2.0898 0.9738
-5.8364 2.3228 -2.0881 0.9739
-6.1485 1.2497 -2.0856 0.9739
-6.2331 0.6973 -2.0848 0.9739
-6.2693 0.1397 -2.0845 0.9739
-6.2567 -0.4188 -2.0844 0.9739
-6.1954 -0.9742 -2.0847 0.9739
-6.0860 -1.5222 -2.0853 0.9739
-5.9292 -2.0588 -2.0863 0.9739
-5.4779 -3.0818 -2.0893 0.9739
-5.1867 -3.5605 -2.0912 0.9738
-4.8544 -4.0123 -2.0935 0.9738
-4.0764 -4.8216 -2.0988 0.9737
-3.6364 -5.1728 -2.1018 0.9737
-3.1664 -5.4844 -2.1051 0.9737
-2.6700 -5.7537 -2.1084 0.9736
-2.1473 -5.9685 -2.1085 0.9736
-1.0464 -6.2032 -2.0911 0.9738
0.6238 -6.2012 -2.0717 0.9741
1.7612 -6.1592 -2.1294 0.9734
3.3600 -5.5314 -2.1513 0.9731
3.8453 -5.2189 -2.1548 0.9730
4.7237 -4.4676 -2.1612 0.9730
5.1093 -4.0348 -2.1641 0.9729
6.3776 -1.4450 -2.1737 0.9728
6.4836 -0.8720 -2.1746 0.9728
6.5370 -0.2915 -2.1751 0.9728
6.2230 2.0066 -2.1734 0.9728
6.0160 2.5510 -2.1721 0.9728
5.7606 3.0739 -2.1704 0.9729
4.3060 4.8688 -2.1605 0.9730
3.3643 5.5384 -2.1540 0.9731
2.8533 5.8063 -2.1505 0.9731
1.7723 6.1983 -2.1429 0.9732
0.6429 6.3905 -2.1350 0.9733
-0.4985 6.3790 -2.1269 0.9734
-1.6155 6.1663 -2.1189 0.9735
-2.6736 5.7615 -2.1113 0.9736
-3.1704 5.4913 -2.1077 0.9736
-3.6407 5.1789 -2.1043 0.9737
-4.0810 4.8270 -2.1011 0.9737
-4.8589 4.0160 -2.0954 0.9738
-5.4818 3.0840 -2.0908 0.9738
-5.7294 2.5815 -2.0889 0.9739
-5.9320 2.0598 -2.0873 0.9739
-6.0881 1.5227 -2.0861 0.9739
-6.1968 0.9744 -2.0852 0.9739
-6.2573 0.4189 -2.0846 0.9739
-6.2690 -0.1397 -2.0844 0.9739
-6.2321 -0.6972 -2.0845 0.9739
-5.8333 -2.3216 -2.0869 0.9739
-5.6075 -2.8336 -2.0884 0.9739
-5.3376 -3.3243 -2.0902 0.9738
-5.0256 -3.7899 -2.0923 0.9738
-4.2843 -4.6321 -2.0974 0.9738
-3.4049 -5.3337 -2.1034 0.9737
-2.4109 -5.8666 -2.1083 0.9736
-1.8796 -6.0592 -2.1088 0.9736
-0.7643 -6.2059 -2.0785 0.9740
-0.2076 -6.2092 -2.0651 0.9742
0.3460 -6.2054 -2.0659 0.9741
0.9037 -6.1962 -2.0815 0.9740
1.4712 -6.1735 -2.1096 0.9736
2.0393 -6.0910 -2.1352 0.9733
3.1067 -5.6690 -2.1488 0.9731
3.6061 -5.3806 -2.1531 0.9731
4.0771 -5.0463 -2.1565 0.9730
4.5168 -4.6704 -2.1597 0.9730
4.9213 -4.2557 -2.1627 0.9729
5.8904 -2.8136 -2.1699 0.9729
6.1224 -2.2800 -2.1717 0.9728
6.0734 -0.0000 -2.1719 0.9745
5.8545 1.6037 -2.1707 0.9745
5.2127 3.0875 -2.1665 0.9746
4.5735 3.9549 -2.1622 0.9746
4.1984 4.3411 -2.1597 0.9747
2.8902 5.2739 -2.1506 0.9748
1.3873 5.8215 -2.1401 0.9749
0.8622 5.9116 -2.1364 0.9749
-0.7264 5.8981 -2.1251 0.9751
-1.7546 5.6562 -2.1178 0.9752
-2.7207 5.2383 -2.1108 0.9752
-3.1712 4.9676 -2.1076 0.9753
-3.5955 4.6589 -2.1045 0.9753
-4.3531 3.9371 -2.0990 0.9754
-5.2224 2.6390 -2.0925 0.9754
-5.8023 0.6491 -2.0879 0.9755
-5.8360 0.1301 -2.0875 0.9755
-5.8243 -0.3899 -2.0875 0.9755
-5.0985 -2.8684 -2.0920 0.9755
-4.5176 -3.7339 -2.0959 0.9754
-4.1720 -4.1258 -2.0983 0.9754
-1.5002 -5.7261 -2.1168 0.9752
-0.9855 -5.8426 -2.1189 0.9751
0.5958 -5.9224 -2.1286 0.9750
1.1230 -5.8587 -2.1332 0.9750
2.1535 -5.5915 -2.1427 0.9749
2.6470 -5.3865 -2.1463 0.9748
3.1209 -5.1377 -2.1497 0.9748
3.5712 -4.8469 -2.1530 0.9747
4.7437 -3.7460 -2.1615 0.9746
5.0638 -3.3126 -2.1639 0.9746
5.3438 -2.8515 -2.1660 0.9746
5.5810 -2.3665 -2.1678 0.9746
5.7734 -1.8617 -2.1693 0.9746
6.0674 0.2705 -2.1719 0.9745
5.9212 1.3416 -2.1711 0.9745
5.5840 2.3678 -2.1690 0.9746
5.3473 2.8534 -2.1674 0.9746
5.0677 3.3151 -2.1656 0.9746
4.7478 3.7493 -2.1634 0.9746
4.3903 4.1523 -2.1610 0.9747
3.9983 4.5209 -2.1583 0.9747
2.1563 5.5987 -2.1455 0.9748
1.6467 5.7588 -2.1419 0.9749
0.5975 5.9389 -2.1345 0.9750
0.0664 5.9580 -2.1308 0.9750
-0.9876 5.8547 -2.1233 0.9751
-3.7968 4.4909 -2.1030 0.9753
-4.1760 4.1297 -2.1003 0.9754
-5.1019 2.8703 -2.0934 0.9754
-5.6671 1.4174 -2.0890 0.9755
-5.8248 0.3899 -2.0877 0.9755
-5.8358 -0.1300 -2.0875 0.9755
-5.8014 -0.6490 -2.0876 0.9755
-5.4297 -2.1610 -2.0898 0.9755
-5.2193 -2.6374 -2.0912 0.9755
-4.6770 -3.5271 -2.0948 0.9754
-4.3492 -3.9336 -2.0971 0.9754
-3.5917 -4.6539 -2.1023 0.9753
-2.7174 -5.2320 -2.1083 0.9753
-1.2443 -5.7903 -2.1179 0.9752
-0.7247 -5.8838 -2.1200 0.9751
-0.1984 -5.9330 -2.1229 0.9751
0.3311 -5.9372 -2.1265 0.9751
0.8599 -5.8962 -2.1308 0.9750
1.9007 -5.6771 -2.1409 0.9749
2.4025 -5.4946 -2.1445 0.9748
2.8867 -5.2675 -2.1480 0.9748
4.1942 -4.3368 -2.1575 0.9747
4.5694 -3.9513 -2.1603 0.9747
5.8523 -1.6031 -2.1699 0.9746
5.9745 -1.0764 -2.1709 0.9745
5.6373 0.5037 -2.1689 0.9760
5.5691 1.0033 -2.1686 0.9761
5.4560 1.4946 -2.1679 0.9761
2.6952 4.9181 -2.1491 0.9763
2.2435 5.1309 -2.1460 0.9763
1.2942 5.4305 -2.1393 0.9764
-1.1633 5.4135 -2.1219 0.9766
-1.6379 5.2801 -2.1185 0.9766
-2.5403 4.8910 -2.1120 0.9767
-3.7269 4.0295 -2.1034 0.9768
-4.0660 3.6775 -2.1009 0.9768
-4.8790 2.4655 -2.0949 0.9769
-5.4215 0.6065 -2.0906 0.9769
-5.2934 -1.3240 -2.0910 0.9769
-5.1566 -1.7906 -2.0919 0.9769
-4.9795 -2.2437 -2.0930 0.9769
-4.7633 -2.6798 -2.0944 0.9769
-4.5095 -3.0956 -2.0961 0.9768
-4.2201 -3.4880 -2.0981 0.9768
-3.5426 -4.1902 -2.1027 0.9768
-3.1595 -4.4945 -2.1054 0.9767
-2.3190 -4.9973 -2.1112 0.9767
-0.4319 -5.5268 -2.1244 0.9765
2.0087 -5.2155 -2.1418 0.9763
2.4688 -5.0238 -2.1451 0.9763
2.9104 -4.7912 -2.1483 0.9763
4.4221 -3.4921 -2.1593 0.9762
4.9808 -2.6579 -2.1635 0.9761
5.3807 -1.7351 -2.1665 0.9761
5.6539 -0.2521 -2.1688 0.9760
5.6543 0.2521 -2.1690 0.9760
5.3829 1.7358 -2.1674 0.9761
4.7236 3.0900 -2.1631 0.9761
4.0927 3.8709 -2.1588 0.9762
3.3335 4.5242 -2.1536 0.9762
1.0501 5.4784 -2.1376 0.9764
-2.3216 5.0030 -2.1136 0.9767
-3.1628 4.4991 -2.1075 0.9767
-3.5460 4.1942 -2.1047 0.9767
-4.7662 2.6814 -2.0957 0.9768
-5.1588 1.7913 -2.0927 0.9769
-5.2950 1.3244 -2.0916 0.9769
-5.4426 0.3643 -2.0904 0.9769
-5.4529 -0.1215 -2.0902 0.9769
-5.2301 -1.5587 -2.0914 0.9769
-5.0731 -2.0190 -2.0924 0.9769
-4.8762 -2.4641 -2.0937 0.9769
-4.6410 -2.8905 -2.0952 0.9769
-4.0626 -3.6744 -2.0992 0.9768
-3.7235 -4.0258 -2.1015 0.9768
-3.3544 -4.3465 -2.1040 0.9768
-2.9581 -4.6338 -2.1067 0.9767
-2.5375 -4.8855 -2.1097 0.9767
-1.1619 -5.4068 -2.1193 0.9766
-0.6771 -5.4976 -2.1227 0.9766
0.8034 -5.5082 -2.1332 0.9764
1.2925 -5.4237 -2.1367 0.9764
2.6921 -4.9125 -2.1467 0.9763
3.5304 -4.3697 -2.1528 0.9762
3.9104 -4.0433 -2.1556 0.9762
4.2598 -3.6836 -2.1581 0.9762
4.5757 -3.2934 -2.1605 0.9761
4.8554 -2.8758 -2.1625 0.9761
5.4541 -1.4941 -2.1671 0.9761
5.5679 -1.0031 -2.1681 0.9761
5.2931 0.0000 -2.1664 0.9774
5.2721 0.4711 -2.1663 0.9774
5.1027 1.3978 -2.1653 0.9774
4.9559 1.8456 -2.1644 0.9774
4.5445 2.6917 -2.1617 0.9774
4.2834 3.0830 -2.1600 0.9774
3.9883 3.4488 -2.1579 0.9775
3.6617 3.7862 -2.1557 0.9775
3.3064 4.0924 -2.1533 0.9775
2.9255 4.3651 -2.1506 0.9775
2.0995 4.8018 -2.1449 0.9776
1.2114 5.0832 -2.1387 0.9777
0.7530 5.1630 -2.1354 0.9777
0.2900 5.2015 -2.1322 0.9777
-0.1738 5.1987 -2.1289 0.9778
-2.3798 4.5819 -2.1131 0.9779
-2.7744 4.3460 -2.1102 0.9780
-3.1462 4.0766 -2.1075 0.9780
-4.3526 2.7108 -2.0987 0.9781
-4.5730 2.3108 -2.0970 0.9781
-4.7573 1.8934 -2.0956 0.9781
-2.1285 0.0474 -0.8714 0.9908
-2.1302 -0.1426 -0.8738 0.9908
-4.4646 -2.5118 -2.0966 0.9781
-4.2266 -2.9014 -2.0982 0.9781
-3.9550 -3.2689 -2.1000 0.9781
-3.6520 -3.6115 -2.1021 0.9780
-2.5771 -4.4637 -2.1095 0.9780
-1.3117 -5.0068 -2.1183 0.9779
-0.8622 -5.1113 -2.1215 0.9778
0.0579 -5.1991 -2.1280 0.9778
0.5212 -5.1813 -2.1313 0.9777
1.8801 -4.8816 -2.1410 0.9776
3.1159 -4.2290 -2.1499 0.9776
3.4843 -3.9398 -2.1526 0.9775
4.4154 -2.8884 -2.1594 0.9775
5.1594 -1.1690 -2.1651 0.9774
5.2447 -0.7053 -2.1658 0.9774
5.2877 -0.2358 -2.1663 0.9774
5.1607 1.1693 -2.1657 0.9774
5.0344 1.6234 -2.1649 0.9774
4.8675 2.0640 -2.1638 0.9774
4.6615 2.4875 -2.1625 0.9774
4.4183 2.8903 -2.1609 0.9774
4.1399 3.2692 -2.1590 0.9775
3.8287 3.6212 -2.1569 0.9775
3.1190 4.2331 -2.1520 0.9775
2.3130 4.7068 -2.1464 0.9776
1.8822 4.8871 -2.1434 0.9776
0.5219 5.1874 -2.1338 0.9777
0.0580 5.2053 -2.1305 0.9778
-0.4049 5.1818 -2.1272 0.9778
-0.8632 5.1173 -2.1240 0.9778
-2.1748 4.6866 -2.1146 0.9779
-2.5798 4.4683 -2.1117 0.9779
-3.3226 3.9300 -2.1063 0.9780
-3.6550 3.6145 -2.1038 0.9780
-3.9580 3.2714 -2.1016 0.9781
-4.2294 2.9033 -2.0996 0.9781
-2.1302 0.1426 -0.8738 0.9908
-2.1365 -0.4343 -0.8923 0.9906
-4.9026 -1.4611 -2.0937 0.9781
-4.7553 -1.8926 -2.0947 0.9781
-4.5706 -2.3096 -2.0959 0.9781
-3.8073 -3.4435 -2.1010 0.9781
-3.4893 -3.7726 -2.1032 0.9780
-3.1432 -4.0728 -2.1056 0.9780
-1.9631 -4.7770 -2.1138 0.9779
-1.5323 -4.9398 -2.1168 0.9779
-0.6341 -5.1485 -2.1231 0.9778
-0.1736 -5.1925 -2.1263 0.9778
0.2897 -5.1954 -2.1296 0.9778
0.7521 -5.1569 -2.1329 0.9777
1.2100 -5.0772 -2.1362 0.9777
2.0972 -4.7965 -2.1425 0.9776
2.9225 -4.3607 -2.1485 0.9776
3.3033 -4.0886 -2.1513 0.9775
4.2803 -3.0808 -2.1584 0.9775
4.7668 -2.2769 -2.1621 0.9774
5.1011 -1.3973 -2.1647 0.9774
5.2715 -0.4711 -2.1661 0.9774
4.9655 0.0000 -2.1640 0.9786
4.9457 0.4419 -2.1640 0.9786
4.8860 0.8803 -2.1637 0.9786
4.7869 1.3113 -2.1631 0.9786
4.6494 1.7314 -2.1622 0.9786
4.2637 2.5254 -2.1597 0.9786
3.7423 3.2361 -2.1562 0.9786
3.4360 3.5528 -2.1541 0.9787
3.1029 3.8405 -2.1518 0.9787
2.7456 4.0967 -2.1493 0.9787
2.3672 4.3195 -2.1467 0.9787
1.9708 4.5073 -2.1439 0.9788
0.2723 4.8843 -2.1320 0.9789
-1.0233 4.7621 -2.1228 0.9790
-1.8463 4.4926 -2.1169 0.9790
-2.2358 4.3048 -2.1141 0.9791
-2.6068 4.0835 -2.1114 0.9791
-3.2819 3.5483 -2.1065 0.9791
-3.8513 2.9044 -2.1023 0.9792
-1.9300 0.3923 -0.8583 0.9914
-1.9470 0.0434 -0.8487 0.9915
-1.9479 -0.1304 -0.8508 0.9915
-1.9397 -0.3050 -0.8557 0.9915
-1.9080 -0.4772 -0.8571 0.9915
-1.8290 -0.6351 -0.8438 0.9916
-4.1966 -2.3610 -2.0985 0.9792
-3.9727 -2.7271 -2.1000 0.9792
-3.1196 -3.6899 -2.1058 0.9791
-2.4215 -4.1942 -2.1107 0.9791
-2.0411 -4.3986 -2.1133 0.9791
-1.6437 -4.5687 -2.1161 0.9790
0.0544 -4.8826 -2.1280 0.9789
0.4895 -4.8654 -2.1311 0.9789
0.9219 -4.8095 -2.1342 0.9789
1.3482 -4.7150 -2.1372 0.9788
1.7650 -4.5827 -2.1402 0.9788
2.1688 -4.4134 -2.1431 0.9788
3.2699 -3.6973 -2.1511 0.9787
3.5899 -3.3953 -2.1535 0.9787
3.8817 -3.0654 -2.1556 0.9786
4.1429 -2.7102 -2.1575 0.9786
4.7212 -1.5224 -2.1619 0.9786
4.8401 -1.0966 -2.1629 0.9786
4.9201 -0.6617 -2.1635 0.9786
4.9603 -0.2212 -2.1639 0.9786
4.9606 0.2212 -2.1641 0.9786
4.9208 0.6618 -2.1639 0.9786
4.8414 1.0969 -2.1634 0.9786
4.5665 1.9363 -2.1617 0.9786
3.5927 3.3979 -2.1551 0.9787
3.2727 3.7005 -2.1529 0.9787
2.1710 4.4179 -2.1453 0.9788
1.7669 4.5875 -2.1425 0.9788
1.3497 4.7201 -2.1396 0.9788
0.9229 4.8148 -2.1366 0.9788
0.0545 4.8880 -2.1304 0.9789
-0.3803 4.8664 -2.1273 0.9789
-1.2335 4.7084 -2.1213 0.9790
-1.6454 4.5736 -2.1183 0.9790
-2.0432 4.4030 -2.1154 0.9790
-2.4238 4.1982 -2.1127 0.9791
-2.7844 3.9609 -2.1101 0.9791
-3.7198 3.0745 -2.1032 0.9792
-4.3895 1.9778 -2.0982 0.9792
-1.8290 0.6351 -0.8438 0.9916
-1.9080 0.4772 -0.8571 0.9915
-1.9397 0.3050 -0.8557 0.9915
-1.9470 -0.0434 -0.8487 0.9915
-1.9300 -0.3923 -0.8583 0.9914
-4.4700 -1.7790 -2.0967 0.9792
-3.8488 -2.9025 -2.1009 0.9792
-3.5783 -3.2363 -2.1027 0.9792
-2.6044 -4.0797 -2.1094 0.9791
-2.2336 -4.3005 -2.1120 0.9791
-1.8444 -4.4880 -2.1147 0.9791
-1.4395 -4.6406 -2.1175 0.9790
-1.0222 -4.7568 -2.1204 0.9790
-0.5956 -4.8358 -2.1234 0.9790
0.7062 -4.8423 -2.1327 0.9789
1.5580 -4.6535 -2.1387 0.9788
1.9687 -4.5026 -2.1417 0.9788
2.3648 -4.3153 -2.1445 0.9788
3.1001 -3.8371 -2.1499 0.9787
3.4332 -3.5500 -2.1523 0.9787
4.0163 -2.8907 -2.1566 0.9786
4.4722 -2.1362 -2.1600 0.9786
4.6475 -1.7308 -2.1614 0.9786
4.7855 -1.3109 -2.1624 0.9786
4.6706 -0.0000 -2.1619 0.9796
4.5959 0.8280 -2.1616 0.9796
4.3735 1.6287 -2.1602 0.9796
3.5208 3.0445 -2.1545 0.9797
2.9196 3.6136 -2.1504 0.9797
2.5836 3.8550 -2.1481 0.9798
2.2277 4.0649 -2.1456 0.9798
1.8548 4.2419 -2.1430 0.9798
1.4680 4.3846 -2.1403 0.9798
1.0705 4.4920 -2.1375 0.9799
0.2564 4.5983 -2.1318 0.9799
-0.5614 4.5585 -2.1260 0.9800
-2.1060 4.0547 -2.1149 0.9801
-3.0919 3.3429 -2.1078 0.9801
-3.3738 3.0514 -2.1057 0.9801
-1.5257 0.6072 -0.7601 0.9928
-1.6675 0.1865 -0.7767 0.9926
-1.6738 -0.1120 -0.7765 0.9926
-1.6165 -0.4043 -0.7713 0.9927
-1.5621 -0.5424 -0.7654 0.9927
-3.7433 -2.5696 -2.1017 0.9802
-3.2337 -3.1979 -2.1051 0.9802
-2.6207 -3.7280 -2.1094 0.9801
-2.2810 -3.9509 -2.1117 0.9801
-1.5481 -4.3031 -2.1168 0.9800
-1.1605 -4.4295 -2.1195 0.9800
-0.7626 -4.5211 -2.1223 0.9800
-0.3577 -4.5772 -2.1252 0.9800
1.6613 -4.3134 -2.1396 0.9798
2.4057 -3.9604 -2.1449 0.9798
2.7519 -3.7349 -2.1474 0.9798
4.2938 -1.8207 -2.1588 0.9797
4.5528 -1.0315 -2.1609 0.9796
4.6279 -0.6224 -2.1615 0.9796
4.6658 -0.2081 -2.1619 0.9796
4.4426 1.4325 -2.1607 0.9796
4.1141 2.1954 -2.1585 0.9797
3.8998 2.5511 -2.1571 0.9797
3.6545 2.8859 -2.1554 0.9797
3.3802 3.1969 -2.1536 0.9797
2.4079 3.9640 -2.1469 0.9798
2.0431 4.1576 -2.1443 0.9798
1.6629 4.3177 -2.1417 0.9798
1.2704 4.4428 -2.1389 0.9798
0.0513 4.6020 -2.1303 0.9799
-0.3580 4.5821 -2.1274 0.9799
-1.9244 4.1470 -2.1162 0.9801
-2.9414 3.4791 -2.1089 0.9801
-3.2361 3.2002 -2.1067 0.9801
-3.5048 2.8968 -2.1047 0.9802
-4.1363 1.8637 -2.1000 0.9802
-1.6521 0.2598 -0.7741 0.9927
-1.6738 0.1121 -0.7765 0.9926
-1.6716 -0.0372 -0.7739 0.9927
-1.6675 -0.1865 -0.7767 0.9926
-1.6373 -0.3328 -0.7734 0.9927
-1.5924 -0.4746 -0.7692 0.9927
-4.0485 -2.0458 -2.0997 0.9802
-3.0895 -3.3403 -2.1061 0.9801
-2.4534 -3.8432 -2.1105 0.9801
-1.3558 -4.3706 -2.1182 0.9800
-0.9626 -4.4797 -2.1209 0.9800
-0.1535 -4.5917 -2.1266 0.9800
0.6649 -4.5586 -2.1324 0.9799
1.4665 -4.3803 -2.1382 0.9798
2.9172 -3.6106 -2.1486 0.9797
4.2071 -2.0096 -2.1582 0.9797
4.3718 -1.6281 -2.1594 0.9796
4.4036 -0.0000 -2.1600 0.9806
4.3860 0.3919 -2.1600 0.9806
4.3332 0.7807 -2.1597 0.9806
4.2455 1.1629 -2.1592 0.9806
3.9687 1.8957 -2.1574 0.9806
3.7821 2.2401 -2.1562 0.9806
3.5653 2.5661 -2.1547 0.9806
3.0488 3.1524 -2.1512 0.9807
2.7535 3.4081 -2.1492 0.9807
2.4368 3.6359 -2.1470 0.9807
2.1012 3.8342 -2.1447 0.9807
1.7496 4.0014 -2.1422 0.9807
1.0100 4.2380 -2.1370 0.9808
0.2419 4.3389 -2.1316 0.9808
-0.5298 4.3019 -2.1261 0.9809
-1.6414 3.9941 -2.1182 0.9809
-2.3182 3.6314 -2.1133 0.9810
-2.6294 3.4070 -2.1110 0.9810
-2.9193 3.1563 -2.1089 0.9810
-1.3059 0.5197 -0.6895 0.9938
-1.3257 -0.2085 -0.6583 0.9940
-1.3149 -0.3289 -0.6649 0.9940
-1.2865 -0.5797 -0.6922 0.9937
-3.7345 -2.1010 -2.1019 0.9811
-3.5349 -2.4266 -2.1032 0.9811
-3.3073 -2.7336 -2.1047 0.9811
-3.0534 -3.0196 -2.1065 0.9810
-2.1535 -3.7299 -2.1127 0.9810
-1.8150 -3.9112 -2.1150 0.9810
-0.3376 -4.3198 -2.1254 0.9809
0.0483 -4.3382 -2.1281 0.9809
1.5672 -4.0692 -2.1390 0.9808
1.9255 -3.9183 -2.1415 0.9807
2.5956 -3.5227 -2.1464 0.9807
2.9018 -3.2811 -2.1486 0.9807
3.4440 -2.7197 -2.1526 0.9806
3.6753 -2.4043 -2.1543 0.9806
3.8774 -2.0691 -2.1558 0.9806
4.0486 -1.7168 -2.1571 0.9806
4.1874 -1.3503 -2.1582 0.9806
4.3634 -0.5868 -2.1596 0.9806
4.3990 -0.1962 -2.1600 0.9806
4.3992 0.1961 -2.1601 0.9806
4.2936 0.9728 -2.1595 0.9806
4.1887 1.3507 -2.1589 0.9806
3.8793 2.0700 -2.1568 0.9806
3.6773 2.4056 -2.1555 0.9806
3.4461 2.7214 -2.1539 0.9806
2.9040 3.2836 -2.1502 0.9807
1.9272 3.9218 -2.1435 0.9807
1.5687 4.0730 -2.1410 0.9807
1.1985 4.1914 -2.1384 0.9808
0.8197 4.2761 -2.1357 0.9808
0.4353 4.3265 -2.1330 0.9808
-1.0964 4.1849 -2.1221 0.9809
-2.4763 3.5226 -2.1122 0.9810
-3.0555 3.0217 -2.1079 0.9810
-3.5369 2.4279 -2.1044 0.9811
-3.7363 2.1020 -2.1029 0.9811
-1.2865 0.5797 -0.6922 0.9937
-1.3149 0.3289 -0.6649 0.9940
-1.3513 0.0905 -0.6643 0.9940
-1.3419 -0.1501 -0.6624 0.9940
-1.3200 -0.3934 -0.6756 0.9939
-1.3059 -0.5198 -0.6895 0.9938
-3.6383 -2.2660 -2.1025 0.9811
-3.4245 -2.5826 -2.1039 0.9811
-3.1836 -2.8794 -2.1056 0.9811
-2.3163 -3.6284 -2.1115 0.9810
-1.6399 -3.9904 -2.1162 0.9810
-1.2797 -4.1255 -2.1188 0.9809
-0.9086 -4.2282 -2.1214 0.9809
-0.5293 -4.2977 -2.1240 0.9809
-0.1449 -4.3333 -2.1268 0.9809
0.2417 -4.3345 -2.1295 0.9808
1.7480 -3.9978 -2.1403 0.9807
2.4347 -3.6329 -2.1452 0.9807
2.7514 -3.4054 -2.1475 0.9807
3.3180 -2.8692 -2.1517 0.9806
3.5632 -2.5646 -2.1535 0.9806
3.7801 -2.2390 -2.1551 0.9806
4.3856 -0.3919 -2.1598 0.9806
4.1604 0.0000 -2.1583 0.9814
4.1438 0.3703 -2.1583 0.9814
3.7498 1.7911 -2.1559 0.9814
3.5736 2.1166 -2.1547 0.9815
3.3688 2.4247 -2.1533 0.9815
2.8811 2.9790 -2.1500 0.9815
2.6022 3.2208 -2.1481 0.9815
1.9860 3.6239 -2.1438 0.9816
0.2287 4.1022 -2.1315 0.9817
-0.1371 4.1013 -2.1289 0.9817
-1.2114 3.9053 -2.1212 0.9817
-1.5524 3.7776 -2.1188 0.9818
-1.8804 3.6204 -2.1164 0.9818
-2.1928 3.4350 -2.1141 0.9818
-3.2419 2.4448 -2.1065 0.9819
-3.4442 2.1450 -2.1050 0.9819
-1.0665 0.5389 -0.6199 0.9946
-1.1649 0.1303 -0.6081 0.9947
-1.1785 0.0263 -0.6115 0.9947
-1.1739 -0.0786 -0.6103 0.9947
-1.1517 -0.1811 -0.6048 0.9948
-1.0898 -0.4910 -0.6201 0.9946
-3.5335 -1.9879 -2.1033 0.9819
-3.1291 -2.5863 -2.1060 0.9819
-2.8888 -2.8568 -2.1077 0.9819
-2.0370 -3.5283 -2.1135 0.9818
-1.7167 -3.6994 -2.1158 0.9818
-1.3822 -3.8418 -2.1181 0.9818
-1.0359 -3.9541 -2.1205 0.9817
-0.6807 -4.0354 -2.1230 0.9817
-0.3192 -4.0848 -2.1256 0.9817
0.4111 -4.0866 -2.1308 0.9817
1.4815 -3.8466 -2.1384 0.9816
2.4531 -3.3294 -2.1454 0.9815
3.9564 -1.2758 -2.1566 0.9814
4.0557 -0.9189 -2.1574 0.9814
4.1563 0.1853 -2.1583 0.9814
4.0566 0.9191 -2.1578 0.9814
3.9576 1.2761 -2.1572 0.9814
3.8268 1.6227 -2.1564 0.9814
3.4747 2.2730 -2.1540 0.9815
3.0122 2.8489 -2.1509 0.9815
2.1465 3.5337 -2.1449 0.9815
1.4828 3.8500 -2.1403 0.9816
-0.3195 4.0886 -2.1276 0.9817
-1.7182 3.7026 -2.1176 0.9818
-2.0387 3.5311 -2.1153 0.9818
-2.8907 2.8586 -2.1091 0.9818
-3.1310 2.5878 -2.1073 0.9819
-3.3464 2.2971 -2.1057 0.9819
-3.5352 1.9888 -2.1043 0.9819
-1.0898 0.4910 -0.6201 0.9946
-1.1517 0.1811 -0.6048 0.9948
-1.1649 -0.1303 -0.6081 0.9947
-1.1333 -0.2304 -0.5999 0.9948
-1.1266 -0.3358 -0.6099 0.9947
-2.7598 -2.9839 -2.1086 0.9819
-2.1911 -3.4323 -2.1125 0.9818
-1.8788 -3.6174 -2.1146 0.9818
-1.5511 -3.7743 -2.1169 0.9818
-0.8593 -3.9987 -2.1218 0.9817
0.5931 -4.0667 -2.1321 0.9817
0.9539 -4.0026 -2.1346 0.9816
1.6523 -3.7789 -2.1396 0.9816
1.9843 -3.6209 -2.1420 0.9816
2.3012 -3.4336 -2.1443 0.9815
2.6003 -3.2184 -2.1465 0.9815
2.8791 -2.9770 -2.1485 0.9815
3.1354 -2.7113 -2.1504 0.9815
3.3670 -2.4234 -2.1521 0.9815
3.5718 -2.1156 -2.1536 0.9815
4.0101 -1.0985 -2.1570 0.9814
4.1435 -0.3703 -2.1581 0.9814
2.0429 0.0000 -1.1189 0.9907
2.0356 0.1819 -1.1193 0.9907
2.0036 0.3610 -1.1150 0.9908
1.9714 0.7342 -1.1522 0.9905
3.5494 1.6954 -2.1544 0.9822
3.3827 2.0036 -2.1533 0.9822
2.9700 2.5682 -2.1505 0.9823
2.4636 3.0492 -2.1470 0.9823
1.5659 3.5813 -2.1408 0.9823
0.5622 3.8551 -2.1338 0.9824
0.2166 3.8854 -2.1313 0.9824
-0.1299 3.8847 -2.1289 0.9824
-0.4746 3.8533 -2.1264 0.9824
-0.8147 3.7915 -2.1240 0.9825
-1.1477 3.6997 -2.1216 0.9825
-1.4708 3.5790 -2.1193 0.9825
-2.0778 3.2548 -2.1149 0.9825
-2.3569 3.0540 -2.1129 0.9826
-2.8561 2.5832 -2.1092 0.9826
-3.0724 2.3170 -2.1076 0.9826
-0.9364 0.4732 -0.5746 0.9952
-0.9638 0.3836 -0.5681 0.9953
-0.9825 0.2928 -0.5615 0.9953
-1.0415 0.0232 -0.5706 0.9953
-0.9847 -0.2463 -0.5559 0.9954
-0.9756 -0.3388 -0.5656 0.9953
-0.9472 -0.4268 -0.5690 0.9953
-3.1699 -2.1760 -2.1058 0.9826
-2.9656 -2.4511 -2.1072 0.9826
-2.7376 -2.7073 -2.1088 0.9826
-2.2180 -3.1552 -2.1124 0.9826
-1.9302 -3.3432 -2.1143 0.9825
-1.6266 -3.5052 -2.1165 0.9825
-0.9814 -3.7461 -2.1210 0.9825
-0.3024 -3.8694 -2.1258 0.9825
0.0433 -3.8854 -2.1282 0.9824
0.7332 -3.8250 -2.1331 0.9824
1.7234 -3.5070 -2.1402 0.9823
3.4680 -1.8506 -2.1530 0.9822
1.9407 -0.8229 -1.1546 0.9904
2.0434 -0.0911 -1.1203 0.9907
2.0434 0.0911 -1.1203 0.9907
1.9407 0.8229 -1.1546 0.9904
3.4695 1.8514 -2.1539 0.9822
3.2891 2.1516 -2.1527 0.9822
2.8516 2.6970 -2.1497 0.9823
2.5981 2.9377 -2.1480 0.9823
2.3243 3.1545 -2.1461 0.9823
2.0324 3.3457 -2.1441 0.9823
1.7248 3.5098 -2.1419 0.9823
1.4041 3.6456 -2.1397 0.9823
1.0729 3.7520 -2.1374 0.9824
-0.6454 3.8262 -2.1252 0.9825
-1.9317 3.3458 -2.1160 0.9825
-2.9672 2.4525 -2.1084 0.9826
-3.1715 2.1771 -2.1069 0.9826
-0.9240 0.5198 -0.5806 0.9952
-0.9472 0.4268 -0.5690 0.9953
-1.0166 0.1599 -0.5637 0.9953
-1.0376 0.0695 -0.5696 0.9953
-1.0000 -0.2033 -0.5589 0.9954
-0.9638 -0.3836 -0.5681 0.9953
-3.2627 -2.0320 -2.1052 0.9826
-3.0708 -2.3158 -2.1065 0.9826
-2.6154 -2.8277 -2.1096 0.9826
-2.3553 -3.0518 -2.1114 0.9826
-2.0762 -3.2523 -2.1133 0.9826
-1.7802 -3.4276 -2.1154 0.9825
-1.4696 -3.5761 -2.1176 0.9825
-0.8140 -3.7882 -2.1221 0.9825
-0.1298 -3.8813 -2.1270 0.9824
0.2165 -3.8819 -2.1294 0.9824
0.5617 -3.8517 -2.1319 0.9824
0.9034 -3.7907 -2.1343 0.9824
1.2386 -3.6994 -2.1367 0.9824
1.5646 -3.5784 -2.1391 0.9823
1.8789 -3.4286 -2.1413 0.9823
2.1788 -3.2510 -2.1435 0.9823
2.4619 -3.0471 -2.1455 0.9823
2.7258 -2.8184 -2.1475 0.9823
2.9682 -2.5668 -2.1493 0.9823
3.1873 -2.2941 -2.1509 0.9822
1.9714 -0.7342 -1.1522 0.9905
1.8700 0.1671 -1.0839 0.9914
1.8426 0.3320 -1.0810 0.9914
1.7194 0.8213 -1.1001 0.9912
3.0236 2.1762 -2.1508 0.9829
2.3361 2.8914 -2.1461 0.9830
2.0677 3.0852 -2.1443 0.9830
1.7832 3.2540 -2.1423 0.9830
0.2055 3.6856 -2.1312 0.9831
-0.1232 3.6853 -2.1289 0.9831
-0.4502 3.6557 -2.1265 0.9831
-1.3956 3.3960 -2.1198 0.9832
-1.6906 3.2550 -2.1177 0.9832
-1.9717 3.0887 -2.1156 0.9832
-2.4837 2.6854 -2.1119 0.9832
-0.8491 0.5288 -0.5776 0.9954
-0.8760 0.4426 -0.5667 0.9955
-0.9012 0.2686 -0.5429 0.9957
-0.9120 0.1854 -0.5373 0.9957
-0.9237 0.1033 -0.5366 0.9957
-0.9306 0.0207 -0.5374 0.9957
-0.9189 -0.1445 -0.5370 0.9957
-0.8984 -0.3119 -0.5490 0.9956
-0.8858 -0.3991 -0.5609 0.9955
-3.0088 -2.0654 -2.1070 0.9833
-2.8147 -2.3264 -2.1083 0.9833
-2.1049 -2.9943 -2.1132 0.9832
-1.2426 -3.4538 -2.1192 0.9832
-0.9312 -3.5544 -2.1214 0.9832
-0.6118 -3.6270 -2.1236 0.9832
-0.2869 -3.6710 -2.1259 0.9831
0.6955 -3.6282 -2.1329 0.9831
1.0167 -3.5557 -2.1352 0.9831
1.3306 -3.4548 -2.1374 0.9830
1.9259 -3.1705 -2.1417 0.9830
2.7022 -2.5557 -2.1474 0.9830
3.1170 -2.0390 -2.1504 0.9829
1.8108 -0.5839 -1.0985 0.9913
1.8755 -0.0836 -1.0839 0.9914
1.8592 0.2500 -1.0831 0.9914
1.8108 0.5839 -1.0985 0.9913
2.9227 2.3080 -2.1501 0.9829
2.7038 2.5572 -2.1486 0.9830
2.4636 2.7856 -2.1470 0.9830
0.6961 3.6312 -2.1347 0.9831
-0.6123 3.6300 -2.1254 0.9831
-0.9320 3.5573 -2.1231 0.9832
-1.5447 3.3288 -2.1187 0.9832
-1.8331 3.1749 -2.1166 0.9832
-2.1064 2.9964 -2.1146 0.9832
-2.3626 2.7945 -2.1128 0.9832
-2.5999 2.5710 -2.1110 0.9833
-0.8638 0.4859 -0.5722 0.9954
-0.8858 0.3991 -0.5609 0.9955
-0.9030 0.2258 -0.5374 0.9957
-0.9306 -0.0207 -0.5374 0.9957
-0.9120 -0.1854 -0.5373 0.9957
-0.8491 -0.5288 -0.5776 0.9954
-2.9147 -2.1980 -2.1077 0.9833
-2.4822 -2.6837 -2.1106 0.9833
-2.2353 -2.8964 -2.1123 0.9832
-1.6894 -3.2526 -2.1161 0.9832
-1.3945 -3.3933 -2.1181 0.9832
-1.0881 -3.5075 -2.1203 0.9832
-0.7724 -3.5942 -2.1225 0.9832
0.2053 -3.6825 -2.1294 0.9831
1.1747 -3.5088 -2.1363 0.9831
1.7819 -3.2515 -2.1407 0.9830
2.0662 -3.0830 -2.1427 0.9830
2.3345 -2.8895 -2.1447 0.9830
3.2057 -1.8987 -2.1511 0.9829
1.7194 -0.8213 -1.1001 0.9912
1.7869 -0.6654 -1.1009 0.9912
1.8267 -0.5004 -1.0935 0.9913
