ply
format ascii 1.0
element vertex 1388
property float32 x
property float32 y
property float32 z
property float32 I
end_header
-15.5447 11.7228 -1.8692 0.9247
-16.4656 10.2549 -1.8623 0.9250
-17.5700 -7.9167 -1.8501 0.9255
-16.0210 10.9978 -1.8656 0.9249
-17.2750 9.7188 -1.9029 0.9234
19.0582 0.0000 -2.2638 0.9261
18.3500 5.0266 -2.2600 0.9262
17.8022 6.6296 -2.2565 0.9263
16.2714 9.6376 -2.2464 0.9267
14.2162 12.2932 -2.2325 0.9271
10.8815 13.4682 -2.0567 0.9326
-15.2005 7.6812 -2.0230 0.9337
-15.7886 6.2837 -2.0185 0.9338
-16.5995 3.3740 -2.0121 0.9340
-16.8180 1.8814 -2.0102 0.9341
-16.8756 -1.1297 -2.0091 0.9341
-16.0175 -5.5619 -2.0141 0.9340
-13.7722 -7.7481 -1.8771 0.9383
17.2213 -3.9018 -2.0975 0.9313
19.0362 -0.8489 -2.2635 0.9261
18.5668 4.2067 -2.2614 0.9262
17.4726 7.4090 -2.2544 0.9264
16.7062 8.9147 -2.2493 0.9266
14.7748 11.6676 -2.2363 0.9270
11.4943 12.9968 -2.0610 0.9325
-11.3651 11.2392 -1.8987 0.9376
-12.2767 10.1470 -1.8919 0.9379
-14.8620 8.3612 -2.0256 0.9336
-16.8109 -1.8806 -2.0094 0.9341
-15.5830 -6.2019 -1.9922 0.9347
-14.0880 -7.1190 -1.8750 0.9384
-13.4297 -8.3640 -1.8793 0.9383
18.7175 -1.6726 -2.2322 0.9271
15.8154 0.0000 -2.2409 0.9381
15.7518 1.4076 -2.2408 0.9381
15.2322 4.1725 -2.2377 0.9382
14.7813 5.5046 -2.2349 0.9383
12.7233 9.1577 -2.2212 0.9386
11.8252 10.2256 -2.2151 0.9388
10.8348 11.2031 -2.2083 0.9390
9.2996 11.5103 -2.0967 0.9420
7.9998 11.9365 -2.0360 0.9436
6.8792 12.5529 -2.0282 0.9438
-7.3194 11.4656 -1.9274 0.9465
-9.1717 9.9163 -1.9139 0.9469
-10.7186 9.6944 -2.0477 0.9433
-11.5469 8.7080 -2.0492 0.9432
-13.3483 5.3125 -2.0356 0.9436
-13.7471 4.0971 -2.0325 0.9437
-14.2276 1.5916 -2.0285 0.9438
-14.3067 0.3188 -2.0276 0.9438
-13.0778 -5.8926 -2.0324 0.9437
-11.6406 -6.5489 -1.8924 0.9475
13.4526 -5.7044 -2.0704 0.9427
13.9317 -4.4924 -2.0741 0.9426
15.6632 -2.1065 -2.2393 0.9381
15.7976 -0.7044 -2.2406 0.9381
15.6707 2.1075 -2.2404 0.9381
15.4105 3.4916 -2.2388 0.9382
13.1351 8.5926 -2.2239 0.9386
12.2863 9.7024 -2.2182 0.9387
10.2920 11.6373 -2.2012 0.9392
8.5392 11.5895 -2.0397 0.9435
-6.8143 11.8027 -1.9310 0.9464
-7.8085 11.1077 -1.9238 0.9466
-13.1102 5.9071 -2.0374 0.9436
-13.9072 3.4784 -2.0312 0.9437
-14.1476 2.2246 -2.0292 0.9438
-14.3057 -0.3188 -2.0275 0.9438
-14.2225 -1.5910 -2.0278 0.9438
-13.7345 -4.0933 -2.0306 0.9437
-13.3324 -5.3061 -2.0332 0.9437
-12.2966 -6.2137 -1.9521 0.9459
-11.3490 -7.0682 -1.8944 0.9474
13.7062 -5.1042 -2.0723 0.9426
15.5300 -2.7979 -2.2359 0.9382
15.7469 -1.4071 -2.2401 0.9381
13.5032 0.0000 -2.2245 0.9467
13.4490 1.2018 -2.2244 0.9467
13.2833 2.3931 -2.2235 0.9468
13.0078 3.5632 -2.2218 0.9468
12.6252 4.7017 -2.2194 0.9468
12.1392 5.7984 -2.2162 0.9469
11.5546 6.8438 -2.2123 0.9470
9.2705 9.5856 -2.1968 0.9474
8.3565 10.3430 -2.1905 0.9475
7.2199 10.7729 -2.1364 0.9488
3.8671 11.5504 -2.0066 0.9518
2.8133 11.8050 -1.9992 0.9520
-3.5147 11.3302 -1.9543 0.9530
-4.4930 10.9330 -1.9473 0.9532
-5.4294 10.4534 -1.9405 0.9534
-6.3172 9.8958 -1.9341 0.9535
-7.4933 9.7094 -2.0205 0.9515
-9.2967 8.4084 -2.0650 0.9505
-10.5908 6.5960 -2.0554 0.9507
-11.1145 5.6164 -2.0515 0.9508
-11.8990 3.5463 -2.0454 0.9509
-12.3182 1.3780 -2.0419 0.9510
-12.3623 -0.8275 -2.0411 0.9510
-12.2431 -1.9251 -2.0417 0.9510
-11.7258 -4.0716 -2.0448 0.9509
-10.8193 -6.0868 -2.0451 0.9509
-9.5451 -6.5523 -1.9073 0.9541
-8.9430 -7.3916 -1.9114 0.9541
10.4062 -6.8074 -2.0485 0.9508
11.4939 -4.8738 -2.0567 0.9506
12.7750 -4.1194 -2.2113 0.9470
13.1504 -2.9795 -2.2213 0.9468
13.3746 -1.7987 -2.2232 0.9468
13.4882 -0.6015 -2.2242 0.9467
13.4901 0.6015 -2.2246 0.9467
13.3800 1.7994 -2.2241 0.9467
13.1592 2.9815 -2.2228 0.9468
12.8297 4.1370 -2.2207 0.9468
12.3948 5.2559 -2.2179 0.9469
9.7013 9.1754 -2.1998 0.9473
8.8219 9.9750 -2.1937 0.9474
3.3426 11.6897 -2.0029 0.9519
-1.9842 11.7631 -1.9652 0.9528
-3.0120 11.4967 -1.9579 0.9530
-4.9668 10.7032 -1.9438 0.9533
-5.8798 10.1840 -1.9373 0.9534
-10.2974 7.0688 -2.0576 0.9506
-11.3440 5.1113 -2.0497 0.9508
-11.7365 4.0754 -2.0467 0.9509
-12.0386 3.0111 -2.0443 0.9509
-12.2484 1.9260 -2.0426 0.9510
-12.3646 0.8277 -2.0415 0.9510
-9.9862 -6.2194 -1.9381 0.9534
-9.2533 -6.9782 -1.9093 0.9541
-8.6149 -7.7917 -1.9136 0.9540
12.9974 -3.5604 -2.2201 0.9468
13.4454 -1.2015 -2.2238 0.9467
11.7224 1.0475 -2.2121 0.9532
10.5858 5.0564 -2.2050 0.9534
8.8261 7.6322 -2.1932 0.9536
8.0932 8.3683 -2.1882 0.9537
7.2980 9.0328 -2.1827 0.9538
4.4200 10.1089 -2.0738 0.9561
1.5278 10.4753 -1.9898 0.9578
-2.1945 10.2125 -1.9634 0.9584
-3.0847 9.9442 -1.9570 0.9585
-3.9954 9.7221 -1.9757 0.9581
-5.0412 9.7060 -2.0557 0.9565
-6.7708 8.7732 -2.0830 0.9559
-9.3221 5.8059 -2.0642 0.9563
-10.4797 3.1233 -2.0554 0.9565
-10.9125 0.2432 -2.0516 0.9565
-10.8904 -0.7290 -2.0516 0.9565
-10.7850 -1.6959 -2.0521 0.9565
-10.5970 -2.6505 -2.0532 0.9565
-10.3275 -3.5861 -2.0549 0.9565
-9.0183 -6.1907 -2.0560 0.9565
-7.2753 -7.1947 -1.9232 0.9592
-6.6214 -7.8319 -1.9277 0.9591
8.4969 -6.7100 -2.0350 0.9569
9.0796 -5.9396 -2.0393 0.9568
9.5902 -5.1175 -2.0432 0.9567
11.6584 -1.5679 -2.2111 0.9533
11.7568 -0.5242 -2.2120 0.9532
11.7581 0.5243 -2.2123 0.9532
11.6626 1.5685 -2.2118 0.9532
11.4709 2.5990 -2.2107 0.9533
11.1850 3.6067 -2.2089 0.9533
10.8077 4.5828 -2.2065 0.9533
10.3425 5.5189 -2.2034 0.9534
9.1670 7.2391 -2.1955 0.9536
5.0184 10.2122 -2.1387 0.9547
3.8611 10.0252 -2.0193 0.9572
1.0579 10.5154 -1.9865 0.9579
0.1173 10.5324 -1.9798 0.9580
-0.8178 10.4659 -1.9732 0.9582
-1.7403 10.3171 -1.9666 0.9583
-2.6429 10.0881 -1.9602 0.9584
-7.1456 8.4518 -2.0803 0.9560
-7.8500 7.7630 -2.0751 0.9561
-9.0627 6.2212 -2.0662 0.9562
-9.9884 4.5005 -2.0592 0.9564
-10.3358 3.5890 -2.0565 0.9564
-10.7892 1.6965 -2.0529 0.9565
-10.8922 0.7292 -2.0519 0.9565
-10.9119 -0.2432 -2.0515 0.9565
-10.7013 -2.1751 -2.0526 0.9565
-10.4723 -3.1211 -2.0539 0.9565
-10.1627 -4.0447 -2.0559 0.9565
-9.7744 -4.9392 -2.0585 0.9564
-8.2493 -6.2211 -1.9420 0.9588
-6.9555 -7.5202 -1.9254 0.9592
8.7970 -6.3317 -2.0372 0.9568
10.2518 1.8469 -2.2019 0.9583
8.4083 6.0520 -2.1899 0.9585
5.7190 8.5334 -2.1714 0.9589
4.9242 8.9856 -2.1659 0.9590
3.2304 9.6487 -2.1508 0.9593
2.3384 9.8125 -2.1322 0.9596
1.4222 9.7512 -2.0830 0.9605
0.5420 9.7196 -2.0577 0.9610
-2.0848 9.7019 -2.0976 0.9602
-2.9515 9.5147 -2.1058 0.9601
-3.7839 9.2077 -2.1043 0.9601
-4.5760 8.8104 -2.0986 0.9602
-5.3282 8.3465 -2.0931 0.9603
-7.2937 6.5967 -2.0788 0.9606
-7.8367 5.9099 -2.0748 0.9607
-8.3173 5.1800 -2.0712 0.9607
-8.7321 4.4125 -2.0681 0.9608
-9.0786 3.6132 -2.0654 0.9608
-9.3544 2.7879 -2.0633 0.9609
-9.7427 0.2171 -2.0599 0.9609
-9.7230 -0.6509 -2.0598 0.9609
-9.6286 -1.5140 -2.0603 0.9609
-9.2188 -3.2011 -2.0628 0.9609
-3.8772 -8.3551 -1.9470 0.9630
6.3295 -7.1569 -2.0196 0.9617
6.9571 -6.5800 -2.0242 0.9616
7.5308 -5.9471 -2.0284 0.9615
9.5629 -4.0550 -2.1956 0.9584
9.8974 -3.1915 -2.1982 0.9584
10.1515 -2.3000 -2.2002 0.9583
10.3226 -1.3882 -2.2016 0.9583
10.4092 -0.4642 -2.2025 0.9583
9.9045 3.1938 -2.1998 0.9583
8.6768 5.6761 -2.1917 0.9585
6.8294 7.7221 -2.1791 0.9587
6.1009 8.2802 -2.1741 0.9588
5.3265 8.7686 -2.1687 0.9589
3.6676 9.5226 -2.1570 0.9591
2.7899 9.7568 -2.1450 0.9594
1.8740 9.7764 -2.1042 0.9601
0.9791 9.7326 -2.0677 0.9608
0.1082 9.7143 -2.0535 0.9611
-0.7588 9.7108 -2.0589 0.9610
-1.6371 9.7057 -2.0806 0.9606
-4.1846 9.0176 -2.1014 0.9602
-4.9574 8.5865 -2.0958 0.9603
-5.6876 8.0907 -2.0905 0.9604
-6.9998 6.9223 -2.0809 0.9606
-8.5331 4.8006 -2.0696 0.9608
-9.2254 3.2034 -2.0643 0.9609
-9.4652 2.3674 -2.0624 0.9609
-9.6319 1.5146 -2.0610 0.9609
-9.7244 0.6510 -2.0601 0.9609
-9.7422 -0.2171 -2.0598 0.9609
-9.6851 -1.0834 -2.0600 0.9609
-9.5536 -1.9419 -2.0607 0.9609
-8.3076 -5.1740 -2.0688 0.9608
-7.8172 -5.8952 -2.0696 0.9608
-6.8767 -6.2196 -1.9599 0.9628
-6.2026 -6.7062 -1.9309 0.9633
-5.5932 -7.2473 -1.9351 0.9633
-4.9375 -7.7345 -1.9396 0.9632
-4.2400 -8.1635 -1.9445 0.9631
7.2511 -6.2702 -2.0263 0.9616
7.7958 -5.6111 -2.0303 0.9615
8.8357 -5.2334 -2.1707 0.9589
9.3664 -4.4739 -2.1941 0.9585
9.7400 -3.6272 -2.1970 0.9584
10.2476 -1.8462 -2.2010 0.9583
9.3396 0.0000 -2.1950 0.9624
9.3022 0.8312 -2.1949 0.9624
9.0003 2.4654 -2.1932 0.9624
8.7385 3.2542 -2.1915 0.9624
7.0163 6.0672 -2.1800 0.9626
6.4367 6.6555 -2.1760 0.9627
5.1334 7.6595 -2.1671 0.9628
2.9064 8.6809 -2.1515 0.9631
2.1167 8.8822 -2.1460 0.9632
1.3143 9.0116 -2.1403 0.9633
-1.1043 8.9662 -2.1232 0.9636
-1.8929 8.8089 -2.1176 0.9637
-2.6625 8.5831 -2.1121 0.9637
-3.4072 8.2910 -2.1067 0.9638
-4.1216 7.9355 -2.1016 0.9639
-4.8003 7.5195 -2.0967 0.9640
-5.4385 7.0468 -2.0920 0.9641
-6.0316 6.5213 -2.0877 0.9642
-7.0664 5.3290 -2.0801 0.9643
-7.5010 4.6717 -2.0769 0.9643
-7.8763 3.9801 -2.0740 0.9644
-8.1898 3.2595 -2.0716 0.9644
-8.4395 2.5152 -2.0697 0.9645
-8.6237 1.7528 -2.0682 0.9645
-8.7412 0.9778 -2.0672 0.9645
-8.7912 0.1959 -2.0666 0.9645
-8.5358 -2.1350 -2.0679 0.9645
-8.3174 -2.8881 -2.0693 0.9645
-8.0344 -3.6201 -2.0711 0.9644
-6.8191 -5.6362 -2.0792 0.9643
-5.3218 -6.2947 -1.9373 0.9667
-4.7501 -6.7571 -1.9412 0.9666
-4.1388 -7.1686 -1.9454 0.9666
-2.8155 -7.8258 -1.9546 0.9664
-0.6530 -8.3560 -1.9698 0.9661
3.0526 -7.9260 -1.9962 0.9657
3.7555 -7.6422 -2.0012 0.9656
5.0750 -6.8878 -2.0108 0.9655
5.6803 -6.4228 -2.0152 0.9654
6.2421 -5.9037 -2.0193 0.9653
7.0795 -5.5906 -2.1201 0.9636
7.7667 -5.0807 -2.1812 0.9626
8.2057 -4.3787 -2.1859 0.9625
9.0996 -2.0617 -2.1928 0.9624
9.3304 0.4161 -2.1950 0.9624
9.2550 1.2447 -2.1947 0.9624
9.1038 2.0627 -2.1938 0.9624
8.2138 4.3830 -2.1881 0.9625
7.7808 5.0899 -2.1852 0.9625
6.7330 6.3681 -2.1781 0.9626
5.4754 7.4313 -2.1694 0.9628
4.7817 7.8717 -2.1646 0.9629
1.7167 8.9559 -2.1432 0.9632
0.9103 9.0491 -2.1375 0.9633
0.1010 9.0698 -2.1317 0.9634
-0.7047 9.0185 -2.1260 0.9635
-1.5006 8.8963 -2.1204 0.9636
-2.2805 8.7045 -2.1148 0.9637
-3.7685 8.1210 -2.1041 0.9639
-5.1247 7.2900 -2.0943 0.9640
-5.7409 6.7904 -2.0898 0.9641
-7.2909 5.0049 -2.0784 0.9643
-7.6962 4.3298 -2.0754 0.9644
-8.0409 3.6231 -2.0728 0.9644
-8.6908 1.3666 -2.0676 0.9645
-8.6203 -1.7521 -2.0674 0.9645
-8.1838 -3.2571 -2.0701 0.9645
-7.4931 -4.6667 -2.0747 0.9644
-5.7489 -6.2156 -1.9898 0.9658
-4.4491 -6.9694 -1.9433 0.9666
-3.8197 -7.3543 -1.9476 0.9665
-2.4672 -7.9533 -1.9571 0.9664
-1.7539 -8.1621 -1.9621 0.9663
-1.0232 -8.3076 -1.9672 0.9662
1.9613 -8.2299 -1.9884 0.9658
2.6931 -8.0437 -1.9936 0.9657
4.0972 -7.4765 -2.0037 0.9656
4.7577 -7.0989 -2.0085 0.9655
6.5770 -5.6873 -2.0435 0.9649
7.9968 -4.7365 -2.1844 0.9625
8.7321 -3.2519 -2.1899 0.9624
9.1853 -1.6548 -2.1935 0.9624
9.3005 -0.8311 -2.1945 0.9624
8.4534 -0.0000 -2.1887 0.9657
8.4196 0.7524 -2.1887 0.9657
7.6101 3.6350 -2.1836 0.9658
5.2615 6.5122 -2.1677 0.9660
4.0073 7.3125 -2.1590 0.9661
3.3333 7.6235 -2.1543 0.9662
2.6356 7.8720 -2.1494 0.9663
0.4589 8.2295 -2.1341 0.9665
-0.2747 8.2176 -2.1289 0.9666
-1.0026 8.1407 -2.1237 0.9667
-1.7191 7.9999 -2.1186 0.9668
-2.4186 7.7967 -2.1136 0.9668
-3.7456 7.2116 -2.1041 0.9670
-4.3634 6.8351 -2.0996 0.9670
-5.9804 5.4089 -2.0878 0.9672
-6.4279 4.8475 -2.0845 0.9673
-6.8241 4.2501 -2.0815 0.9673
-7.4525 2.9660 -2.0768 0.9674
-7.6803 2.2890 -2.0750 0.9674
-7.9557 0.8900 -2.0727 0.9675
-8.0015 0.1783 -2.0722 0.9675
-7.7686 -1.9431 -2.0734 0.9675
-6.9960 -3.9359 -2.0784 0.9674
-5.1963 -6.1462 -2.0839 0.9673
-2.5583 -7.1108 -1.9566 0.9693
-0.5929 -7.5872 -1.9704 0.9690
0.0850 -7.6284 -1.9752 0.9690
0.7655 -7.6090 -1.9801 0.9689
2.1126 -7.3884 -1.9897 0.9687
2.7684 -7.1879 -1.9943 0.9687
4.5993 -6.2422 -2.0075 0.9685
6.0692 -5.7402 -2.1629 0.9661
7.0382 -4.6042 -2.1776 0.9658
7.4301 -3.9648 -2.1805 0.9658
8.0322 -2.5901 -2.1851 0.9657
8.3748 -1.1263 -2.1879 0.9657
8.4451 0.3766 -2.1888 0.9657
8.2404 1.8670 -2.1877 0.9657
8.0369 2.5916 -2.1864 0.9657
7.0455 4.6090 -2.1799 0.9658
4.9614 6.7337 -2.1656 0.9660
2.9870 7.7557 -2.1519 0.9662
2.2796 7.9723 -2.1469 0.9663
0.0917 8.2317 -2.1315 0.9666
-0.6398 8.1873 -2.1263 0.9666
-1.3626 8.0782 -2.1211 0.9667
-2.0713 7.9060 -2.1161 0.9668
-3.4244 7.3794 -2.1064 0.9669
-4.0588 7.0301 -2.1018 0.9670
-4.6588 6.6272 -2.0975 0.9671
-5.7384 5.6748 -2.0896 0.9672
-6.6326 4.5530 -2.0830 0.9673
-7.0022 3.9394 -2.0802 0.9673
-7.5738 2.6299 -2.0759 0.9674
-7.9863 0.5346 -2.0724 0.9675
-8.0011 -0.1783 -2.0722 0.9675
-7.6764 -2.2878 -2.0739 0.9674
-7.4475 -2.9640 -2.0754 0.9674
-6.4209 -4.8422 -2.0822 0.9673
-5.9731 -5.4023 -2.0853 0.9673
-5.4703 -5.9144 -2.0859 0.9673
-4.7921 -6.2093 -2.0308 0.9681
-4.0448 -6.3360 -1.9463 0.9694
-3.4719 -6.6845 -1.9503 0.9694
-2.8693 -6.9820 -1.9545 0.9693
-2.2415 -7.2259 -1.9589 0.9692
-0.9292 -7.5442 -1.9681 0.9691
0.4252 -7.6263 -1.9776 0.9689
2.4426 -7.2956 -1.9920 0.9687
3.0894 -7.0656 -1.9967 0.9686
3.7144 -6.7779 -2.0011 0.9686
4.3122 -6.4342 -2.0055 0.9685
4.8777 -6.0372 -2.0096 0.9684
6.3354 -5.4784 -2.1686 0.9660
7.6039 -3.6321 -2.1818 0.9658
8.1429 -2.2306 -2.1860 0.9657
8.3144 -1.4979 -2.1874 0.9657
7.7130 0.0000 -2.1835 0.9684
7.5889 1.3672 -2.1829 0.9685
6.6155 3.9184 -2.1767 0.9685
6.2331 4.4863 -2.1741 0.9686
5.8012 5.0165 -2.1711 0.9686
5.3237 5.5047 -2.1679 0.9687
4.8047 5.9468 -2.1643 0.9687
4.2488 6.3396 -2.1605 0.9688
2.4085 7.1939 -2.1476 0.9690
1.7549 7.3639 -2.1431 0.9690
1.0901 7.4745 -2.1384 0.9691
-2.8337 6.8954 -2.1104 0.9695
-3.9955 6.2588 -2.1021 0.9696
-4.5283 5.8675 -2.0982 0.9697
-5.0239 5.4318 -2.0946 0.9697
-6.2532 3.8946 -2.0855 0.9698
-6.8304 2.7184 -2.0811 0.9699
-7.1942 1.4623 -2.0783 0.9699
-7.3348 0.1635 -2.0770 0.9700
-7.3201 -0.4900 -2.0769 0.9700
-7.2486 -1.1398 -2.0773 0.9700
-7.1210 -1.7811 -2.0780 0.9699
-6.7010 -3.0193 -2.0807 0.9699
-5.6837 -4.6977 -2.0875 0.9698
-5.2505 -5.1923 -2.0904 0.9698
-4.7749 -5.6478 -2.0937 0.9697
-1.7568 -6.7057 -1.9624 0.9716
0.0777 -6.9773 -1.9753 0.9714
0.7000 -6.9582 -1.9798 0.9713
5.5613 -5.2599 -2.1670 0.9687
6.4246 -4.2028 -2.1734 0.9686
7.6415 -1.0277 -2.1827 0.9685
7.7054 0.3436 -2.1835 0.9684
7.6433 1.0279 -2.1832 0.9684
7.5190 1.7036 -2.1825 0.9685
7.0889 3.0060 -2.1798 0.9685
6.4307 4.2068 -2.1754 0.9686
6.0231 4.7564 -2.1727 0.9686
5.5679 5.2661 -2.1696 0.9686
4.5310 6.1496 -2.1624 0.9687
3.3562 6.8296 -2.1543 0.9689
2.7294 7.0869 -2.1499 0.9689
2.0835 7.2863 -2.1454 0.9690
1.4236 7.4267 -2.1407 0.9691
0.7552 7.5074 -2.1360 0.9691
0.0839 7.5280 -2.1313 0.9692
-0.5852 7.4889 -2.1265 0.9693
-1.8954 7.2345 -2.1172 0.9694
-3.1348 6.7554 -2.1083 0.9695
-3.7162 6.4367 -2.1041 0.9696
-4.2663 6.0689 -2.1001 0.9696
-5.2566 5.1984 -2.0929 0.9697
-6.0774 4.1719 -2.0868 0.9698
-6.7056 3.0214 -2.0821 0.9699
-6.9418 2.4105 -2.0803 0.9699
-7.3346 -0.1634 -2.0769 0.9700
-7.2914 -0.8157 -2.0770 0.9700
-6.8262 -2.7168 -2.0799 0.9699
-6.5627 -3.3163 -2.0816 0.9699
-6.2478 -3.8911 -2.0837 0.9699
-5.0178 -5.4252 -2.0920 0.9697
-4.5186 -5.8549 -2.0937 0.9697
-3.9585 -6.2009 -2.0826 0.9699
-2.6268 -6.3918 -1.9563 0.9717
-2.0516 -6.6138 -1.9603 0.9716
-1.4579 -6.7846 -1.9645 0.9716
-0.2329 -6.9661 -1.9731 0.9714
0.3889 -6.9747 -1.9775 0.9714
1.0104 -6.9278 -1.9820 0.9713
1.6266 -6.8254 -1.9863 0.9713
4.0328 -6.0173 -2.0507 0.9703
5.3131 -5.4937 -2.1636 0.9687
5.7947 -5.0109 -2.1687 0.9687
6.6097 -3.9149 -2.1747 0.9686
7.4305 -2.0354 -2.1810 0.9685
7.5865 -1.3668 -2.1823 0.9685
7.0845 0.0000 -2.1790 0.9708
7.0562 0.6305 -2.1790 0.9708
5.3310 4.6099 -2.1677 0.9709
3.3658 6.1419 -2.1542 0.9711
2.8007 6.4053 -2.1502 0.9712
2.2152 6.6165 -2.1461 0.9712
1.6144 6.7741 -2.1419 0.9713
1.0030 6.8771 -2.1376 0.9713
0.3861 6.9249 -2.1333 0.9714
-0.2313 6.9176 -2.1289 0.9714
-0.8443 6.8555 -2.1245 0.9715
-1.4482 6.7394 -2.1202 0.9716
-2.6099 6.3509 -2.1119 0.9717
-3.1589 6.0819 -2.1079 0.9717
-5.0496 4.5671 -2.0942 0.9719
-5.7648 3.5903 -2.0889 0.9720
-6.6340 1.3484 -2.0822 0.9721
-6.7251 0.7523 -2.0814 0.9721
-6.7641 0.1508 -2.0810 0.9721
-6.7505 -0.4519 -2.0809 0.9721
-6.6845 -1.0511 -2.0813 0.9721
-5.5975 -3.8425 -2.0883 0.9720
-4.8395 -4.7858 -2.0934 0.9719
-4.4006 -5.2050 -2.0965 0.9719
-3.4145 -5.9142 -2.1005 0.9718
-2.8733 -6.1918 -2.0995 0.9718
-1.6304 -6.2232 -1.9787 0.9734
-1.0639 -6.3074 -1.9674 0.9736
0.0715 -6.4221 -1.9754 0.9735
0.6442 -6.4034 -1.9795 0.9734
2.3680 -6.1484 -2.0265 0.9728
2.9966 -6.0979 -2.0898 0.9720
3.6234 -5.9650 -2.1467 0.9712
4.1563 -5.6410 -2.1552 0.9711
4.6536 -5.2618 -2.1606 0.9710
5.5291 -4.3663 -2.1670 0.9709
6.2307 -3.3248 -2.1722 0.9709
6.7333 -2.1712 -2.1760 0.9708
7.0191 -0.9440 -2.1783 0.9708
7.0206 0.9442 -2.1788 0.9708
6.9066 1.5648 -2.1782 0.9708
6.7366 2.1723 -2.1771 0.9708
6.5122 2.7614 -2.1756 0.9708
5.9085 3.8652 -2.1716 0.9709
5.1169 4.8395 -2.1663 0.9710
4.1651 5.6529 -2.1597 0.9710
3.6393 5.9911 -2.1561 0.9711
3.0861 6.2800 -2.1522 0.9711
1.9164 6.7021 -2.1440 0.9712
1.3097 6.8324 -2.1398 0.9713
0.6949 6.9079 -2.1354 0.9714
0.0772 6.9281 -2.1311 0.9714
-1.1477 6.8041 -2.1224 0.9715
-1.7452 6.6615 -2.1181 0.9716
-2.3266 6.4670 -2.1139 0.9716
-2.8875 6.2224 -2.1099 0.9717
-3.9309 5.5918 -2.1024 0.9718
-4.4057 5.2111 -2.0989 0.9718
-4.8447 4.7910 -2.0957 0.9719
-6.1826 2.7857 -2.0857 0.9720
-6.5690 1.6430 -2.0827 0.9721
-6.6861 1.0513 -2.0818 0.9721
-6.7240 -0.7522 -2.0811 0.9721
-6.4884 -1.9338 -2.0824 0.9721
-6.0510 -3.0577 -2.0853 0.9720
-4.6247 -5.0002 -2.0949 0.9719
-4.1675 -5.4000 -2.0981 0.9719
-2.5505 -6.2063 -2.0638 0.9723
-0.7827 -6.3549 -1.9694 0.9736
0.3579 -6.4192 -1.9775 0.9735
0.9298 -6.3749 -1.9815 0.9734
3.8931 -5.8089 -2.1508 0.9712
4.8872 -5.0533 -2.1623 0.9710
5.7219 -4.1184 -2.1684 0.9709
6.0731 -3.5971 -2.1710 0.9709
6.8256 -1.8697 -2.1768 0.9708
7.0552 -0.6304 -2.1787 0.9708
6.5177 0.5824 -2.1752 0.9728
6.3077 1.7278 -2.1740 0.9728
6.1256 2.2812 -2.1728 0.9728
5.8941 2.8154 -2.1713 0.9728
5.2917 3.8088 -2.1673 0.9729
2.5896 5.9225 -2.1486 0.9731
2.0485 6.1187 -2.1448 0.9732
1.4931 6.2653 -2.1409 0.9732
-0.2140 6.4009 -2.1289 0.9734
-0.7814 6.3444 -2.1248 0.9734
-1.3405 6.2380 -2.1209 0.9735
-2.9251 5.6318 -2.1095 0.9736
-3.8648 5.0077 -2.1027 0.9737
-5.0300 3.7933 -2.0941 0.9738
-5.3417 3.3268 -2.0918 0.9738
-5.6112 2.8355 -2.0898 0.9738
-5.8365 2.3229 -2.0881 0.9739
-6.0160 1.7930 -2.0867 0.9739
-6.1486 1.2498 -2.0856 0.9739
-6.2332 0.6973 -2.0849 0.9739
-6.2568 -0.4189 -2.0844 0.9739
-6.1956 -0.9742 -2.0848 0.9739
-6.0862 -1.5222 -2.0854 0.9739
-5.9293 -2.0589 -2.0864 0.9739
-5.1868 -3.5606 -2.0913 0.9738
-4.4836 -4.4339 -2.0960 0.9738
-3.6365 -5.1729 -2.1019 0.9737
-3.1665 -5.4845 -2.1051 0.9737
-2.1474 -5.9687 -2.1085 0.9736
-1.6083 -6.1387 -2.1094 0.9736
-0.4851 -6.2079 -2.0698 0.9741
2.3121 -6.0031 -2.1384 0.9732
3.3601 -5.5315 -2.1513 0.9731
3.8453 -5.2190 -2.1548 0.9730
4.7237 -4.4677 -2.1613 0.9730
5.1093 -4.0348 -2.1641 0.9729
5.4546 -3.5683 -2.1666 0.9729
6.0125 -2.5495 -2.1708 0.9728
6.2201 -2.0057 -2.1724 0.9728
6.3776 -1.4450 -2.1737 0.9728
6.5374 0.2915 -2.1752 0.9728
6.4848 0.8721 -2.1750 0.9728
6.3797 1.4454 -2.1744 0.9728
6.2229 2.0066 -2.1734 0.9728
6.0159 2.5510 -2.1721 0.9728
5.4590 3.5711 -2.1684 0.9729
5.1140 4.0385 -2.1660 0.9729
4.7285 4.4722 -2.1634 0.9729
2.8533 5.8062 -2.1505 0.9731
2.3211 6.0267 -2.1467 0.9731
1.7723 6.1982 -2.1429 0.9732
-0.4985 6.3789 -2.1269 0.9734
-1.0622 6.2974 -2.1228 0.9734
-2.6736 5.7615 -2.1113 0.9736
-5.7294 2.5816 -2.0889 0.9739
-5.9321 2.0598 -2.0873 0.9739
-6.2323 -0.6972 -2.0846 0.9739
-6.1469 -1.2494 -2.0850 0.9739
-6.0136 -1.7922 -2.0858 0.9739
-5.3377 -3.3244 -2.0903 0.9738
-4.6737 -4.2271 -2.0948 0.9738
-4.2844 -4.6322 -2.0974 0.9738
-3.8604 -5.0021 -2.1003 0.9737
-2.9214 -5.6247 -2.1068 0.9736
-2.4110 -5.8668 -2.1084 0.9736
-1.8796 -6.0594 -2.1089 0.9736
-1.3322 -6.1998 -2.1079 0.9736
-0.7643 -6.2060 -2.0785 0.9740
-0.2076 -6.2092 -2.0651 0.9742
0.3460 -6.2054 -2.0659 0.9741
0.9037 -6.1962 -2.0815 0.9740
3.6061 -5.3807 -2.1531 0.9731
4.0772 -5.0464 -2.1565 0.9730
4.5169 -4.6704 -2.1597 0.9730
4.9214 -4.2557 -2.1627 0.9729
5.2872 -3.8055 -2.1654 0.9729
5.6112 -3.3235 -2.1678 0.9729
6.4371 -1.1597 -2.1742 0.9728
6.5169 -0.5824 -2.1749 0.9728
5.9759 1.0766 -2.1714 0.9745
5.8544 1.6037 -2.1707 0.9745
5.2126 3.0875 -2.1665 0.9746
4.5735 3.9549 -2.1622 0.9746
4.1984 4.3411 -2.1596 0.9747
3.7904 4.6914 -2.1568 0.9747
3.3531 5.0031 -2.1538 0.9747
2.8901 5.2738 -2.1506 0.9748
2.4055 5.5015 -2.1472 0.9748
1.3873 5.8214 -2.1401 0.9749
-0.1989 5.9498 -2.1289 0.9750
-1.7546 5.6562 -2.1178 0.9752
-2.7207 5.2383 -2.1108 0.9752
-3.5955 4.6589 -2.1045 0.9753
-3.9905 4.3144 -2.1016 0.9753
-4.6809 3.5300 -2.0966 0.9754
-5.2225 2.6390 -2.0925 0.9754
-5.4325 2.1621 -2.0909 0.9755
-5.5999 1.6690 -2.0896 0.9755
-5.8024 0.6491 -2.0879 0.9755
-5.8361 0.1301 -2.0876 0.9755
-5.8244 -0.3899 -2.0875 0.9755
-5.5192 -1.9165 -2.0893 0.9755
-5.3299 -2.4015 -2.0905 0.9755
-5.0987 -2.8685 -2.0921 0.9755
-4.8273 -3.3138 -2.0939 0.9754
-4.5177 -3.7340 -2.0960 0.9754
-4.1721 -4.1259 -2.0983 0.9754
-3.7930 -4.4864 -2.1009 0.9754
-3.3832 -4.8127 -2.1038 0.9753
-2.0006 -5.5608 -2.1134 0.9752
-0.9855 -5.8427 -2.1189 0.9751
-0.4621 -5.9142 -2.1214 0.9751
0.0662 -5.9410 -2.1247 0.9751
0.5958 -5.9225 -2.1286 0.9750
2.1536 -5.5916 -2.1428 0.9749
2.6471 -5.3866 -2.1463 0.9748
3.5713 -4.8470 -2.1530 0.9747
3.9942 -4.5163 -2.1561 0.9747
4.3861 -4.1484 -2.1589 0.9747
5.0639 -3.3126 -2.1639 0.9746
5.5810 -2.3666 -2.1678 0.9746
6.0175 -0.8093 -2.1713 0.9745
6.0186 0.8094 -2.1717 0.9745
5.5840 2.3678 -2.1690 0.9746
5.0677 3.3151 -2.1655 0.9746
4.3902 4.1523 -2.1610 0.9747
3.5752 4.8523 -2.1553 0.9747
3.1246 5.1437 -2.1522 0.9748
2.6503 5.3932 -2.1489 0.9748
2.1563 5.5986 -2.1455 0.9748
1.6467 5.7587 -2.1419 0.9749
-0.9876 5.8547 -2.1233 0.9751
-1.5022 5.7336 -2.1196 0.9751
-2.0031 5.5678 -2.1160 0.9752
-3.3869 4.8179 -2.1060 0.9753
-3.7969 4.4909 -2.1030 0.9753
-4.1760 4.1297 -2.1003 0.9754
-4.8309 3.3162 -2.0954 0.9754
-5.1019 2.8703 -2.0934 0.9754
-5.5216 1.9173 -2.0902 0.9755
-5.6672 1.4175 -2.0891 0.9755
-5.7686 0.9071 -2.0882 0.9755
-5.8249 0.3899 -2.0877 0.9755
-5.4299 -2.1610 -2.0899 0.9755
-5.2194 -2.6375 -2.0913 0.9755
-4.9679 -3.0940 -2.0929 0.9754
-4.6772 -3.5272 -2.0949 0.9754
-3.9866 -4.3103 -2.0996 0.9754
-3.5918 -4.6540 -2.1023 0.9753
-2.7175 -5.2321 -2.1084 0.9753
-2.2445 -5.4618 -2.1117 0.9752
-0.1984 -5.9332 -2.1229 0.9751
0.8600 -5.8963 -2.1309 0.9750
2.4025 -5.4947 -2.1446 0.9748
2.8867 -5.2676 -2.1480 0.9748
3.7864 -4.6865 -2.1546 0.9747
4.1943 -4.3369 -2.1575 0.9747
4.5694 -3.9514 -2.1603 0.9747
4.9087 -3.5330 -2.1628 0.9746
5.4679 -2.6118 -2.1670 0.9746
5.9745 -1.0764 -2.1709 0.9745
6.0484 -0.5405 -2.1716 0.9745
5.6598 0.0000 -2.1689 0.9760
5.6373 0.5037 -2.1689 0.9760
5.5691 1.0033 -2.1685 0.9761
5.4560 1.4946 -2.1679 0.9761
5.2989 1.9733 -2.1669 0.9761
5.0991 2.4357 -2.1656 0.9761
4.5791 3.2959 -2.1621 0.9761
4.2634 3.6867 -2.1599 0.9761
3.9140 4.0470 -2.1576 0.9762
3.5340 4.3740 -2.1549 0.9762
2.2434 5.1309 -2.1460 0.9763
1.7751 5.3021 -2.1427 0.9763
1.2941 5.4305 -2.1393 0.9764
0.8044 5.5152 -2.1359 0.9764
0.3098 5.5558 -2.1324 0.9764
-1.1633 5.4135 -2.1219 0.9766
-1.6379 5.2800 -2.1185 0.9766
-2.0981 5.1053 -2.1152 0.9766
-2.5403 4.8910 -2.1120 0.9767
-3.3578 4.3508 -2.1061 0.9767
-4.8790 2.4655 -2.0949 0.9769
-5.0755 2.0200 -2.0934 0.9769
-5.3477 1.0870 -2.0912 0.9769
-5.4216 0.6065 -2.0906 0.9769
-5.4422 -0.3643 -2.0902 0.9769
-5.3889 -0.8474 -2.0905 0.9769
-5.2935 -1.3240 -2.0911 0.9769
-5.1568 -1.7906 -2.0919 0.9769
-4.9797 -2.2437 -2.0931 0.9769
-4.7634 -2.6799 -2.0945 0.9769
-4.2202 -3.4881 -2.0981 0.9768
-3.5426 -4.1903 -2.1028 0.9768
-3.1596 -4.4946 -2.1054 0.9767
-1.8678 -5.1917 -2.1144 0.9766
-1.4005 -5.3456 -2.1177 0.9766
-0.9206 -5.4577 -2.1210 0.9766
0.0619 -5.5526 -2.1280 0.9765
0.5567 -5.5341 -2.1315 0.9765
1.0488 -5.4716 -2.1350 0.9764
1.5341 -5.3652 -2.1384 0.9764
2.0088 -5.2156 -2.1418 0.9763
2.4688 -5.0239 -2.1451 0.9763
3.3301 -4.5196 -2.1514 0.9762
3.7241 -4.2109 -2.1542 0.9762
4.4222 -3.4922 -2.1593 0.9762
4.9808 -2.6579 -2.1635 0.9761
5.2017 -2.2057 -2.1652 0.9761
5.3808 -1.7351 -2.1666 0.9761
5.5166 -1.2499 -2.1676 0.9761
5.6079 -0.7542 -2.1684 0.9761
5.6089 0.7543 -2.1688 0.9760
5.2042 2.2068 -2.1662 0.9761
4.4256 3.4949 -2.1610 0.9761
4.0927 3.8709 -2.1588 0.9762
3.7276 4.2149 -2.1563 0.9762
2.9136 4.7965 -2.1506 0.9762
2.4716 5.0296 -2.1476 0.9763
1.0501 5.4783 -2.1376 0.9764
-0.9217 5.4644 -2.1236 0.9765
-1.4022 5.3520 -2.1202 0.9766
-1.8700 5.1978 -2.1169 0.9766
-2.7537 4.7695 -2.1105 0.9767
-3.1628 4.4991 -2.1075 0.9767
-4.2235 3.4908 -2.0998 0.9768
-4.5128 3.0979 -2.0976 0.9768
-5.1588 1.7913 -2.0928 0.9769
-5.4427 0.3643 -2.0904 0.9769
-5.4530 -0.1215 -2.0902 0.9769
-5.4209 -0.6064 -2.0903 0.9769
-5.2303 -1.5588 -2.0914 0.9769
-5.0732 -2.0191 -2.0924 0.9769
-4.6411 -2.8905 -2.0953 0.9769
-4.0627 -3.6745 -2.0992 0.9768
-3.7236 -4.0259 -2.1015 0.9768
-2.9582 -4.6339 -2.1068 0.9767
-2.5375 -4.8856 -2.1097 0.9767
-2.0957 -5.0995 -2.1128 0.9767
-1.6359 -5.2738 -2.1160 0.9766
-1.1619 -5.4069 -2.1193 0.9766
-0.6771 -5.4977 -2.1228 0.9766
-0.1854 -5.5452 -2.1262 0.9765
0.8034 -5.5084 -2.1332 0.9764
1.2926 -5.4238 -2.1367 0.9764
1.7730 -5.2958 -2.1402 0.9764
2.2408 -5.1250 -2.1435 0.9763
3.9104 -4.0434 -2.1556 0.9762
4.8554 -2.8759 -2.1626 0.9761
5.0964 -2.4343 -2.1644 0.9761
5.4542 -1.4941 -2.1671 0.9761
5.5679 -1.0031 -2.1681 0.9761
5.2720 0.4711 -2.1663 0.9774
5.1027 1.3978 -2.1653 0.9774
4.5444 2.6917 -2.1617 0.9774
3.6617 3.7861 -2.1557 0.9775
3.3064 4.0924 -2.1533 0.9775
2.9254 4.3651 -2.1506 0.9775
2.5220 4.6021 -2.1478 0.9776
2.0995 4.8018 -2.1449 0.9776
1.6614 4.9625 -2.1418 0.9776
1.2114 5.0831 -2.1387 0.9777
0.2900 5.2015 -2.1322 0.9777
-1.0895 5.0699 -2.1224 0.9778
-1.9653 4.7823 -2.1161 0.9779
-2.7744 4.3460 -2.1103 0.9780
-3.1462 4.0766 -2.1076 0.9780
-3.4923 3.7759 -2.1050 0.9780
-4.3527 2.7109 -2.0987 0.9781
-2.1365 0.4343 -0.8923 0.9906
-2.1261 0.2378 -0.8756 0.9908
-2.1285 0.0474 -0.8714 0.9908
-2.1302 -0.1426 -0.8738 0.9908
-2.1308 -0.5330 -0.8989 0.9906
-4.4648 -2.5118 -2.0966 0.9781
-4.2267 -2.9015 -2.0982 0.9781
-3.9551 -3.2690 -2.1001 0.9781
-3.6520 -3.6116 -2.1021 0.9780
-3.3197 -3.9265 -2.1044 0.9780
-2.9605 -4.2114 -2.1069 0.9780
-2.5772 -4.4638 -2.1095 0.9780
-2.1725 -4.6817 -2.1124 0.9779
-0.8622 -5.1114 -2.1215 0.9778
0.0579 -5.1992 -2.1280 0.9778
0.9819 -5.1223 -2.1346 0.9777
2.3105 -4.7017 -2.1441 0.9776
2.7236 -4.4836 -2.1471 0.9776
3.4843 -3.9398 -2.1526 0.9775
4.6589 -2.4861 -2.1613 0.9774
5.2455 0.7055 -2.1662 0.9774
5.0344 1.6234 -2.1649 0.9774
4.8675 2.0640 -2.1638 0.9774
4.4183 2.8903 -2.1608 0.9774
4.1399 3.2692 -2.1590 0.9775
3.4874 3.9433 -2.1545 0.9775
3.1189 4.2330 -2.1520 0.9775
2.7263 4.4882 -2.1492 0.9776
2.3130 4.7067 -2.1464 0.9776
1.8822 4.8870 -2.1434 0.9776
1.4377 5.0279 -2.1402 0.9777
0.9830 5.1282 -2.1371 0.9777
0.0580 5.2053 -2.1305 0.9778
-0.4049 5.1818 -2.1272 0.9778
-0.8632 5.1173 -2.1240 0.9778
-1.3132 5.0126 -2.1208 0.9779
-2.1748 4.6866 -2.1146 0.9779
-2.9633 4.2154 -2.1089 0.9780
-3.9580 3.2714 -2.1016 0.9781
-4.2294 2.9033 -2.0996 0.9781
-4.4673 2.5132 -2.0978 0.9781
-4.8356 1.6791 -2.0950 0.9781
-2.1308 0.5329 -0.8989 0.9906
-2.1345 0.3356 -0.8843 0.9907
-2.1302 0.1426 -0.8738 0.9908
-2.1285 -0.0474 -0.8714 0.9908
-2.1261 -0.2378 -0.8756 0.9908
-2.1365 -0.4343 -0.8923 0.9906
-4.7554 -1.8926 -2.0947 0.9781
-4.5707 -2.3097 -2.0959 0.9781
-4.3500 -2.7092 -2.0974 0.9781
-4.0950 -3.0882 -2.0991 0.9781
-3.1433 -4.0729 -2.1056 0.9780
-2.7717 -4.3418 -2.1082 0.9780
-2.3773 -4.5772 -2.1109 0.9780
-0.1736 -5.1926 -2.1264 0.9778
0.2897 -5.1955 -2.1297 0.9778
0.7521 -5.1570 -2.1330 0.9777
1.6596 -4.9569 -2.1394 0.9777
2.9226 -4.3608 -2.1485 0.9776
3.3034 -4.0886 -2.1513 0.9775
3.9852 -3.4461 -2.1563 0.9775
4.5417 -2.6901 -2.1604 0.9774
4.7668 -2.2769 -2.1621 0.9774
5.1011 -1.3973 -2.1647 0.9774
5.2073 -0.9381 -2.1655 0.9774
5.2715 -0.4711 -2.1661 0.9774
4.8860 0.8803 -2.1637 0.9786
4.7869 1.3113 -2.1631 0.9786
4.2637 2.5254 -2.1597 0.9786
3.7422 3.2361 -2.1561 0.9786
3.4360 3.5528 -2.1540 0.9787
3.1029 3.8405 -2.1518 0.9787
2.3672 4.3195 -2.1467 0.9787
0.7070 4.8476 -2.1350 0.9789
-0.1632 4.8821 -2.1289 0.9789
-1.4411 4.6455 -2.1198 0.9790
-1.8463 4.4927 -2.1169 0.9790
-2.6068 4.0835 -2.1114 0.9791
-2.9564 3.8307 -2.1088 0.9791
-3.8514 2.9044 -2.1023 0.9792
-4.2985 2.1721 -2.0989 0.9792
-4.4719 1.7798 -2.0976 0.9792
-1.9300 0.3923 -0.8583 0.9914
-1.9479 -0.1304 -0.8508 0.9915
-1.9397 -0.3050 -0.8557 0.9915
-3.9727 -2.7271 -2.1001 0.9792
-3.7173 -3.0724 -2.1018 0.9792
-3.4323 -3.3942 -2.1037 0.9792
-3.1197 -3.6900 -2.1059 0.9791
-2.7820 -3.9574 -2.1082 0.9791
-2.4216 -4.1943 -2.1107 0.9791
-1.2322 -4.7034 -2.1190 0.9790
-0.8099 -4.8011 -2.1220 0.9790
0.0544 -4.8827 -2.1281 0.9789
0.4895 -4.8655 -2.1312 0.9789
0.9219 -4.8095 -2.1342 0.9789
1.3482 -4.7151 -2.1373 0.9788
2.1688 -4.4135 -2.1432 0.9788
2.5564 -4.2084 -2.1460 0.9787
4.3711 -2.3325 -2.1593 0.9786
4.5645 -1.9355 -2.1607 0.9786
4.7213 -1.5224 -2.1619 0.9786
4.8401 -1.0966 -2.1629 0.9786
4.9201 -0.6617 -2.1636 0.9786
4.9603 -0.2212 -2.1639 0.9786
4.9606 0.2212 -2.1640 0.9786
4.5665 1.9363 -2.1617 0.9786
4.1454 2.7118 -2.1589 0.9786
3.8844 3.0675 -2.1571 0.9786
2.9271 3.9726 -2.1505 0.9787
1.3497 4.7201 -2.1396 0.9788
0.9229 4.8147 -2.1366 0.9788
0.4900 4.8708 -2.1335 0.9789
0.0545 4.8880 -2.1304 0.9789
-0.8107 4.8063 -2.1243 0.9790
-2.0432 4.4030 -2.1154 0.9790
-2.7844 3.9609 -2.1101 0.9791
-3.1223 3.6931 -2.1076 0.9791
-3.4349 3.3968 -2.1053 0.9791
-3.7199 3.0746 -2.1033 0.9792
-1.9080 0.4772 -0.8571 0.9915
-1.9397 0.3050 -0.8557 0.9915
-1.9479 0.1304 -0.8508 0.9915
-1.9470 -0.0434 -0.8487 0.9915
-1.9433 -0.2174 -0.8522 0.9915
-3.8488 -2.9026 -2.1009 0.9792
-3.2793 -3.5455 -2.1048 0.9791
-2.9538 -3.8274 -2.1070 0.9791
-2.6044 -4.0798 -2.1094 0.9791
-2.2337 -4.3006 -2.1120 0.9791
-1.8444 -4.4881 -2.1147 0.9791
-1.4396 -4.6407 -2.1176 0.9790
0.2720 -4.8789 -2.1296 0.9789
1.1361 -4.7671 -2.1358 0.9788
1.5580 -4.6536 -2.1388 0.9788
1.9688 -4.5027 -2.1417 0.9788
2.3649 -4.3153 -2.1446 0.9788
2.7430 -4.0929 -2.1473 0.9787
3.1002 -3.8371 -2.1499 0.9787
3.4333 -3.5500 -2.1523 0.9787
3.7395 -3.2337 -2.1546 0.9787
4.0163 -2.8908 -2.1566 0.9786
4.2612 -2.5239 -2.1584 0.9786
4.4723 -2.1362 -2.1600 0.9786
4.6475 -1.7308 -2.1614 0.9786
4.7855 -1.3109 -2.1624 0.9786
4.6706 0.0000 -2.1619 0.9796
4.3735 1.6287 -2.1602 0.9796
4.2090 2.0105 -2.1592 0.9796
4.0110 2.3757 -2.1578 0.9797
3.5208 3.0445 -2.1545 0.9797
2.9196 3.6136 -2.1504 0.9797
2.5836 3.8550 -2.1481 0.9798
1.8548 4.2419 -2.1430 0.9798
0.6656 4.5634 -2.1347 0.9799
0.2564 4.5983 -2.1318 0.9799
-0.1537 4.5966 -2.1289 0.9799
-0.5614 4.5584 -2.1260 0.9800
-1.3571 4.3750 -2.1203 0.9800
-1.7389 4.2313 -2.1176 0.9800
-2.4556 3.8466 -2.1124 0.9801
-3.3738 3.0514 -2.1057 0.9801
-3.6288 2.7366 -2.1038 0.9802
-3.8549 2.4009 -2.1021 0.9802
-4.0504 2.0468 -2.1007 0.9802
-1.5924 0.4746 -0.7692 0.9927
-1.6373 0.3328 -0.7734 0.9927
-1.6675 0.1865 -0.7767 0.9926
-1.6716 0.0373 -0.7739 0.9927
-1.6738 -0.1120 -0.7765 0.9926
-4.1346 -1.8629 -2.0991 0.9802
-3.2338 -3.1979 -2.1052 0.9802
-2.6208 -3.7281 -2.1094 0.9801
-1.5482 -4.3032 -2.1169 0.9800
-1.1605 -4.4296 -2.1196 0.9800
-0.7626 -4.5212 -2.1224 0.9800
-0.3577 -4.5773 -2.1252 0.9800
0.8679 -4.5276 -2.1339 0.9799
1.2691 -4.4384 -2.1368 0.9799
1.6613 -4.3135 -2.1396 0.9798
2.4058 -3.9604 -2.1450 0.9798
2.7519 -3.7350 -2.1475 0.9798
3.0768 -3.4790 -2.1498 0.9797
4.1121 -2.1943 -2.1575 0.9797
4.2938 -1.8207 -2.1588 0.9797
4.5529 -1.0316 -2.1609 0.9796
4.6279 -0.6224 -2.1615 0.9796
4.6658 -0.2081 -2.1619 0.9796
4.6660 0.2081 -2.1620 0.9796
4.6286 0.6225 -2.1618 0.9796
4.2956 1.8215 -2.1597 0.9796
4.1141 2.1954 -2.1585 0.9797
3.8998 2.5511 -2.1571 0.9797
3.0792 3.4817 -2.1515 0.9797
2.0431 4.1576 -2.1443 0.9798
0.8688 4.5323 -2.1361 0.9799
0.4613 4.5854 -2.1332 0.9799
-0.3580 4.5820 -2.1274 0.9799
-1.1617 4.4340 -2.1217 0.9800
-1.5497 4.3073 -2.1189 0.9800
-1.9244 4.1470 -2.1162 0.9801
-2.2831 3.9545 -2.1136 0.9801
-2.9414 3.4791 -2.1089 0.9801
-3.2361 3.2003 -2.1067 0.9801
-3.5048 2.8968 -2.1047 0.9802
-3.7456 2.5712 -2.1030 0.9802
-3.9566 2.2259 -2.1014 0.9802
-1.6165 0.4043 -0.7713 0.9927
-1.6521 0.2598 -0.7741 0.9927
-1.6738 0.1120 -0.7765 0.9926
-1.6716 -0.0373 -0.7739 0.9927
-1.6675 -0.1865 -0.7767 0.9926
-1.5258 -0.6072 -0.7601 0.9928
-3.8528 -2.3995 -2.1010 0.9802
-3.6266 -2.7349 -2.1025 0.9802
-3.3715 -3.0494 -2.1043 0.9802
-2.7828 -3.6057 -2.1083 0.9801
-2.4534 -3.8432 -2.1106 0.9801
-2.1040 -4.0510 -2.1130 0.9801
-1.3558 -4.3707 -2.1182 0.9800
-0.9627 -4.4798 -2.1210 0.9800
-0.5609 -4.5538 -2.1238 0.9800
-0.1535 -4.5918 -2.1267 0.9800
0.2561 -4.5935 -2.1296 0.9799
1.8530 -4.2379 -2.1410 0.9798
2.2256 -4.0612 -2.1437 0.9798
2.9172 -3.6107 -2.1487 0.9797
3.2304 -3.3403 -2.1509 0.9797
3.5184 -3.0424 -2.1531 0.9797
4.0088 -2.3744 -2.1567 0.9797
4.3719 -1.6281 -2.1594 0.9796
4.5950 -0.8278 -2.1612 0.9796
4.6515 -0.4157 -2.1617 0.9796
4.3860 0.3919 -2.1600 0.9806
4.3332 0.7807 -2.1597 0.9806
3.9687 1.8957 -2.1574 0.9806
3.5652 2.5661 -2.1547 0.9806
3.3201 2.8710 -2.1531 0.9806
3.0488 3.1524 -2.1512 0.9807
2.1012 3.8342 -2.1447 0.9807
1.7496 4.0014 -2.1422 0.9807
1.3848 4.1363 -2.1397 0.9808
1.0100 4.2379 -2.1370 0.9808
-0.5298 4.3019 -2.1261 0.9809
-1.6414 3.9941 -2.1182 0.9809
-2.6294 3.4070 -2.1111 0.9810
-2.9193 3.1563 -2.1089 0.9810
-3.8251 1.9329 -2.1022 0.9811
-1.3059 0.5197 -0.6895 0.9938
-1.3047 0.2652 -0.6531 0.9941
-1.3419 0.1501 -0.6624 0.9940
-1.3513 -0.0905 -0.6643 0.9940
-1.3257 -0.2085 -0.6583 0.9940
-1.3149 -0.3289 -0.6649 0.9940
-3.5350 -2.4266 -2.1032 0.9811
-3.3074 -2.7337 -2.1048 0.9811
-3.0535 -3.0196 -2.1065 0.9810
-2.1535 -3.7300 -2.1127 0.9810
-1.4614 -4.0620 -2.1175 0.9810
-1.0954 -4.1810 -2.1201 0.9809
-0.3376 -4.3198 -2.1254 0.9809
0.4348 -4.3223 -2.1309 0.9808
0.8189 -4.2720 -2.1336 0.9808
1.1974 -4.1874 -2.1363 0.9808
1.9255 -3.9183 -2.1416 0.9807
2.2693 -3.7357 -2.1440 0.9807
2.9019 -3.2812 -2.1486 0.9807
3.1854 -3.0128 -2.1507 0.9807
3.6753 -2.4043 -2.1543 0.9806
4.0487 -1.7168 -2.1571 0.9806
4.1875 -1.3503 -2.1582 0.9806
4.3634 -0.5868 -2.1596 0.9806
4.3990 -0.1962 -2.1600 0.9806
4.3992 0.1962 -2.1601 0.9806
4.3640 0.5869 -2.1599 0.9806
4.1887 1.3507 -2.1589 0.9806
3.8793 2.0700 -2.1568 0.9806
3.6773 2.4056 -2.1555 0.9806
3.4461 2.7214 -2.1539 0.9806
3.1876 3.0148 -2.1522 0.9806
2.9040 3.2836 -2.1502 0.9807
2.5977 3.5256 -2.1481 0.9807
1.1985 4.1914 -2.1384 0.9808
0.0484 4.3425 -2.1302 0.9808
-0.3379 4.3240 -2.1275 0.9809
-0.7205 4.2713 -2.1248 0.9809
-1.8166 3.9147 -2.1169 0.9810
-2.1553 3.7332 -2.1145 0.9810
-2.7772 3.2848 -2.1100 0.9810
-3.0556 3.0217 -2.1079 0.9810
-3.3094 2.7353 -2.1061 0.9811
-3.5369 2.4280 -2.1044 0.9811
-3.7364 2.1020 -2.1029 0.9811
-1.2865 0.5797 -0.6922 0.9937
-1.3149 0.3289 -0.6649 0.9940
-1.3257 0.2084 -0.6583 0.9940
-1.3536 -0.0302 -0.6641 0.9940
-1.3419 -0.1501 -0.6624 0.9940
-3.6384 -2.2660 -2.1026 0.9811
-2.9172 -3.1541 -2.1074 0.9810
-2.3163 -3.6285 -2.1116 0.9810
-1.9863 -3.8244 -2.1139 0.9810
-1.6399 -3.9905 -2.1163 0.9810
-0.9086 -4.2283 -2.1214 0.9809
0.6273 -4.3014 -2.1323 0.9808
1.0090 -4.2339 -2.1350 0.9808
1.3836 -4.1325 -2.1377 0.9808
1.7480 -3.9978 -2.1403 0.9807
2.0994 -3.8309 -2.1428 0.9807
2.4348 -3.6329 -2.1452 0.9807
3.0466 -3.1502 -2.1497 0.9807
3.5632 -2.5646 -2.1535 0.9806
4.3856 -0.3919 -2.1598 0.9806
4.0939 0.7376 -2.1580 0.9814
4.0111 1.0988 -2.1575 0.9814
3.8961 1.4509 -2.1568 0.9814
3.1374 2.7130 -2.1517 0.9815
2.8811 2.9790 -2.1500 0.9815
1.9859 3.6239 -2.1438 0.9816
0.9547 4.0063 -2.1366 0.9816
0.2287 4.1022 -2.1315 0.9817
-1.2114 3.9053 -2.1212 0.9817
-1.5524 3.7776 -2.1188 0.9818
-2.4873 3.2229 -2.1120 0.9818
-2.7617 2.9859 -2.1100 0.9818
-3.4442 2.1451 -2.1050 0.9819
-1.1333 0.2303 -0.5999 0.9948
-1.1649 0.1303 -0.6081 0.9947
-1.1275 -0.2820 -0.6029 0.9948
-1.1198 -0.3889 -0.6150 0.9947
-1.0898 -0.4910 -0.6201 0.9946
-3.5336 -1.9880 -2.1034 0.9819
-3.1292 -2.5863 -2.1061 0.9819
-2.8888 -2.8568 -2.1077 0.9819
-2.3407 -3.3297 -2.1115 0.9818
-1.0360 -3.9542 -2.1206 0.9817
-0.6807 -4.0354 -2.1231 0.9817
-0.3192 -4.0849 -2.1256 0.9817
0.0457 -4.1021 -2.1282 0.9817
0.7742 -4.0388 -2.1334 0.9816
1.8201 -3.7037 -2.1409 0.9816
2.1448 -3.5309 -2.1432 0.9816
2.7424 -3.1009 -2.1475 0.9815
3.0103 -2.8471 -2.1495 0.9815
3.8254 -1.6221 -2.1556 0.9815
3.9564 -1.2758 -2.1566 0.9814
4.0558 -0.9189 -2.1574 0.9814
4.1225 -0.5544 -2.1579 0.9814
4.1563 0.1853 -2.1583 0.9814
4.0566 0.9191 -2.1578 0.9814
3.4747 2.2730 -2.1540 0.9815
3.0122 2.8489 -2.1509 0.9815
2.7443 3.1031 -2.1490 0.9815
1.8216 3.7068 -2.1427 0.9816
1.4828 3.8500 -2.1403 0.9816
1.1329 3.9621 -2.1378 0.9816
0.7749 4.0424 -2.1353 0.9816
0.4115 4.0904 -2.1328 0.9816
-0.3195 4.0887 -2.1276 0.9817
-1.0369 3.9577 -2.1225 0.9817
-1.3834 3.8452 -2.1200 0.9818
-1.7182 3.7026 -2.1176 0.9818
-2.0387 3.5311 -2.1153 0.9818
-2.6272 3.1074 -2.1110 0.9818
-3.1310 2.5879 -2.1073 0.9819
-3.3464 2.2972 -2.1057 0.9819
-1.1275 0.2820 -0.6029 0.9948
-1.1517 0.1811 -0.6048 0.9948
-1.1785 -0.0263 -0.6115 0.9947
-1.1333 -0.2303 -0.5999 0.9948
-1.1266 -0.3358 -0.6099 0.9947
-1.1070 -0.4406 -0.6181 0.9946
-1.0665 -0.5390 -0.6199 0.9946
-3.2401 -2.4435 -2.1053 0.9819
-2.7599 -2.9839 -2.1086 0.9819
-2.1911 -3.4323 -2.1125 0.9818
-1.5511 -3.7744 -2.1170 0.9818
-1.2104 -3.9018 -2.1194 0.9818
-0.8593 -3.9987 -2.1218 0.9817
0.2285 -4.0985 -2.1295 0.9817
1.6523 -3.7790 -2.1397 0.9816
1.9843 -3.6210 -2.1421 0.9816
2.3012 -3.4336 -2.1443 0.9815
2.6003 -3.2184 -2.1465 0.9815
3.1354 -2.7113 -2.1504 0.9815
3.7483 -1.7904 -2.1550 0.9815
3.8948 -1.4504 -2.1561 0.9814
4.0932 -0.7374 -2.1577 0.9814
4.1435 -0.3703 -2.1581 0.9814
2.0356 0.1819 -1.1193 0.9907
1.9715 0.7342 -1.1522 0.9905
3.5494 1.6954 -2.1544 0.9822
3.3827 2.0036 -2.1533 0.9822
2.7275 2.8202 -2.1489 0.9823
2.4636 3.0492 -2.1470 0.9823
2.1804 3.2534 -2.1451 0.9823
1.8804 3.4312 -2.1430 0.9823
0.5622 3.8551 -2.1338 0.9824
-0.4746 3.8533 -2.1264 0.9824
-0.8147 3.7915 -2.1240 0.9825
-1.1477 3.6998 -2.1216 0.9825
-1.7816 3.4303 -2.1171 0.9825
-2.0778 3.2548 -2.1149 0.9825
-2.3570 3.0540 -2.1129 0.9826
-2.6171 2.8296 -2.1110 0.9826
-2.8562 2.5832 -2.1093 0.9826
-3.0724 2.3170 -2.1077 0.9826
-3.2642 2.0330 -2.1062 0.9826
-0.9364 0.4732 -0.5746 0.9952
-0.9825 0.2928 -0.5615 0.9953
-1.0000 0.2032 -0.5589 0.9954
-1.0376 -0.0695 -0.5696 0.9953
-1.0166 -0.1599 -0.5637 0.9953
-0.9756 -0.3388 -0.5656 0.9953
-0.9472 -0.4268 -0.5690 0.9953
-2.9656 -2.4512 -2.1073 0.9826
-2.7377 -2.7074 -2.1088 0.9826
-1.9302 -3.3433 -2.1144 0.9825
-0.9814 -3.7461 -2.1210 0.9825
-0.6448 -3.8229 -2.1234 0.9825
0.0433 -3.8855 -2.1282 0.9824
0.3894 -3.8707 -2.1307 0.9824
0.7332 -3.8251 -2.1331 0.9824
1.4029 -3.6426 -2.1379 0.9824
1.7234 -3.5071 -2.1402 0.9823
2.3226 -3.1523 -2.1446 0.9823
2.5964 -2.9358 -2.1466 0.9823
3.0809 -2.4329 -2.1501 0.9823
3.2875 -2.1506 -2.1516 0.9822
1.9407 -0.8229 -1.1546 0.9904
1.9895 -0.6415 -1.1449 0.9905
2.0042 -0.4541 -1.1255 0.9907
2.0226 -0.2720 -1.1178 0.9907
2.0434 -0.0911 -1.1203 0.9907
2.0226 0.2720 -1.1178 0.9907
2.0042 0.4541 -1.1255 0.9907
1.9895 0.6415 -1.1449 0.9905
3.4695 1.8514 -2.1539 0.9822
3.2891 2.1516 -2.1527 0.9822
3.0825 2.4343 -2.1513 0.9822
2.8516 2.6970 -2.1497 0.9823
0.7338 3.8284 -2.1350 0.9824
0.3897 3.8741 -2.1326 0.9824
-0.6454 3.8262 -2.1252 0.9825
-0.9823 3.7493 -2.1228 0.9825
-1.6279 3.5081 -2.1182 0.9825
-2.9673 2.4525 -2.1084 0.9826
-0.9472 0.4268 -0.5690 0.9953
-1.0166 0.1599 -0.5637 0.9953
-1.0376 0.0695 -0.5696 0.9953
-1.0415 -0.0232 -0.5706 0.9953
-1.0293 -0.1151 -0.5673 0.9953
-1.0000 -0.2033 -0.5589 0.9954
-0.9825 -0.2928 -0.5615 0.9953
-0.9638 -0.3836 -0.5681 0.9953
-0.9364 -0.4732 -0.5746 0.9952
-3.2628 -2.0321 -2.1053 0.9826
-3.0708 -2.3158 -2.1066 0.9826
-2.0763 -3.2524 -2.1134 0.9826
-0.8140 -3.7882 -2.1222 0.9825
-0.4742 -3.8500 -2.1246 0.9825
-0.1298 -3.8813 -2.1270 0.9824
0.2165 -3.8820 -2.1295 0.9824
0.5618 -3.8517 -2.1319 0.9824
1.2386 -3.6995 -2.1368 0.9824
2.7258 -2.8184 -2.1475 0.9823
2.9683 -2.5668 -2.1493 0.9823
3.5480 -1.6948 -2.1536 0.9822
2.0004 -0.5480 -1.1360 0.9906
2.0356 -0.1819 -1.1193 0.9907
1.8426 0.3320 -1.0810 0.9914
1.8267 0.5004 -1.0935 0.9913
1.7869 0.6655 -1.1009 0.9912
3.0236 2.1762 -2.1508 0.9829
2.8160 2.4351 -2.1494 0.9830
2.5862 2.6741 -2.1478 0.9830
2.0677 3.0852 -2.1442 0.9830
1.7832 3.2540 -2.1423 0.9830
1.4851 3.3964 -2.1402 0.9830
1.1757 3.5116 -2.1380 0.9830
0.5333 3.6567 -2.1335 0.9831
-0.1232 3.6853 -2.1289 0.9831
-1.0889 3.5104 -2.1220 0.9832
-1.6906 3.2551 -2.1177 0.9832
-1.9717 3.0887 -2.1156 0.9832
-2.2368 2.8983 -2.1137 0.9832
-2.7108 2.4518 -2.1103 0.9833
-2.9162 2.1992 -2.1087 0.9833
-0.8491 0.5288 -0.5776 0.9954
-0.8760 0.4426 -0.5667 0.9955
-0.9237 0.1033 -0.5366 0.9957
-0.9306 0.0207 -0.5374 0.9957
-0.9274 -0.0621 -0.5366 0.9957
-0.9189 -0.1445 -0.5370 0.9957
-0.9030 -0.2258 -0.5374 0.9957
-0.8638 -0.4860 -0.5722 0.9954
-3.0088 -2.0654 -2.1071 0.9833
-2.8148 -2.3265 -2.1084 0.9833
-2.5984 -2.5696 -2.1098 0.9833
-1.8318 -3.1727 -2.1151 0.9832
-1.2426 -3.4539 -2.1192 0.9832
-0.9312 -3.5544 -2.1214 0.9832
-0.6118 -3.6271 -2.1237 0.9832
-0.2869 -3.6711 -2.1260 0.9831
0.6955 -3.6283 -2.1329 0.9831
1.0167 -3.5558 -2.1352 0.9831
1.3306 -3.4548 -2.1375 0.9830
1.9259 -3.1705 -2.1417 0.9830
2.2025 -2.9893 -2.1437 0.9830
2.9212 -2.3068 -2.1490 0.9830
3.1170 -2.0390 -2.1505 0.9829
1.8108 -0.5839 -1.0985 0.9913
1.8755 -0.0836 -1.0839 0.9914
1.8108 0.5839 -1.0985 0.9913
1.7564 0.7448 -1.1014 0.9912
3.1184 2.0400 -2.1514 0.9829
2.9227 2.3080 -2.1501 0.9829
2.7038 2.5572 -2.1486 0.9830
2.4636 2.7856 -2.1470 0.9830
2.2040 2.9913 -2.1452 0.9830
1.3316 3.4575 -2.1391 0.9830
0.6961 3.6312 -2.1347 0.9831
0.0411 3.6891 -2.1300 0.9831
-0.6123 3.6300 -2.1254 0.9831
-1.8331 3.1750 -2.1166 0.9832
-2.1064 2.9964 -2.1147 0.9832
-2.3627 2.7946 -2.1128 0.9832
-2.8163 2.3277 -2.1095 0.9833
-0.8638 0.4859 -0.5722 0.9954
-0.8858 0.3991 -0.5609 0.9955
-0.8932 -0.3555 -0.5550 0.9956
-0.8491 -0.5289 -0.5776 0.9954
-2.4823 -2.6838 -2.1106 0.9833
-1.9704 -3.0865 -2.1142 0.9832
-1.6894 -3.2527 -2.1161 0.9832
-1.3945 -3.3934 -2.1182 0.9832
-1.0881 -3.5076 -2.1203 0.9832
0.2053 -3.6826 -2.1294 0.9831
0.8569 -3.5956 -2.1341 0.9831
1.4839 -3.3939 -2.1386 0.9830
2.0662 -3.0830 -2.1428 0.9830
2.8145 -2.4338 -2.1482 0.9830
3.2057 -1.8987 -2.1511 0.9829
1.7194 -0.8213 -1.1001 0.9912
1.8426 -0.3320 -1.0810 0.9914
1.8700 -0.1671 -1.0839 0.9914
