ply
format ascii 1.0
element vertex 571
property float32 x
property float32 y
property float32 z
property float32 I
end_header
18.9760 0.0000 -5.3720 0.9241
18.6753 3.3645 -5.3720 0.9241
18.3017 5.0134 -5.3720 0.9241
17.7829 6.6224 -5.3720 0.9241
14.3537 12.4121 -5.3720 0.9241
12.8336 13.2698 -5.2260 0.9261
-14.7208 11.1015 -5.2196 0.9262
-16.9364 8.5584 -5.3720 0.9241
-17.6310 7.0170 -5.3720 0.9241
-18.8584 2.1096 -5.3720 0.9241
-18.9713 0.4228 -5.3720 0.9241
-18.9336 -1.2675 -5.3720 0.9241
-18.7457 -2.9476 -5.3720 0.9241
-18.4089 -4.6044 -5.3720 0.9241
-17.8595 -6.2015 -5.3520 0.9244
-16.8101 -7.5742 -5.2196 0.9262
17.9819 -4.0742 -5.2196 0.9262
18.9571 -0.8453 -5.3720 0.9241
18.8067 2.5293 -5.3720 0.9241
18.5069 4.1931 -5.3720 0.9241
18.0602 5.8237 -5.3720 0.9241
17.4703 7.4080 -5.3720 0.9241
14.8924 11.7604 -5.3720 0.9241
13.7865 13.0392 -5.3720 0.9241
-15.2008 10.4347 -5.2196 0.9262
-17.9260 6.2246 -5.3720 0.9241
-18.9336 1.2675 -5.3720 0.9241
-18.9713 -0.4228 -5.3720 0.9241
-18.8584 -2.1096 -5.3720 0.9241
-18.5958 -3.7797 -5.3720 0.9241
-18.1855 -5.4199 -5.3720 0.9241
-16.4560 -8.3156 -5.2196 0.9262
18.7273 -1.6735 -5.3227 0.9248
17.3960 1.5545 -5.3720 0.9295
17.1886 3.0967 -5.3720 0.9295
16.3672 6.0952 -5.3720 0.9295
15.7598 7.5278 -5.3720 0.9295
13.2110 11.4240 -5.3720 0.9295
12.1343 12.5467 -5.3686 0.9296
-14.8252 9.2332 -5.3720 0.9295
-17.1154 3.4789 -5.3720 0.9295
-17.3571 1.9417 -5.3720 0.9295
-17.4264 -1.1666 -5.3720 0.9295
-16.4990 -5.7291 -5.3720 0.9295
-15.4718 -6.9713 -5.2196 0.9314
-14.7900 -8.3207 -5.2196 0.9314
16.1509 -5.2080 -5.2196 0.9314
16.5504 -3.7498 -5.2196 0.9314
17.2871 -2.3249 -5.3650 0.9296
17.4480 -0.7780 -5.3720 0.9295
17.3095 2.3279 -5.3720 0.9295
17.0336 3.8593 -5.3720 0.9295
15.4088 8.2224 -5.3720 0.9295
14.6158 9.5612 -5.3720 0.9295
13.7068 10.8241 -5.3720 0.9295
11.2422 12.7118 -5.2196 0.9314
-14.1530 9.7155 -5.2801 0.9307
-15.2218 8.5636 -5.3720 0.9295
-15.9236 7.1748 -5.3720 0.9295
-16.4990 5.7291 -5.3720 0.9295
-17.4264 1.1666 -5.3720 0.9295
-17.4610 -0.3891 -5.3720 0.9295
-17.3571 -1.9417 -5.3720 0.9295
-17.1154 -3.4788 -5.3720 0.9295
-16.7378 -4.9884 -5.3720 0.9295
-15.1459 -7.6536 -5.2196 0.9314
16.3669 -4.4834 -5.2196 0.9314
17.3960 -1.5545 -5.3720 0.9295
15.9048 2.8654 -5.3720 0.9341
13.9048 8.2359 -5.3720 0.9341
12.2243 10.5708 -5.3720 0.9341
11.2349 11.6168 -5.3720 0.9341
9.8682 12.2141 -5.2196 0.9360
8.7420 13.0439 -5.2196 0.9360
-10.6620 11.5277 -5.2196 0.9360
-11.6457 10.5329 -5.2196 0.9360
-12.8643 9.7014 -5.3558 0.9343
-15.0154 5.9760 -5.3720 0.9341
-15.4877 4.6158 -5.3720 0.9341
-16.0607 1.7967 -5.3720 0.9341
-16.1569 0.3601 -5.3720 0.9341
-16.1248 -1.0794 -5.3720 0.9341
-15.6779 -3.9213 -5.3720 0.9341
-15.2667 -5.3012 -5.3720 0.9341
-14.3163 -6.4506 -5.2196 0.9360
-13.6853 -7.6992 -5.2196 0.9360
15.3143 -3.4698 -5.2196 0.9360
16.1448 0.7199 -5.3720 0.9341
15.7614 3.5711 -5.3720 0.9341
14.2579 7.6083 -5.3720 0.9341
12.6831 10.0157 -5.3720 0.9341
11.7413 11.1048 -5.3720 0.9341
9.3144 12.6415 -5.2196 0.9360
-11.1650 11.0413 -5.2196 0.9360
-12.1034 10.0037 -5.2196 0.9360
-13.3237 9.1462 -5.3720 0.9341
-14.0849 7.9240 -5.3720 0.9341
-15.2667 5.3012 -5.3720 0.9341
-15.6779 3.9213 -5.3720 0.9341
-15.9647 2.5103 -5.3720 0.9341
-16.1248 1.0794 -5.3720 0.9341
-16.1569 -0.3600 -5.3720 0.9341
-15.4877 -4.6158 -5.3720 0.9341
-13.3287 -8.3012 -5.2196 0.9360
15.1445 -4.1485 -5.2196 0.9360
15.8882 -2.8624 -5.3663 0.9342
14.7840 2.6635 -5.3720 0.9382
14.4882 3.9687 -5.3720 0.9382
12.9249 7.6555 -5.3720 0.9382
11.3628 9.8258 -5.3720 0.9382
10.4432 10.7982 -5.3720 0.9382
9.2941 11.5035 -5.2886 0.9391
8.1259 12.1247 -5.2196 0.9399
-8.9176 11.5548 -5.2196 0.9399
-12.7512 7.9415 -5.3720 0.9382
-14.3962 4.2905 -5.3720 0.9382
-14.7210 2.9922 -5.3720 0.9382
-14.9289 1.6700 -5.3720 0.9382
-14.5731 -3.6450 -5.3720 0.9382
-13.6780 -6.1630 -5.3650 0.9383
-12.0334 -8.2604 -5.2196 0.9399
13.4376 -5.6980 -5.2196 0.9399
14.6374 -3.3164 -5.3671 0.9382
14.8879 -2.0023 -5.3720 0.9382
15.0071 -0.6692 -5.3720 0.9382
10.9138 10.3222 -5.3720 0.9382
9.9518 11.2526 -5.3720 0.9382
8.6579 11.7506 -5.2196 0.9399
7.5777 12.4746 -5.2196 0.9399
-9.4235 11.1461 -5.2196 0.9399
-11.5675 9.5608 -5.3667 0.9382
-13.0923 7.3656 -5.3720 0.9382
-13.6959 6.1711 -5.3720 0.9382
-14.1908 4.9276 -5.3720 0.9382
-14.9289 -1.6700 -5.3720 0.9382
-14.7210 -2.9922 -5.3720 0.9382
-14.3962 -4.2905 -5.3720 0.9382
-13.9572 -5.5548 -5.3720 0.9382
13.1705 -6.2910 -5.2196 0.9399
13.6781 -5.0938 -5.2196 0.9399
13.5200 3.7035 -5.3720 0.9417
13.1367 4.8922 -5.3720 0.9417
10.6034 9.1691 -5.3720 0.9417
9.7452 10.0765 -5.3720 0.9417
8.8076 10.9013 -5.3707 0.9417
7.5828 11.3144 -5.2196 0.9433
5.4566 12.4796 -5.2196 0.9433
-8.3216 10.7826 -5.2196 0.9433
-11.1922 8.4404 -5.3720 0.9417
-13.4341 4.0038 -5.3720 0.9417
-13.9867 -0.9363 -5.3720 0.9417
-13.8479 -2.1775 -5.3720 0.9417
-13.5991 -3.4014 -5.3720 0.9417
-13.2424 -4.5983 -5.3720 0.9417
-12.7802 -5.7585 -5.3718 0.9417
12.0166 -6.4122 -5.2196 0.9433
12.5396 -5.3172 -5.2196 0.9433
12.9631 -4.1801 -5.2196 0.9433
13.6715 3.0976 -5.3720 0.9417
12.9057 5.4725 -5.3720 0.9417
12.3674 6.5994 -5.3720 0.9417
11.7309 7.6740 -5.3720 0.9417
10.1844 9.6324 -5.3720 0.9417
9.2867 10.5006 -5.3720 0.9417
7.0713 11.6409 -5.2196 0.9433
-6.8102 11.7956 -5.2196 0.9433
-7.8330 11.1426 -5.2196 0.9433
-8.7937 10.4012 -5.2196 0.9433
-9.8217 9.7129 -5.2935 0.9425
-11.5571 7.9335 -5.3720 0.9417
-12.2173 6.8733 -5.3720 0.9417
-13.8479 2.1775 -5.3720 0.9417
-14.0146 -0.3123 -5.3720 0.9417
-12.2988 -6.2148 -5.2807 0.9427
12.2903 -5.8706 -5.2196 0.9433
13.7959 -2.4855 -5.3720 0.9417
13.9624 -1.2477 -5.3720 0.9417
12.9176 2.3272 -5.3720 0.9448
12.3003 4.5807 -5.3720 0.9448
11.8438 5.6573 -5.3720 0.9448
11.2933 6.6890 -5.3720 0.9448
10.6531 7.6676 -5.3720 0.9448
9.9283 8.5854 -5.3720 0.9448
6.1290 11.1839 -5.2196 0.9464
4.0489 12.0934 -5.2196 0.9464
-4.8476 11.7960 -5.2196 0.9464
-5.8783 11.3177 -5.2196 0.9464
-6.8623 10.7496 -5.2196 0.9464
-7.7918 10.0961 -5.2196 0.9464
-8.9018 9.6245 -5.3656 0.9449
-9.7346 8.8044 -5.3720 0.9448
-11.7148 5.9198 -5.3720 0.9448
-12.1952 4.8536 -5.3720 0.9448
-2.1365 0.4343 -0.8923 0.9906
-2.1261 0.2378 -0.8756 0.9908
-2.1285 0.0474 -0.8714 0.9908
-12.3993 -4.3055 -5.3720 0.9448
-11.9669 -5.3920 -5.3720 0.9448
12.4828 -4.0252 -5.3679 0.9449
13.0085 -1.7495 -5.3720 0.9448
13.1125 0.5847 -5.3720 0.9448
12.8011 2.9004 -5.3720 0.9448
12.4922 4.0282 -5.3720 0.9448
12.0841 5.1241 -5.3720 0.9448
11.5800 6.1793 -5.3720 0.9448
10.9841 7.1854 -5.3720 0.9448
10.3009 8.1346 -5.3720 0.9448
9.5360 9.0191 -5.3720 0.9448
6.6211 10.8998 -5.2196 0.9464
5.6247 11.4459 -5.2196 0.9464
-6.3766 11.0446 -5.2196 0.9464
-8.2338 9.7390 -5.2196 0.9464
-9.3327 9.2293 -5.3720 0.9448
-10.1172 8.3621 -5.3720 0.9448
-10.8213 7.4284 -5.3720 0.9448
-11.4395 6.4358 -5.3720 0.9448
-11.9669 5.3920 -5.3720 0.9448
-2.1345 0.3356 -0.8843 0.9907
-2.1285 -0.0474 -0.8714 0.9908
-2.1261 -0.2378 -0.8756 0.9908
-10.1823 -7.6788 -5.2196 0.9464
10.9729 -6.4993 -5.2196 0.9464
13.0735 -1.1682 -5.3720 0.9448
12.1309 2.1855 -5.3720 0.9476
11.5512 4.3017 -5.3720 0.9476
11.1225 5.3128 -5.3720 0.9476
10.6055 6.2816 -5.3720 0.9476
10.0043 7.2007 -5.3720 0.9476
9.3237 8.0625 -5.3720 0.9476
8.5691 8.8604 -5.3720 0.9476
5.7557 10.5028 -5.2196 0.9491
4.7980 10.9734 -5.2196 0.9491
1.7284 11.8511 -5.2196 0.9491
-2.5162 11.7092 -5.2196 0.9491
-4.5524 11.0776 -5.2196 0.9491
-7.4890 9.7038 -5.3421 0.9479
-9.8414 7.4218 -5.3720 0.9476
-10.4629 6.5164 -5.3720 0.9476
-11.0014 5.5592 -5.3720 0.9476
-11.4525 4.5580 -5.3720 0.9476
-1.8741 0.5585 -0.8523 0.9915
-1.9433 0.2174 -0.8522 0.9915
-1.9470 0.0434 -0.8487 0.9915
-1.9080 -0.4772 -0.8571 0.9915
10.0225 -6.5564 -5.2196 0.9491
11.0740 -4.6958 -5.2422 0.9489
11.7314 -3.7829 -5.3720 0.9476
12.3140 0.5491 -5.3720 0.9476
10.8748 5.8030 -5.3720 0.9476
10.3151 6.7478 -5.3720 0.9476
8.1659 9.2333 -5.3720 0.9476
5.2821 10.7488 -5.2196 0.9491
4.3045 11.1763 -5.2196 0.9491
3.2926 11.5150 -5.2196 0.9491
2.2547 11.7624 -5.2196 0.9491
1.1988 11.9164 -5.2196 0.9491
-3.0353 11.5855 -5.2196 0.9491
-4.0544 11.2694 -5.2196 0.9491
-7.9542 9.4083 -5.3693 0.9477
-9.5010 7.8528 -5.3720 0.9476
-10.1622 6.9760 -5.3720 0.9476
-11.2381 5.0636 -5.3720 0.9476
-1.9080 0.4772 -0.8571 0.9915
-1.9470 -0.0434 -0.8487 0.9915
-1.9300 -0.3923 -0.8583 0.9914
-1.8741 -0.5585 -0.8523 0.9915
-11.4525 -4.5580 -5.3720 0.9476
-11.0014 -5.5592 -5.3720 0.9476
-10.1661 -6.3315 -5.2196 0.9491
-9.5622 -7.2112 -5.2196 0.9491
10.3046 -6.1035 -5.2196 0.9491
11.8882 -3.2565 -5.3720 0.9476
11.6054 0.0000 -5.3720 0.9501
11.5594 1.0329 -5.3720 0.9501
11.4215 2.0577 -5.3720 0.9501
9.4193 6.7796 -5.3720 0.9501
8.7785 7.5910 -5.3720 0.9501
8.0680 8.3422 -5.3720 0.9501
7.2935 9.0272 -5.3720 0.9501
5.5722 10.1679 -5.3670 0.9502
4.5175 10.3317 -5.2196 0.9515
2.6140 10.9690 -5.2196 0.9515
-0.3768 11.2699 -5.2196 0.9515
-1.3784 11.1916 -5.2196 0.9515
-3.3409 10.7699 -5.2196 0.9515
-5.1975 10.0069 -5.2196 0.9515
-6.1961 9.7060 -5.3302 0.9505
-7.8801 8.5199 -5.3720 0.9501
-8.6072 7.7847 -5.3720 0.9501
-9.2659 6.9877 -5.3720 0.9501
-10.3580 5.2342 -5.3720 0.9501
-1.5257 0.6072 -0.7601 0.9928
-1.5924 0.4746 -0.7692 0.9927
-1.6716 0.0373 -0.7739 0.9927
-1.6738 -0.1120 -0.7765 0.9926
-1.6521 -0.2598 -0.7741 0.9927
-1.6165 -0.4043 -0.7713 0.9927
-1.5621 -0.5424 -0.7654 0.9927
-10.1146 -5.6904 -5.3720 0.9501
-9.2965 -6.3817 -5.2196 0.9515
-8.0178 -7.9289 -5.2196 0.9515
9.4364 -6.1730 -5.2196 0.9515
11.3185 -2.5645 -5.3720 0.9501
11.5939 -0.5170 -5.3720 0.9501
11.5939 0.5170 -5.3720 0.9501
11.3185 2.5644 -5.3720 0.9501
11.0454 3.5617 -5.3720 0.9501
9.1079 7.1925 -5.3720 0.9501
8.4316 7.9746 -5.3720 0.9501
6.8841 9.3432 -5.3720 0.9501
6.0252 9.9188 -5.3720 0.9501
3.1001 10.8417 -5.2196 0.9515
2.1228 11.0746 -5.2196 0.9515
0.1256 11.2755 -5.2196 0.9515
-2.8578 10.9080 -5.2196 0.9515
-5.6381 9.7654 -5.2196 0.9515
-10.1146 5.6904 -5.3720 0.9501
-10.5809 4.7675 -5.3720 0.9501
-1.5621 0.5424 -0.7654 0.9927
-1.6165 0.4043 -0.7713 0.9927
-1.6738 0.1120 -0.7765 0.9926
-9.0030 -6.7895 -5.2196 0.9515
-7.6566 -8.2782 -5.2196 0.9515
9.1521 -6.5873 -5.2196 0.9515
9.7020 -5.7465 -5.2196 0.9515
10.8757 -4.0502 -5.3720 0.9501
11.1931 -3.0661 -5.3720 0.9501
11.5594 -1.0329 -5.3720 0.9501
10.9515 0.0000 -5.3720 0.9524
10.9080 0.9747 -5.3720 0.9524
8.2839 7.1633 -5.3720 0.9524
7.6134 7.8722 -5.3720 0.9524
6.8825 8.5186 -5.3720 0.9524
6.0970 9.0974 -5.3720 0.9524
5.2631 9.6039 -5.3720 0.9524
1.5357 10.5294 -5.2196 0.9537
0.5924 10.6243 -5.2196 0.9537
-2.2355 10.4033 -5.2196 0.9537
-4.0447 9.8421 -5.2196 0.9537
-5.8928 9.2309 -5.3720 0.9524
-8.1222 7.3461 -5.3720 0.9524
-8.7438 6.5940 -5.3720 0.9524
-9.2960 5.7896 -5.3720 0.9524
-1.3200 0.3934 -0.6756 0.9939
-1.3047 0.2652 -0.6531 0.9941
-1.3536 0.0302 -0.6641 0.9940
-1.3513 -0.0905 -0.6643 0.9940
-1.3149 -0.3289 -0.6649 0.9940
-1.2865 -0.5797 -0.6922 0.9937
-9.5447 -5.3698 -5.3720 0.9524
-7.5660 -7.4822 -5.2196 0.9537
-6.8700 -8.1259 -5.2196 0.9537
8.3509 -6.5946 -5.2196 0.9537
9.5293 -5.0850 -5.2982 0.9530
10.4230 -3.3610 -5.3720 0.9524
10.6808 -2.4200 -5.3720 0.9524
10.8538 1.4597 -5.3720 0.9524
10.6808 2.4200 -5.3720 0.9524
10.0825 4.2753 -5.3720 0.9524
9.6620 5.1558 -5.3720 0.9524
7.9565 7.5252 -5.3720 0.9524
7.2552 8.2035 -5.3720 0.9524
6.4962 8.8167 -5.3720 0.9524
5.6857 9.3599 -5.3720 0.9524
4.8284 9.8254 -5.3701 0.9524
3.8584 10.0180 -5.2659 0.9533
2.9254 10.2308 -5.2196 0.9537
2.0032 10.4506 -5.2196 0.9537
1.0651 10.5874 -5.2196 0.9537
0.1185 10.6402 -5.2196 0.9537
-1.7699 10.4926 -5.2196 0.9537
-2.6968 10.2934 -5.2196 0.9537
-4.5104 9.7197 -5.2561 0.9534
-7.0706 8.3631 -5.3720 0.9524
-7.7869 7.7006 -5.3720 0.9524
-9.5447 5.3698 -5.3720 0.9524
-1.2865 0.5797 -0.6922 0.9937
-1.3171 0.4573 -0.6839 0.9938
-1.3257 0.2085 -0.6583 0.9940
-1.3536 -0.0302 -0.6641 0.9940
-1.3047 -0.2652 -0.6531 0.9941
-1.3200 -0.3934 -0.6756 0.9939
-7.2252 -7.8118 -5.2196 0.9537
7.3974 -7.6489 -5.2196 0.9537
8.0488 -6.9601 -5.2196 0.9537
10.2629 -3.8220 -5.3720 0.9524
10.5624 -2.8933 -5.3720 0.9524
9.7040 3.6138 -5.3720 0.9544
9.3438 4.4631 -5.3720 0.9544
8.4044 6.0491 -5.3720 0.9544
7.1987 7.4434 -5.3720 0.9544
6.5077 8.0546 -5.3720 0.9544
4.1484 9.4877 -5.3720 0.9544
2.3434 9.8334 -5.2442 0.9555
0.5601 10.0457 -5.2196 0.9557
-1.2299 9.9858 -5.2196 0.9557
-3.0139 9.7158 -5.2773 0.9552
-6.3266 8.1976 -5.3720 0.9544
-7.6798 6.9460 -5.3720 0.9544
-8.2676 6.2349 -5.3720 0.9544
-1.1266 0.3358 -0.6099 0.9947
-1.1649 0.1303 -0.6081 0.9947
-1.1785 0.0263 -0.6115 0.9947
-1.1275 -0.2820 -0.6029 0.9948
-1.1198 -0.3888 -0.6150 0.9947
-1.0898 -0.4910 -0.6201 0.9946
-9.0248 -5.0773 -5.3720 0.9544
-8.5342 -5.8584 -5.3701 0.9544
-7.1539 -7.0746 -5.2196 0.9557
-5.7862 -8.2310 -5.2196 0.9557
7.3097 -6.9135 -5.2196 0.9557
7.8961 -6.2355 -5.2196 0.9557
9.1311 -4.8725 -5.3692 0.9544
9.5333 -4.0425 -5.3720 0.9544
10.0990 2.2881 -5.3720 0.9544
9.1357 4.8750 -5.3720 0.9544
8.6656 5.6687 -5.3720 0.9544
8.1266 6.4175 -5.3720 0.9544
6.8600 7.7567 -5.3720 0.9544
5.3760 8.8501 -5.3720 0.9544
3.7201 9.6590 -5.3697 0.9544
1.8941 9.8814 -5.2196 0.9557
1.0071 10.0107 -5.2196 0.9557
-0.7838 10.0307 -5.2196 0.9557
-3.4907 9.7024 -5.3493 0.9546
-5.1775 8.9677 -5.3720 0.9544
-5.9551 8.4713 -5.3720 0.9544
-7.9816 6.5970 -5.3720 0.9544
-8.5371 5.8604 -5.3720 0.9544
-9.0248 5.0773 -5.3720 0.9544
-1.1275 0.2820 -0.6029 0.9948
-1.1649 -0.1303 -0.6081 0.9947
-1.1333 -0.2303 -0.5999 0.9948
-1.0665 -0.5389 -0.6199 0.9946
-8.2254 -6.2031 -5.3446 0.9546
6.3230 -7.8261 -5.2196 0.9557
8.1660 -5.8775 -5.2196 0.9557
8.8417 -5.2369 -5.3311 0.9547
9.3438 -4.4632 -5.3720 0.9544
9.7040 -3.6138 -5.3720 0.9544
9.9871 -2.7358 -5.3720 0.9544
10.3139 -0.9217 -5.3720 0.9544
2.0356 0.1819 -1.1193 0.9907
2.0004 0.5480 -1.1360 0.9906
8.4390 4.9984 -5.3720 0.9563
6.8186 7.0503 -5.3720 0.9563
6.1640 7.6293 -5.3720 0.9563
5.4605 8.1476 -5.3720 0.9563
3.9294 8.9867 -5.3720 0.9563
3.1139 9.3007 -5.3720 0.9563
2.2724 9.5355 -5.3689 0.9563
1.4137 9.6932 -5.3652 0.9563
-0.3246 9.7078 -5.3200 0.9567
-3.7282 9.0720 -5.3720 0.9563
-4.5208 8.7042 -5.3720 0.9563
-7.8310 5.9056 -5.3720 0.9563
-8.3255 5.1852 -5.3720 0.9563
-0.9638 0.3836 -0.5681 0.9953
-1.0000 0.2033 -0.5589 0.9954
-1.0293 0.1151 -0.5673 0.9953
-1.0376 -0.0695 -0.5696 0.9953
-1.0166 -0.1599 -0.5637 0.9953
-0.9847 -0.2463 -0.5559 0.9954
-0.9472 -0.4268 -0.5690 0.9953
-0.9240 -0.5198 -0.5806 0.9952
-8.0863 -5.5509 -5.3720 0.9563
-7.5073 -6.2050 -5.3345 0.9566
-5.4806 -7.7963 -5.2196 0.9575
6.3134 -7.1387 -5.2196 0.9575
6.9237 -6.5484 -5.2196 0.9575
7.4791 -5.9062 -5.2196 0.9575
8.1965 -5.3619 -5.3645 0.9563
8.6532 -4.6175 -5.3720 0.9563
1.9407 -0.8229 -1.1546 0.9904
2.0042 -0.4541 -1.1255 0.9907
2.0226 -0.2720 -1.1178 0.9907
2.0434 -0.0911 -1.1203 0.9907
2.0042 0.4541 -1.1255 0.9907
1.9407 0.8229 -1.1546 0.9904
8.6533 4.6175 -5.3720 0.9563
6.4977 7.3471 -5.3720 0.9563
5.8180 7.8963 -5.3720 0.9563
5.0921 8.3828 -5.3720 0.9563
2.6962 9.4292 -5.3714 0.9563
0.9781 9.7229 -5.3522 0.9564
-1.6293 9.6591 -5.3650 0.9563
-2.4839 9.4810 -5.3681 0.9563
-3.3203 9.2291 -5.3720 0.9563
-4.1286 8.8969 -5.3720 0.9563
-4.9041 8.4941 -5.3720 0.9563
-6.3324 7.4900 -5.3720 0.9563
-7.5601 6.2486 -5.3720 0.9563
-0.9472 0.4268 -0.5690 0.9953
-1.0376 0.0695 -0.5696 0.9953
-1.0415 -0.0232 -0.5706 0.9953
-1.0293 -0.1151 -0.5673 0.9953
-1.0000 -0.2033 -0.5589 0.9954
-0.9825 -0.2928 -0.5615 0.9953
-0.9638 -0.3836 -0.5681 0.9953
-0.9364 -0.4732 -0.5746 0.9952
-8.3255 -5.1852 -5.3720 0.9563
-7.8272 -5.9028 -5.3694 0.9563
-6.4709 -6.9962 -5.2196 0.9575
5.3056 -7.9165 -5.2196 0.9575
5.9891 -7.4128 -5.2196 0.9575
6.6251 -6.8503 -5.2196 0.9575
7.2085 -6.2335 -5.2196 0.9575
7.7347 -5.5671 -5.2196 0.9575
1.9715 -0.7342 -1.1522 0.9905
1.8426 0.3320 -1.0810 0.9914
1.7869 0.6655 -1.1009 0.9912
8.0056 4.7417 -5.3720 0.9579
7.5518 5.4355 -5.3720 0.9579
7.0381 6.0860 -5.3720 0.9579
6.4684 6.6883 -5.3720 0.9579
5.1801 7.7292 -5.3720 0.9579
4.4716 8.1596 -5.3720 0.9579
3.7276 8.5252 -5.3720 0.9579
1.3428 9.2071 -5.3720 0.9579
0.5180 9.2891 -5.3714 0.9579
-0.3109 9.2979 -5.3712 0.9579
-1.1374 9.2348 -5.3720 0.9579
-3.5367 8.6062 -5.3720 0.9579
-5.6848 7.3660 -5.3720 0.9579
-6.3178 6.8308 -5.3720 0.9579
-6.9007 6.2413 -5.3720 0.9579
-7.4288 5.6024 -5.3720 0.9579
-0.8932 0.3555 -0.5550 0.9956
-0.9012 0.2686 -0.5429 0.9957
-0.9237 0.1033 -0.5366 0.9957
-0.9274 -0.0621 -0.5366 0.9957
-0.9030 -0.2259 -0.5374 0.9957
-0.8858 -0.3991 -0.5609 0.9955
-0.8638 -0.4859 -0.5722 0.9954
-7.6710 -5.2659 -5.3720 0.9579
-7.1680 -5.9245 -5.3690 0.9580
4.6936 -7.7267 -5.2196 0.9591
7.1008 -5.6075 -5.2238 0.9591
1.6861 -0.8997 -1.1034 0.9912
1.8108 -0.5839 -1.0985 0.9913
1.8316 -0.4150 -1.0843 0.9914
1.8592 -0.2500 -1.0831 0.9914
1.8755 -0.0836 -1.0839 0.9914
1.8316 0.4150 -1.0843 0.9914
1.8108 0.5839 -1.0985 0.9913
1.7564 0.7448 -1.1014 0.9912
1.6860 0.8997 -1.1034 0.9912
7.7864 5.0937 -5.3720 0.9579
7.3022 5.7665 -5.3720 0.9579
6.7600 6.3935 -5.3720 0.9579
3.3441 8.6828 -5.3720 0.9579
2.5580 8.9460 -5.3720 0.9579
0.9313 9.2578 -5.3720 0.9579
-3.1498 8.7552 -5.3720 0.9579
-3.9166 8.4400 -5.3720 0.9579
-0.8638 0.4860 -0.5722 0.9954
-0.8984 0.3119 -0.5490 0.9956
-0.9189 0.1445 -0.5370 0.9957
-0.9274 0.0621 -0.5366 0.9957
-0.9237 -0.1033 -0.5366 0.9957
-0.9120 -0.1854 -0.5373 0.9957
-0.9012 -0.2686 -0.5429 0.9957
-0.8760 -0.4426 -0.5667 0.9955
-0.8491 -0.5288 -0.5776 0.9954
-7.4289 -5.6024 -5.3720 0.9579
-6.8594 -6.2040 -5.3398 0.9582
-6.1386 -6.6370 -5.2196 0.9591
-5.5235 -7.1570 -5.2196 0.9591
-3.4364 -8.3620 -5.2196 0.9591
5.0331 -7.5100 -5.2196 0.9591
1.7869 -0.6654 -1.1009 0.9912
