ply
format ascii 1.0
element vertex 1369
property float32 x
property float32 y
property float32 z
property float32 I
end_header
-14.9990 11.3113 -1.8036 0.9273
-19.0113 5.6660 -1.9045 0.9234
-19.3598 3.9351 -1.8966 0.9237
-19.5645 2.1886 -1.8900 0.9239
-19.5445 -1.3083 -1.8806 0.9243
-18.9602 -4.7423 -1.8763 0.9245
-15.4374 10.5972 -1.7977 0.9275
-17.2503 9.7049 -1.9002 0.9235
-19.2035 4.8031 -1.9004 0.9235
-19.4801 3.0631 -1.8932 0.9238
-19.6130 1.3129 -1.8872 0.9240
-19.6029 -0.4368 -1.8824 0.9242
-19.4508 -2.1759 -1.8790 0.9244
-19.1584 -3.8941 -1.8769 0.9244
-18.7279 -5.5815 -1.8761 0.9245
-16.1712 -8.1716 -1.7395 0.9298
18.5084 3.3345 -2.2339 0.9270
18.1486 4.9715 -2.2352 0.9270
17.6322 6.5663 -2.2350 0.9270
16.9645 8.1033 -2.2332 0.9271
16.1525 9.5671 -2.2300 0.9272
15.2048 10.9437 -2.2253 0.9273
14.1315 12.2200 -2.2192 0.9275
-11.4429 10.3495 -1.8327 0.9397
-12.8746 9.7092 -1.9155 0.9371
-13.9906 8.7134 -1.9578 0.9358
-14.6397 7.3978 -1.9484 0.9361
-15.1735 6.0389 -1.9399 0.9363
-15.5898 4.6462 -1.9323 0.9366
-15.8873 3.2293 -1.9258 0.9368
-16.0654 1.7972 -1.9202 0.9370
-16.1239 0.3593 -1.9158 0.9371
-13.8030 -6.2193 -1.7984 0.9408
18.7062 -0.8341 -2.2242 0.9273
18.6285 2.5053 -2.2327 0.9271
17.9097 5.7752 -2.2353 0.9270
17.3169 7.3430 -2.2343 0.9270
14.6831 11.5952 -2.2224 0.9274
-11.0028 10.8809 -1.8381 0.9396
-13.6130 9.3448 -1.9614 0.9357
-15.7535 3.9402 -1.9289 0.9367
-15.9913 2.5145 -1.9229 0.9369
-16.1096 1.0784 -1.9179 0.9370
-15.7514 -3.2016 -1.9093 0.9373
-15.3986 -4.5893 -1.9086 0.9373
-12.6603 -7.8849 -1.7717 0.9417
16.5850 -4.5431 -2.0426 0.9331
16.9872 -3.0604 -2.0503 0.9328
18.5678 -1.6592 -2.2144 0.9277
15.3066 2.7576 -2.2037 0.9391
15.0075 4.1110 -2.2047 0.9391
14.0305 6.7018 -2.2031 0.9391
13.3623 7.9145 -2.2005 0.9392
11.7002 10.1176 -2.1917 0.9394
10.7234 11.0880 -2.1856 0.9396
9.2946 11.5041 -2.0955 0.9420
6.7888 12.3880 -2.0015 0.9445
-6.1297 11.8018 -1.8843 0.9477
-8.0351 10.4114 -1.8634 0.9483
-10.4112 9.4164 -1.9890 0.9449
-11.1701 8.4238 -1.9823 0.9450
-12.8409 5.1106 -1.9582 0.9457
-13.2011 3.9344 -1.9518 0.9459
-13.4601 2.7359 -1.9461 0.9460
-13.6714 0.3047 -1.9376 0.9463
-13.4746 -2.1188 -1.9327 0.9464
-13.2254 -3.3079 -1.9316 0.9464
-12.8779 -4.4717 -1.9315 0.9464
-12.4343 -5.6026 -1.9324 0.9464
-11.0629 -6.2239 -1.7985 0.9500
-9.7756 -8.0798 -1.7970 0.9501
13.0491 -5.5333 -2.0083 0.9443
13.5409 -4.3664 -2.0159 0.9441
14.9241 -3.3814 -2.1682 0.9401
15.3225 -2.0607 -2.1906 0.9395
15.5103 0.6916 -2.1998 0.9392
15.1732 3.4378 -2.2044 0.9391
14.8099 4.7756 -2.2048 0.9391
13.7107 7.3163 -2.2019 0.9391
12.1539 9.5978 -2.1943 0.9394
11.2230 10.6147 -2.1888 0.9395
10.1917 11.5239 -2.1798 0.9397
-6.6305 11.4843 -1.8789 0.9478
-10.8090 8.9339 -1.9869 0.9449
-12.1140 6.8152 -1.9694 0.9454
-13.3433 3.3374 -1.9488 0.9459
-13.6570 0.9142 -1.9394 0.9462
-13.3624 -2.7160 -1.9320 0.9464
-13.0638 -3.8934 -1.9315 0.9464
-12.1388 -6.1340 -1.9271 0.9465
13.3085 -4.9561 -2.0122 0.9442
13.8713 -3.7998 -2.0378 0.9436
15.4183 -1.3778 -2.1933 0.9394
13.2173 0.0000 -2.1774 0.9478
13.1825 1.1780 -2.1803 0.9478
13.0368 2.3487 -2.1823 0.9477
12.7812 3.5011 -2.1831 0.9477
10.7221 7.7173 -2.1763 0.9479
9.9733 8.6242 -2.1721 0.9480
9.1445 9.4553 -2.1670 0.9481
7.2155 10.7663 -2.1351 0.9488
5.7986 10.5810 -1.9877 0.9523
1.7121 11.7388 -1.9543 0.9530
0.6573 11.7882 -1.9450 0.9533
-3.4286 11.0527 -1.9064 0.9542
-5.2808 10.1673 -1.8874 0.9546
-6.2069 9.7230 -1.9003 0.9543
-7.4613 9.6679 -2.0118 0.9517
-8.2829 8.9554 -2.0096 0.9518
-9.0079 8.1472 -2.0009 0.9520
-9.6576 7.2831 -1.9927 0.9521
-11.1205 4.4259 -1.9717 0.9526
-11.4375 3.4087 -1.9661 0.9528
-11.6663 2.3713 -1.9612 0.9529
-11.8061 1.3207 -1.9571 0.9530
-11.8564 0.2642 -1.9537 0.9531
-11.8174 -0.7911 -1.9512 0.9531
-11.6897 -1.8381 -1.9494 0.9532
-9.0716 -6.2273 -1.8127 0.9564
-8.4761 -7.0057 -1.8116 0.9564
-7.8349 -7.7481 -1.8153 0.9563
10.0508 -6.5749 -1.9786 0.9525
10.6375 -5.6763 -1.9863 0.9523
12.8223 -2.9052 -2.1659 0.9481
13.1930 -0.5883 -2.1756 0.9479
12.9226 2.9279 -2.1828 0.9477
12.1970 5.1720 -2.1825 0.9477
11.6790 6.2321 -2.1808 0.9477
9.5684 9.0497 -2.1696 0.9480
7.7645 10.5381 -2.1564 0.9483
6.4127 10.5567 -2.0348 0.9512
2.2385 11.6780 -1.9589 0.9529
0.1312 11.7771 -1.9403 0.9534
-0.9130 11.6839 -1.9307 0.9536
-1.9395 11.4982 -1.9210 0.9538
-2.9403 11.2229 -1.9112 0.9541
-3.9077 10.8615 -1.9016 0.9543
-7.8884 9.3304 -2.0128 0.9517
-9.3424 7.7217 -1.9967 0.9521
-10.4830 5.8976 -1.9815 0.9524
-11.5630 2.8921 -1.9636 0.9528
-11.7646 -1.3161 -1.9502 0.9531
-10.9905 -4.3741 -1.9487 0.9532
-9.9571 -6.2013 -1.9324 0.9536
-8.1635 -7.3834 -1.8133 0.9564
-7.4907 -8.0988 -1.8174 0.9563
9.7279 -7.0017 -1.9745 0.9526
11.9105 -4.4355 -2.0938 0.9498
12.6628 -3.4687 -2.1629 0.9482
13.1412 -1.1743 -2.1735 0.9479
11.5027 0.0000 -2.1621 0.9543
11.4705 1.0250 -2.1646 0.9542
9.3318 6.7166 -2.1611 0.9543
8.6823 7.5079 -2.1575 0.9544
7.1813 8.8885 -2.1478 0.9546
5.4549 9.9539 -2.1335 0.9549
4.4170 10.1019 -2.0723 0.9561
3.3313 9.9500 -1.9722 0.9582
2.4126 10.1236 -1.9561 0.9585
-0.3434 10.2723 -1.9319 0.9590
-1.2509 10.1564 -1.9234 0.9592
-2.1404 9.9606 -1.9149 0.9594
-3.0169 9.7257 -1.9140 0.9594
-5.8174 9.1127 -2.0321 0.9570
-7.9227 7.1657 -2.0079 0.9575
-8.4983 6.4089 -2.0007 0.9576
-9.0046 5.6081 -1.9939 0.9577
-9.4386 4.7695 -1.9877 0.9579
-9.7980 3.8995 -1.9821 0.9580
-10.0807 3.0044 -1.9771 0.9581
-10.4250 -0.6979 -1.9639 0.9584
-10.1239 -2.5322 -1.9615 0.9584
-9.1045 -5.1221 -1.9635 0.9584
-8.6104 -5.9107 -1.9630 0.9584
-6.2858 -7.4349 -1.8300 0.9611
6.8615 -7.7585 -1.9468 0.9587
8.1930 -6.4699 -1.9622 0.9584
8.7682 -5.7359 -1.9694 0.9583
10.4791 -4.4435 -2.1394 0.9547
10.8701 -3.5052 -2.1468 0.9546
11.3717 -1.5294 -2.1567 0.9544
11.4829 -0.5120 -2.1605 0.9543
11.4184 1.5356 -2.1655 0.9542
11.2426 2.5473 -2.1667 0.9542
10.6115 4.4997 -2.1665 0.9542
10.1619 5.4226 -2.1650 0.9542
9.0162 7.1200 -2.1594 0.9543
7.5796 8.5704 -2.1505 0.9545
6.7692 9.1873 -2.1450 0.9546
5.9074 9.7249 -2.1387 0.9547
4.9860 10.1463 -2.1249 0.9550
3.8584 10.0182 -2.0179 0.9572
2.8667 10.0255 -1.9599 0.9584
1.0354 10.2921 -1.9443 0.9588
0.1147 10.2996 -1.9361 0.9589
-1.6983 10.0683 -1.9192 0.9593
-3.4969 9.7197 -1.9416 0.9588
-4.5036 9.7050 -2.0110 0.9574
-5.4117 9.3733 -2.0344 0.9569
-8.7603 6.0136 -1.9972 0.9577
-9.2308 5.1932 -1.9908 0.9578
-10.3582 1.6287 -1.9709 0.9582
-10.4444 0.6992 -1.9675 0.9583
-10.4513 -0.2329 -1.9649 0.9583
-10.2283 -2.0790 -1.9618 0.9584
-10.0004 -2.9804 -1.9614 0.9584
-9.6969 -3.8593 -1.9617 0.9584
-9.3199 -4.7095 -1.9627 0.9584
-8.2259 -6.2035 -1.9365 0.9589
-7.1985 -6.5107 -1.8244 0.9613
-5.2588 -8.2377 -1.8370 0.9610
7.8816 -6.8155 -1.9585 0.9585
8.4888 -6.1098 -1.9659 0.9583
9.0307 -5.3489 -1.9728 0.9582
10.6886 -3.9805 -2.1438 0.9546
11.2808 -2.0323 -2.1545 0.9544
10.1421 0.9063 -2.1524 0.9592
8.2526 5.9399 -2.1493 0.9593
7.0453 7.2848 -2.1422 0.9594
4.8350 8.8228 -2.1266 0.9597
4.0186 9.1908 -2.1204 0.9598
3.1737 9.4794 -2.1131 0.9600
1.4211 9.7436 -2.0814 0.9605
0.5415 9.7116 -2.0560 0.9610
-1.1947 9.7001 -2.0659 0.9608
-2.0495 9.5378 -2.0621 0.9609
-4.4545 8.5764 -2.0428 0.9613
-5.1804 8.1149 -2.0351 0.9614
-8.4253 4.2575 -1.9954 0.9621
-9.1886 1.8677 -1.9820 0.9624
-9.3177 -0.6237 -1.9740 0.9625
-9.2187 -1.4496 -1.9726 0.9626
-8.1376 -4.5782 -1.9737 0.9625
-7.2013 -5.9520 -1.9748 0.9625
-6.2886 -6.2189 -1.8695 0.9645
-3.6877 -7.9467 -1.8518 0.9648
-2.9745 -8.2679 -1.8573 0.9647
4.0063 -8.1526 -1.9201 0.9635
4.7345 -7.7940 -1.9276 0.9634
6.0872 -6.8829 -1.9422 0.9631
7.2618 -5.7346 -1.9559 0.9629
8.2135 -5.3730 -2.0747 0.9607
9.6204 -3.1022 -2.1367 0.9595
10.1676 0.4534 -2.1514 0.9592
9.9395 2.2520 -2.1543 0.9592
9.7008 3.1281 -2.1545 0.9592
7.9742 6.2972 -2.1478 0.9593
5.9916 8.1318 -2.1351 0.9595
5.2305 8.6106 -2.1296 0.9596
2.7403 9.5833 -2.1069 0.9601
0.9783 9.7248 -2.0660 0.9608
-0.7582 9.7024 -2.0571 0.9610
-2.4698 9.4270 -2.0599 0.9609
-4.0759 8.7833 -2.0468 0.9612
-5.5264 7.8614 -2.0313 0.9615
-6.1816 7.3117 -2.0239 0.9616
-7.8158 5.3652 -2.0039 0.9620
-8.2384 4.6349 -1.9981 0.9621
-8.5954 3.8729 -1.9928 0.9622
-8.8848 3.0851 -1.9881 0.9623
-9.1049 2.2773 -1.9839 0.9624
-9.2546 1.4552 -1.9803 0.9624
-9.3333 0.6248 -1.9773 0.9625
-9.2770 -1.0378 -1.9732 0.9626
-9.1430 -1.8584 -1.9722 0.9626
-8.6680 -3.4498 -1.9720 0.9626
-7.4666 -5.6308 -1.9768 0.9625
-6.8577 -6.2025 -1.9545 0.9629
-5.3187 -6.8916 -1.8401 0.9650
-4.6952 -7.3548 -1.8444 0.9650
-4.0324 -7.7637 -1.8492 0.9649
-3.3349 -8.1149 -1.8545 0.9648
5.0867 -7.5900 -1.9313 0.9633
6.3993 -6.6168 -1.9458 0.9631
7.6392 -5.4983 -1.9895 0.9623
9.0862 -4.3401 -2.1285 0.9597
9.4612 -3.5234 -2.1341 0.9596
10.1176 -0.9041 -2.1472 0.9593
9.1082 0.0000 -2.1406 0.9633
9.0804 0.8114 -2.1426 0.9632
8.5505 3.1843 -2.1444 0.9632
7.8419 4.6448 -2.1421 0.9632
6.3109 6.5255 -2.1335 0.9634
5.6942 7.0478 -2.1295 0.9635
5.0333 7.5102 -2.1248 0.9635
4.3343 7.9091 -2.1197 0.9636
3.6036 8.2416 -2.1140 0.9637
2.8476 8.5052 -2.1080 0.9638
2.0729 8.6984 -2.1016 0.9639
0.4946 8.8701 -2.0879 0.9642
-0.2958 8.8486 -2.0808 0.9643
-1.0785 8.7565 -2.0735 0.9644
-1.8470 8.5953 -2.0662 0.9645
-3.3181 8.0742 -2.0516 0.9648
-6.3679 5.7595 -2.0179 0.9653
-6.8354 5.1548 -2.0121 0.9654
-7.2474 4.5137 -2.0066 0.9655
-8.2955 1.6861 -1.9895 0.9658
-8.4000 0.9397 -1.9865 0.9659
-8.4399 0.1881 -1.9841 0.9659
-8.3265 -1.3093 -1.9810 0.9660
-8.1742 -2.0445 -1.9803 0.9660
-7.6841 -3.4623 -1.9808 0.9660
-6.5134 -5.3835 -1.9860 0.9659
-6.0076 -5.9411 -1.9857 0.9659
-3.9414 -6.8267 -1.8526 0.9681
-3.3263 -7.1680 -1.8572 0.9681
-2.6823 -7.4556 -1.8622 0.9680
-2.0138 -7.6867 -1.8675 0.9679
-1.3257 -7.8593 -1.8732 0.9678
-0.6229 -7.9715 -1.8792 0.9677
0.8057 -8.0093 -1.8919 0.9675
1.5207 -7.9335 -1.8985 0.9674
2.2287 -7.7941 -1.9052 0.9672
2.9239 -7.5917 -1.9120 0.9671
3.6007 -7.3273 -1.9188 0.9670
4.2535 -7.0022 -1.9255 0.9669
4.8766 -6.6185 -1.9321 0.9668
7.0122 -5.5375 -2.0999 0.9640
7.5234 -4.9216 -2.1129 0.9637
7.9530 -4.2439 -2.1186 0.9636
8.8505 -2.0053 -2.1328 0.9634
9.0091 -1.2116 -2.1364 0.9633
8.8982 2.0161 -2.1443 0.9632
6.6010 6.2432 -2.1354 0.9634
6.0084 6.7938 -2.1316 0.9634
5.3689 7.2867 -2.1272 0.9635
4.6882 7.7178 -2.1223 0.9636
3.9725 8.0838 -2.1169 0.9637
3.2283 8.3821 -2.1111 0.9638
1.6807 8.7683 -2.0983 0.9640
0.8907 8.8541 -2.0914 0.9641
-0.6885 8.8113 -2.0772 0.9643
-1.4649 8.6844 -2.0699 0.9645
-2.9604 8.2285 -2.0552 0.9647
-3.6681 7.9045 -2.0480 0.9648
-4.3420 7.5205 -2.0409 0.9649
-6.1143 6.0466 -2.0210 0.9653
-7.0485 4.8385 -2.0093 0.9655
-8.3558 1.3139 -1.9879 0.9658
-8.4280 0.5642 -1.9852 0.9659
-8.4357 -0.1880 -1.9831 0.9659
-8.2583 -1.6785 -1.9806 0.9660
-8.0746 -2.4065 -1.9802 0.9660
-7.8293 -3.1160 -1.9805 0.9660
-7.5241 -3.8021 -1.9813 0.9660
-7.1611 -4.4599 -1.9827 0.9659
-6.7426 -5.0848 -1.9848 0.9659
-5.7297 -6.1949 -1.9832 0.9659
-4.2367 -6.6367 -1.8505 0.9682
-3.0076 -7.3187 -1.8596 0.9680
-2.3508 -7.5783 -1.8648 0.9679
-1.6719 -7.7805 -1.8703 0.9678
-0.2676 -8.0045 -1.8823 0.9676
0.4474 -8.0235 -1.8886 0.9675
1.1638 -7.9793 -1.8952 0.9674
2.5782 -7.7008 -1.9086 0.9672
4.5691 -6.8175 -1.9288 0.9668
6.5644 -5.6765 -2.0396 0.9650
7.7458 -4.5879 -2.1158 0.9637
8.1445 -3.8903 -2.1213 0.9636
8.4784 -3.1574 -2.1263 0.9635
8.7441 -2.3953 -2.1308 0.9634
8.9389 -1.6104 -2.1347 0.9634
9.0608 -0.8097 -2.1380 0.9633
8.2117 0.7338 -2.1346 0.9665
7.9578 2.1799 -2.1363 0.9665
7.7319 2.8794 -2.1362 0.9665
7.0919 4.2005 -2.1341 0.9665
6.6837 4.8106 -2.1322 0.9665
6.2214 5.3799 -2.1296 0.9666
5.7095 5.9035 -2.1264 0.9666
5.1524 6.3772 -2.1228 0.9667
4.5554 6.7971 -2.1186 0.9668
1.1658 7.9934 -2.0915 0.9672
0.4484 8.0412 -2.0852 0.9673
-0.2683 8.0242 -2.0788 0.9674
-1.6760 7.7996 -2.0656 0.9676
-3.0129 7.3315 -2.0523 0.9678
-3.6419 7.0119 -2.0458 0.9679
-4.7979 6.2168 -2.0333 0.9681
-5.3166 5.7483 -2.0273 0.9682
-6.2177 4.6890 -2.0163 0.9683
-6.5941 4.1068 -2.0114 0.9684
-7.1864 2.8601 -2.0026 0.9685
-7.3988 2.2051 -1.9989 0.9686
-7.5535 1.5353 -1.9957 0.9687
-7.6869 0.1713 -1.9908 0.9687
-7.5847 -1.1926 -1.9879 0.9688
-7.4461 -1.8624 -1.9873 0.9688
-6.9995 -3.1538 -1.9878 0.9688
-6.6946 -3.7663 -1.9888 0.9688
-5.4791 -5.4184 -1.9952 0.9687
-0.5662 -7.2455 -1.8817 0.9704
0.7319 -7.2754 -1.8932 0.9702
2.0231 -7.0753 -1.9053 0.9701
4.4211 -6.0003 -1.9298 0.9697
5.1972 -5.8765 -2.0312 0.9681
6.3722 -5.0321 -2.1023 0.9670
6.8127 -4.4566 -2.1078 0.9669
7.1999 -3.8420 -2.1130 0.9668
7.8001 -2.5152 -2.1220 0.9667
8.1494 -1.0960 -2.1290 0.9666
8.2250 -0.3667 -2.1317 0.9666
8.2331 0.3671 -2.1338 0.9665
5.9714 5.6477 -2.1281 0.9666
5.4363 6.1469 -2.1247 0.9667
4.8586 6.5941 -2.1207 0.9667
3.5966 7.3188 -2.1114 0.9669
2.2304 7.8001 -2.1005 0.9670
1.5230 7.9451 -2.0946 0.9671
0.8074 8.0254 -2.0884 0.9672
-1.3291 7.8792 -2.0689 0.9675
-2.0186 7.7048 -2.0622 0.9676
-3.3312 7.1786 -2.0490 0.9678
-4.5230 6.4340 -2.0363 0.9680
-6.7626 3.8046 -2.0090 0.9684
-7.0590 3.1806 -2.0047 0.9685
-7.2997 2.5347 -2.0007 0.9686
-7.6089 1.1964 -1.9943 0.9687
-7.6756 0.5138 -1.9918 0.9687
-7.6834 -0.1712 -1.9899 0.9687
-7.6322 -0.8538 -1.9884 0.9688
-7.5226 -1.5290 -1.9876 0.9688
-7.3554 -2.1921 -1.9872 0.9688
-6.1408 -4.6310 -1.9914 0.9687
-5.7110 -5.1653 -1.9938 0.9687
-2.1382 -6.8929 -1.8686 0.9706
-0.8871 -7.2025 -1.8789 0.9705
1.7032 -7.1469 -1.9023 0.9701
2.3401 -6.9894 -1.9084 0.9700
2.9624 -6.7752 -1.9146 0.9699
3.5651 -6.5054 -1.9207 0.9698
4.1430 -6.1817 -1.9268 0.9697
4.7940 -5.9336 -1.9751 0.9690
5.6009 -5.7913 -2.0860 0.9673
6.1323 -5.3028 -2.0991 0.9671
6.5988 -4.7496 -2.1051 0.9670
7.3723 -3.5214 -2.1154 0.9668
8.0866 -1.4569 -2.1275 0.9666
8.1956 -0.7324 -2.1304 0.9666
7.4014 1.3334 -2.1290 0.9692
7.2550 1.9873 -2.1295 0.9692
6.7853 3.2410 -2.1287 0.9692
5.6736 4.9061 -2.1234 0.9693
4.7000 5.8173 -2.1172 0.9694
4.1561 6.2013 -2.1134 0.9694
3.5805 6.5335 -2.1091 0.9695
0.4096 7.3465 -2.0830 0.9699
-0.2452 7.3330 -2.0771 0.9700
-1.5325 7.1316 -2.0650 0.9701
-2.1548 6.9464 -2.0589 0.9702
-2.7564 6.7073 -2.0529 0.9703
-3.3327 6.4167 -2.0469 0.9704
-3.8796 6.0772 -2.0411 0.9705
-4.3929 5.6920 -2.0354 0.9706
-4.8690 5.2643 -2.0300 0.9706
-5.3047 4.7978 -2.0248 0.9707
-6.0429 3.7636 -2.0154 0.9708
-6.7839 2.0218 -2.0039 0.9710
-7.0310 -0.4707 -1.9949 0.9711
-6.9575 -1.0940 -1.9938 0.9711
-6.8306 -1.7084 -1.9933 0.9712
-6.6513 -2.3096 -1.9932 0.9712
-6.4208 -2.8931 -1.9937 0.9711
-5.8132 -3.9905 -1.9961 0.9711
-5.0245 -4.9688 -2.0005 0.9711
-4.5689 -5.4041 -2.0033 0.9710
-2.2406 -6.2278 -1.8737 0.9729
-0.5184 -6.6342 -1.8838 0.9727
0.6698 -6.6581 -1.8944 0.9726
1.2634 -6.5911 -1.8999 0.9725
1.8505 -6.4715 -1.9055 0.9724
3.0037 -6.1124 -1.9280 0.9721
5.3720 -5.0808 -2.0932 0.9697
5.8176 -4.5941 -2.0985 0.9697
7.3033 -1.6547 -2.1199 0.9693
7.4319 -0.9995 -2.1229 0.9693
7.5067 0.3347 -2.1272 0.9692
7.4518 1.0022 -2.1286 0.9692
7.3357 1.6621 -2.1293 0.9692
5.8899 4.6512 -2.1246 0.9693
4.4323 6.0156 -2.1153 0.9694
3.8719 6.3741 -2.1113 0.9695
3.2823 6.6794 -2.1069 0.9695
2.0364 7.1218 -2.0969 0.9697
0.7375 7.3311 -2.0859 0.9698
-1.2151 7.2034 -2.0680 0.9701
-4.1406 5.8902 -2.0382 0.9705
-4.6358 5.4832 -2.0327 0.9706
-5.0921 5.0357 -2.0274 0.9707
-6.4708 2.9156 -2.0092 0.9709
-6.6926 2.3239 -2.0056 0.9710
-6.8619 1.7163 -2.0024 0.9710
-7.0475 -0.1571 -1.9956 0.9711
-7.0010 -0.7832 -1.9943 0.9711
-6.9007 -1.4026 -1.9935 0.9712
-6.7474 -2.0109 -1.9932 0.9712
-6.5423 -2.6038 -1.9934 0.9712
-6.2869 -3.1769 -1.9941 0.9711
-5.9828 -3.7261 -1.9953 0.9711
-5.6322 -4.2474 -1.9970 0.9711
-5.2375 -4.7370 -1.9992 0.9711
-4.8015 -5.1913 -2.0018 0.9710
-4.3271 -5.6067 -2.0049 0.9710
-3.2223 -6.2041 -1.9791 0.9714
-2.5557 -6.2190 -1.9034 0.9724
-1.9590 -6.3151 -1.8718 0.9729
-1.3925 -6.4803 -1.8764 0.9728
-0.8123 -6.5956 -1.8813 0.9728
3.3318 -6.0798 -1.9626 0.9716
4.0242 -6.0045 -2.0463 0.9704
4.6192 -5.7172 -2.0808 0.9699
5.1335 -5.3080 -2.0905 0.9698
5.6002 -4.8427 -2.0959 0.9697
6.4006 -3.7911 -2.1060 0.9695
6.9999 -2.6068 -2.1146 0.9694
7.2167 -1.9769 -2.1183 0.9694
6.7938 1.2240 -2.1233 0.9715
6.4703 2.4096 -2.1236 0.9715
5.9357 3.5157 -2.1219 0.9715
5.5949 4.0269 -2.1203 0.9716
3.8172 5.6957 -2.1089 0.9717
2.1637 6.4627 -2.0962 0.9719
0.9789 6.7121 -2.0863 0.9720
0.3767 6.7554 -2.0811 0.9721
-0.2255 6.7445 -2.0756 0.9722
-0.8227 6.6799 -2.0701 0.9722
-1.4102 6.5624 -2.0645 0.9723
-1.9833 6.3935 -2.0589 0.9724
-3.0689 5.9086 -2.0479 0.9725
-4.4864 4.8507 -2.0323 0.9727
-4.8888 4.4217 -2.0275 0.9728
-5.2513 3.9602 -2.0230 0.9729
-5.5713 3.4698 -2.0188 0.9729
-5.8467 2.9545 -2.0149 0.9730
-6.0758 2.4181 -2.0114 0.9730
-6.2572 1.8648 -2.0082 0.9730
-6.4723 0.7240 -2.0032 0.9731
-6.1374 -2.1311 -1.9983 0.9732
-5.9246 -2.6695 -1.9987 0.9732
-5.6660 -3.1877 -1.9996 0.9732
-5.3634 -3.6818 -2.0010 0.9731
-3.2743 -5.6712 -2.0142 0.9730
-2.7574 -5.9420 -2.0148 0.9730
-2.2180 -6.1651 -2.0152 0.9730
-1.6263 -6.2077 -1.9738 0.9735
-0.4860 -6.2196 -1.9189 0.9742
0.0693 -6.2206 -1.9135 0.9743
0.6251 -6.2133 -1.9207 0.9742
1.1883 -6.1993 -1.9415 0.9739
2.3627 -6.1345 -2.0219 0.9729
3.4971 -5.7570 -2.0718 0.9722
4.4915 -5.0786 -2.0853 0.9720
4.9378 -4.6702 -2.0905 0.9720
6.0358 -3.2208 -2.1043 0.9718
6.7061 -1.5194 -2.1149 0.9716
6.8235 -0.9177 -2.1177 0.9716
6.8910 0.3073 -2.1216 0.9715
6.8403 0.9199 -2.1229 0.9715
6.5715 2.1190 -2.1238 0.9715
6.0882 3.2487 -2.1225 0.9715
4.5533 5.1485 -2.1140 0.9716
4.0706 5.5247 -2.1107 0.9717
3.0155 6.1363 -2.1030 0.9718
1.2785 6.6700 -2.0889 0.9720
-1.1180 6.6277 -2.0673 0.9723
-2.8064 6.0475 -2.0506 0.9725
-3.3247 5.7585 -2.0452 0.9726
-3.8141 5.4256 -2.0399 0.9726
-4.6925 4.6405 -2.0299 0.9728
-5.9672 2.6887 -2.0131 0.9730
-6.1726 2.1433 -2.0097 0.9730
-6.3295 1.5831 -2.0068 0.9731
-6.4949 0.4348 -2.0022 0.9731
-6.5024 -0.1449 -2.0005 0.9731
-6.4598 -0.7226 -1.9993 0.9732
-4.8318 -4.3701 -2.0038 0.9731
-3.9910 -5.1712 -2.0092 0.9730
-2.4900 -6.0592 -2.0149 0.9730
-1.9242 -6.2029 -1.9976 0.9732
-1.3348 -6.2118 -1.9542 0.9738
0.3467 -6.2173 -1.9153 0.9743
0.9055 -6.2085 -1.9298 0.9741
1.4743 -6.1863 -1.9561 0.9737
2.0615 -6.1575 -1.9972 0.9732
2.6716 -6.1102 -2.0512 0.9725
3.7589 -5.6087 -2.0767 0.9721
4.7191 -4.8796 -2.0879 0.9720
6.1792 -2.9516 -2.1063 0.9717
6.4289 -2.3942 -2.1101 0.9717
6.6270 -1.8153 -2.1134 0.9717
6.8614 -0.6131 -2.1188 0.9716
6.3660 0.0000 -2.1161 0.9735
6.2718 1.1299 -2.1183 0.9735
6.1475 1.6840 -2.1188 0.9735
5.9730 2.2244 -2.1187 0.9735
5.7498 2.7465 -2.1181 0.9735
5.1655 3.7179 -2.1156 0.9735
3.0383 5.5443 -2.1015 0.9737
1.4568 6.1132 -2.0890 0.9739
0.3483 6.2459 -2.0794 0.9740
-1.3046 6.0711 -2.0641 0.9742
-1.8352 5.9160 -2.0589 0.9742
-2.3485 5.7148 -2.0538 0.9743
-4.1554 4.4928 -2.0343 0.9745
-4.5289 4.0961 -2.0298 0.9746
-4.8654 3.6692 -2.0256 0.9746
-5.4188 2.7382 -2.0181 0.9747
-5.9239 1.2041 -2.0094 0.9748
-6.0011 0.6713 -2.0072 0.9749
-6.0158 -0.4027 -2.0041 0.9749
-5.9533 -0.9361 -2.0032 0.9749
-5.6916 -1.9763 -2.0027 0.9749
-5.4942 -2.4756 -2.0031 0.9749
-5.2542 -2.9560 -2.0039 0.9749
-4.9733 -3.4140 -2.0052 0.9749
-4.6536 -3.8463 -2.0069 0.9749
-3.9068 -4.6210 -2.0114 0.9748
-2.0622 -5.7319 -2.0249 0.9746
-1.5451 -5.8976 -2.0265 0.9746
-0.4763 -6.0951 -2.0322 0.9746
0.0682 -6.1261 -2.0365 0.9745
1.1596 -6.0494 -2.0475 0.9744
2.2289 -5.7872 -2.0614 0.9742
3.7090 -5.0339 -2.0785 0.9740
4.1521 -4.6949 -2.0834 0.9739
4.5638 -4.3164 -2.0881 0.9739
4.9405 -3.9015 -2.0926 0.9738
5.2789 -3.4533 -2.0969 0.9738
5.5759 -2.9754 -2.1008 0.9737
6.1927 -1.4031 -2.1107 0.9736
6.3005 -0.8473 -2.1132 0.9736
6.3571 -0.2835 -2.1152 0.9735
6.2160 1.4084 -2.1186 0.9735
5.8674 2.4880 -2.1185 0.9735
5.6206 2.9992 -2.1177 0.9735
4.9926 3.9426 -2.1146 0.9735
4.6171 4.3668 -2.1124 0.9736
4.2048 4.7545 -2.1098 0.9736
3.7596 5.1025 -2.1068 0.9736
1.1818 6.1651 -2.0866 0.9739
0.6269 6.2315 -2.0819 0.9739
0.0696 6.2477 -2.0769 0.9740
-1.0341 6.1308 -2.0667 0.9741
-2.0942 5.8211 -2.0564 0.9743
-3.0779 5.3311 -2.0462 0.9744
-3.5317 5.0239 -2.0413 0.9744
-4.3466 4.2984 -2.0320 0.9746
-5.0191 3.4454 -2.0237 0.9747
-5.5307 2.4920 -2.0165 0.9748
-5.7218 1.9868 -2.0134 0.9748
-5.8679 1.4677 -2.0106 0.9748
-5.9683 0.9385 -2.0083 0.9749
-5.3794 -2.7183 -2.0035 0.9749
-4.8182 -3.6336 -2.0060 0.9749
-4.4799 -4.0518 -2.0079 0.9749
-4.1061 -4.4395 -2.0101 0.9748
-3.6996 -4.7937 -2.0128 0.9748
-2.7999 -5.3908 -2.0192 0.9747
-1.2815 -5.9637 -2.0276 0.9746
-0.2045 -6.1163 -2.0342 0.9745
0.3415 -6.1242 -2.0389 0.9745
0.8876 -6.0860 -2.0444 0.9744
1.4301 -6.0011 -2.0507 0.9743
1.9653 -5.8700 -2.0577 0.9742
2.4892 -5.6929 -2.0653 0.9741
3.4769 -5.1879 -2.0760 0.9740
4.3621 -4.5104 -2.0857 0.9739
4.7568 -4.1133 -2.0904 0.9738
6.1200 -1.6764 -2.1093 0.9736
6.3352 -0.5661 -2.1142 0.9735
5.9058 0.0000 -2.1120 0.9752
5.8180 1.0482 -2.1141 0.9752
5.0836 3.0110 -2.1129 0.9752
4.4624 3.8587 -2.1097 0.9753
4.0968 4.2361 -2.1074 0.9753
3.2721 4.8824 -2.1018 0.9753
2.8201 5.1461 -2.0985 0.9754
1.8563 5.5446 -2.0910 0.9755
0.8404 5.7624 -2.0825 0.9756
-0.1937 5.7945 -2.0733 0.9757
-1.2124 5.6422 -2.0638 0.9758
-2.1834 5.3131 -2.0542 0.9759
-3.0768 4.8197 -2.0448 0.9760
-4.5277 3.4145 -2.0280 0.9762
-5.0439 2.5488 -2.0210 0.9763
-5.4005 1.6095 -2.0152 0.9763
-5.5158 1.1211 -2.0128 0.9764
-5.5881 0.6251 -2.0108 0.9764
-5.5444 -0.8718 -2.0071 0.9764
-5.3007 -1.8406 -2.0066 0.9764
-5.1168 -2.3055 -2.0070 0.9764
-4.3334 -3.5817 -2.0105 0.9764
-3.2443 -4.6151 -2.0174 0.9763
-2.8248 -4.8927 -2.0204 0.9763
-2.3820 -5.1331 -2.0237 0.9762
-1.9191 -5.3342 -2.0273 0.9762
-1.4394 -5.4943 -2.0311 0.9762
0.0637 -5.7153 -2.0440 0.9760
1.5822 -5.5333 -2.0580 0.9758
2.0732 -5.3830 -2.0629 0.9758
3.4453 -4.6761 -2.0771 0.9756
3.8563 -4.3604 -2.0816 0.9756
4.2380 -4.0083 -2.0860 0.9755
5.7462 -1.3019 -2.1070 0.9753
5.8456 -0.7862 -2.1093 0.9753
5.9019 0.2632 -2.1127 0.9752
5.8579 0.7878 -2.1137 0.9752
5.6275 1.8146 -2.1145 0.9752
5.4429 2.3080 -2.1142 0.9752
4.9429 3.2335 -2.1122 0.9752
3.9017 4.4118 -2.1062 0.9753
2.5859 5.2621 -2.0967 0.9754
2.1035 5.4616 -2.0930 0.9754
1.0974 5.7253 -2.0847 0.9755
0.5823 5.7879 -2.0802 0.9756
0.0647 5.8039 -2.0756 0.9756
-0.9610 5.6973 -2.0662 0.9758
-1.4609 5.5761 -2.0614 0.9758
-1.9468 5.4113 -2.0566 0.9759
-2.4151 5.2045 -2.0518 0.9759
-2.8622 4.9575 -2.0471 0.9760
-3.2848 4.6727 -2.0426 0.9760
-4.3753 3.6163 -2.0299 0.9762
-4.6711 3.2065 -2.0261 0.9762
-4.9294 2.7733 -2.0226 0.9763
-5.1485 2.3198 -2.0194 0.9763
-5.3269 1.8497 -2.0165 0.9763
-5.4993 -1.1178 -2.0068 0.9764
-5.3773 -1.6026 -2.0066 0.9764
-5.0098 -2.5316 -2.0073 0.9764
-4.7669 -2.9689 -2.0083 0.9764
-4.4868 -3.3837 -2.0096 0.9764
-3.8232 -4.1336 -2.0135 0.9764
-3.4443 -4.4629 -2.0160 0.9763
-2.1529 -5.2387 -2.0254 0.9762
-0.6964 -5.6543 -2.0373 0.9761
-0.1908 -5.7061 -2.0417 0.9760
0.8277 -5.6750 -2.0509 0.9759
1.8292 -5.4637 -2.0604 0.9758
2.3137 -5.2915 -2.0653 0.9758
3.2300 -4.8195 -2.0748 0.9757
4.4168 -3.8194 -2.0881 0.9755
5.0430 -2.9870 -2.0960 0.9754
5.2978 -2.5305 -2.0996 0.9754
5.6790 -1.5556 -2.1057 0.9753
5.8018 -1.0452 -2.1082 0.9753
5.8776 -0.5252 -2.1103 0.9752
5.4829 0.4899 -2.1095 0.9767
5.3120 1.4551 -2.1107 0.9767
5.1613 1.9221 -2.1106 0.9767
4.9686 2.3733 -2.1101 0.9767
4.7356 2.8049 -2.1092 0.9767
3.4466 4.2659 -2.1017 0.9768
2.6283 4.7960 -2.0958 0.9768
1.2612 5.2924 -2.0849 0.9770
0.7837 5.3732 -2.0809 0.9770
-0.1807 5.4047 -2.0723 0.9771
-0.6596 5.3558 -2.0679 0.9771
-2.4658 4.7475 -2.0501 0.9773
-3.6102 3.9033 -2.0375 0.9775
-3.9358 3.5597 -2.0337 0.9775
-4.7127 2.3814 -2.0235 0.9776
-4.8990 1.9498 -2.0206 0.9777
-5.0467 1.5041 -2.0181 0.9777
-5.1549 1.0478 -2.0158 0.9777
-5.2228 0.5842 -2.0140 0.9777
-5.1826 -0.8149 -2.0105 0.9778
-5.0884 -1.2727 -2.0101 0.9778
-4.5738 -2.5731 -2.0111 0.9778
-3.3992 -4.0206 -2.0176 0.9777
-3.0316 -4.3125 -2.0201 0.9777
-2.6394 -4.5715 -2.0229 0.9776
-2.2254 -4.7956 -2.0260 0.9776
-1.7927 -4.9829 -2.0294 0.9776
-0.8840 -5.2409 -2.0368 0.9775
-0.4149 -5.3092 -2.0408 0.9774
0.5353 -5.3206 -2.0493 0.9774
1.0089 -5.2631 -2.0537 0.9773
2.3790 -4.8410 -2.0671 0.9772
3.2132 -4.3610 -2.0759 0.9771
4.2762 -3.3769 -2.0881 0.9769
4.5679 -2.9882 -2.0918 0.9769
4.8236 -2.5739 -2.0952 0.9769
5.2184 -1.6827 -2.1012 0.9768
4.3152 3.4076 -2.1071 0.9767
3.9912 3.7748 -2.1052 0.9767
2.8415 4.6777 -2.0974 0.9768
1.0233 5.3382 -2.0829 0.9770
0.5430 5.3974 -2.0788 0.9770
-0.8966 5.3153 -2.0657 0.9772
-1.8169 5.0501 -2.0567 0.9773
-2.6720 4.6280 -2.0479 0.9774
-3.0669 4.3627 -2.0436 0.9774
-3.4361 4.0642 -2.0395 0.9775
-3.7769 3.7350 -2.0356 0.9775
-4.6054 2.5910 -2.0250 0.9776
-4.8106 2.1675 -2.0220 0.9777
-4.9778 1.7285 -2.0193 0.9777
-5.1058 1.2771 -2.0169 0.9777
-5.1939 0.8167 -2.0149 0.9777
-5.2147 -0.5833 -2.0108 0.9778
-4.8736 -1.9397 -2.0101 0.9778
-4.6829 -2.3664 -2.0107 0.9778
-4.4557 -2.7750 -2.0116 0.9778
-4.1937 -3.1626 -2.0129 0.9778
-3.8987 -3.5262 -2.0145 0.9777
-3.5729 -3.8630 -2.0165 0.9777
-2.4349 -4.6880 -2.0244 0.9776
-1.5703 -5.0622 -2.0311 0.9776
-1.1156 -5.1913 -2.0348 0.9775
-0.1781 -5.3278 -2.0429 0.9774
0.7726 -5.2972 -2.0514 0.9773
1.2437 -5.2186 -2.0559 0.9773
2.1586 -4.9369 -2.0648 0.9772
2.5950 -4.7354 -2.0693 0.9771
3.4078 -4.2179 -2.0780 0.9770
4.4264 -3.1859 -2.0900 0.9769
4.9372 -2.3583 -2.0968 0.9768
5.1349 -1.9123 -2.0998 0.9768
5.4054 -0.9738 -2.1048 0.9767
5.4757 -0.4893 -2.1068 0.9767
5.1258 0.4581 -2.1062 0.9780
4.9659 1.3603 -2.1073 0.9780
4.8250 1.7968 -2.1072 0.9780
4.6449 2.2187 -2.1068 0.9780
4.1738 3.0041 -2.1047 0.9780
3.8870 3.3612 -2.1031 0.9780
3.5691 3.6904 -2.1012 0.9781
2.4582 4.4856 -2.0934 0.9781
2.0461 4.6795 -2.0903 0.9782
1.6188 4.8352 -2.0869 0.9782
0.2823 5.0634 -2.0756 0.9783
-0.6175 5.0134 -2.0674 0.9784
-1.4905 4.8049 -2.0590 0.9785
-1.9084 4.6437 -2.0548 0.9785
-2.3095 4.4465 -2.0507 0.9786
-2.6907 4.2149 -2.0466 0.9786
-3.0493 3.9511 -2.0427 0.9787
-3.6881 3.3357 -2.0353 0.9787
-4.2074 2.6204 -2.0286 0.9788
-4.5926 1.8278 -2.0230 0.9789
-4.7314 1.4101 -2.0206 0.9789
-2.1261 0.2378 -0.8756 0.9908
-2.1285 0.0474 -0.8714 0.9908
-2.1308 -0.5329 -0.8989 0.9906
-4.6465 -1.6134 -2.0131 0.9790
-4.4852 -2.0209 -2.0134 0.9790
-4.2889 -2.4129 -2.0141 0.9790
-4.0592 -2.7865 -2.0151 0.9789
-3.7977 -3.1389 -2.0165 0.9789
-3.5062 -3.4673 -2.0182 0.9789
-3.1869 -3.7694 -2.0202 0.9789
-2.0858 -4.4949 -2.0281 0.9788
-1.2599 -4.8089 -2.0346 0.9787
-0.3887 -4.9740 -2.0419 0.9787
0.0557 -4.9984 -2.0459 0.9786
0.5013 -4.9834 -2.0499 0.9786
1.8111 -4.7024 -2.0624 0.9785
2.2270 -4.5317 -2.0666 0.9784
2.6267 -4.3242 -2.0707 0.9784
3.6969 -3.4965 -2.0826 0.9782
4.0004 -3.1591 -2.0862 0.9782
4.5115 -2.4074 -2.0929 0.9781
4.8798 -1.5735 -2.0985 0.9781
5.1013 0.6861 -2.1066 0.9780
4.9004 1.5802 -2.1073 0.9780
4.0344 3.1860 -2.1040 0.9780
3.7317 3.5295 -2.1022 0.9780
3.0402 4.1262 -2.0977 0.9781
2.6574 4.3747 -2.0949 0.9781
2.2542 4.5872 -2.0919 0.9782
0.9574 4.9947 -2.0814 0.9783
-0.3939 5.0410 -2.0694 0.9784
-0.8393 4.9759 -2.0653 0.9784
-2.5027 4.3349 -2.0486 0.9786
-2.8730 4.0869 -2.0446 0.9786
-3.2193 3.8078 -2.0408 0.9787
-3.8298 3.1654 -2.0335 0.9788
-4.5095 2.0319 -2.0243 0.9788
-2.1308 0.5330 -0.8989 0.9906
-2.1345 0.3356 -0.8843 0.9907
-2.1285 -0.0474 -0.8714 0.9908
-2.1261 -0.2378 -0.8756 0.9908
-2.1365 -0.4343 -0.8923 0.9906
-4.5703 -1.8189 -2.0132 0.9790
-4.3913 -2.2190 -2.0137 0.9790
-2.6608 -4.1680 -2.0238 0.9789
0.2786 -4.9958 -2.0479 0.9786
0.7236 -4.9611 -2.0519 0.9786
2.8195 -4.2070 -2.0728 0.9783
3.1890 -3.9470 -2.0768 0.9783
3.8524 -3.3313 -2.0844 0.9782
4.1406 -2.9802 -2.0880 0.9782
4.3964 -2.6040 -2.0913 0.9782
4.6175 -2.2056 -2.0944 0.9781
4.8019 -1.7883 -2.0972 0.9781
5.0541 -0.9105 -2.1018 0.9780
5.1196 -0.4575 -2.1037 0.9780
4.8238 0.0000 -2.1023 0.9792
4.7512 0.8560 -2.1040 0.9792
4.6568 1.2756 -2.1043 0.9792
4.5247 1.6850 -2.1042 0.9792
3.6455 3.1524 -2.1004 0.9792
3.3475 3.4613 -2.0986 0.9792
3.0231 3.7417 -2.0965 0.9792
2.3061 4.2081 -2.0913 0.9793
1.1073 4.6466 -2.0818 0.9794
0.6882 4.7187 -2.0782 0.9794
0.2650 4.7528 -2.0745 0.9794
-0.9945 4.6278 -2.0629 0.9796
-1.3997 4.5123 -2.0590 0.9796
-1.7924 4.3615 -2.0551 0.9796
-2.5278 3.9597 -2.0474 0.9797
-3.1785 3.4365 -2.0401 0.9798
-3.4660 3.1348 -2.0367 0.9798
-3.7253 2.8094 -2.0335 0.9798
-3.9547 2.4630 -2.0305 0.9799
-4.3175 1.7183 -2.0252 0.9799
-1.8741 0.5585 -0.8523 0.9915
-1.9300 0.3923 -0.8583 0.9914
-1.9433 0.2174 -0.8522 0.9915
-1.9470 0.0434 -0.8487 0.9915
-1.9479 -0.1304 -0.8508 0.9915
-1.9397 -0.3050 -0.8557 0.9915
-1.9080 -0.4772 -0.8571 0.9915
-1.8290 -0.6351 -0.8438 0.9916
-4.0331 -2.2690 -2.0168 0.9800
-3.8170 -2.6202 -2.0177 0.9800
-2.9962 -3.5439 -2.0225 0.9800
-2.3258 -4.0283 -2.0272 0.9799
-0.3652 -4.6735 -2.0430 0.9798
0.0523 -4.6958 -2.0467 0.9797
0.4709 -4.6812 -2.0504 0.9797
0.8874 -4.6294 -2.0543 0.9796
1.2984 -4.5407 -2.0582 0.9796
1.7006 -4.4156 -2.0622 0.9796
2.4659 -4.0594 -2.0700 0.9795
2.8226 -3.8309 -2.0738 0.9795
3.1581 -3.5709 -2.0775 0.9794
3.4693 -3.2813 -2.0811 0.9794
3.7538 -2.9643 -2.0845 0.9793
4.5773 -1.4760 -2.0960 0.9792
4.6954 -1.0638 -2.0982 0.9792
4.8203 0.2149 -2.1028 0.9792
4.7839 0.6434 -2.1037 0.9792
4.0372 2.6410 -2.1025 0.9792
3.7837 2.9880 -2.1012 0.9792
3.5000 3.3103 -2.0995 0.9792
3.1885 3.6053 -2.0976 0.9792
2.8518 3.8705 -2.0953 0.9792
2.1149 4.3037 -2.0899 0.9793
0.4769 4.7405 -2.0764 0.9794
0.0530 4.7555 -2.0727 0.9795
-1.9830 4.2732 -2.0531 0.9797
-2.3511 4.0722 -2.0493 0.9797
-2.6992 3.8397 -2.0455 0.9797
-3.3256 3.2888 -2.0384 0.9798
-1.9397 0.3050 -0.8557 0.9915
-1.9470 -0.0434 -0.8487 0.9915
-1.9300 -0.3923 -0.8583 0.9914
-4.2978 -1.7105 -2.0159 0.9800
-4.1294 -2.0867 -2.0164 0.9800
-3.9289 -2.4469 -2.0172 0.9800
-3.6976 -2.7885 -2.0183 0.9800
-2.5013 -3.9183 -2.0259 0.9799
-0.1568 -4.6893 -2.0448 0.9797
0.2617 -4.6932 -2.0485 0.9797
1.0938 -4.5897 -2.0563 0.9796
1.8974 -4.3396 -2.0641 0.9795
2.6468 -3.9492 -2.0719 0.9795
2.9932 -3.7047 -2.0757 0.9794
3.8851 -2.7964 -2.0862 0.9793
4.1248 -2.4431 -2.0893 0.9793
4.3318 -2.0691 -2.0922 0.9793
4.5044 -1.6774 -2.0948 0.9792
4.6410 -1.2713 -2.0971 0.9792
4.7403 -0.8540 -2.0992 0.9792
4.8015 -0.4290 -2.1009 0.9792
4.5361 0.0000 -2.0997 0.9802
4.5202 0.4039 -2.1007 0.9802
4.2546 1.5844 -2.1015 0.9802
3.9042 2.3125 -2.1004 0.9802
2.1693 3.9584 -2.0894 0.9803
1.4291 4.2685 -2.0836 0.9804
1.0419 4.3721 -2.0805 0.9804
0.6476 4.4403 -2.0771 0.9804
0.2494 4.4729 -2.0736 0.9804
-0.5457 4.4307 -2.0664 0.9805
-0.9362 4.3567 -2.0627 0.9805
-1.3179 4.2484 -2.0590 0.9806
-1.6878 4.1069 -2.0553 0.9806
-2.6987 3.4967 -2.0446 0.9807
-2.9942 3.2373 -2.0412 0.9808
-3.2654 2.9533 -2.0380 0.9808
-3.5100 2.6470 -2.0350 0.9808
-3.7265 2.3209 -2.0321 0.9808
-1.6716 0.0373 -0.7739 0.9927
-1.6738 -0.1120 -0.7765 0.9926
-1.6521 -0.2598 -0.7741 0.9927
-1.6165 -0.4043 -0.7713 0.9927
-1.5621 -0.5424 -0.7654 0.9927
-3.9759 -1.7915 -2.0186 0.9810
-3.5980 -2.4699 -2.0201 0.9809
-3.1073 -3.0728 -2.0228 0.9809
-2.8239 -3.3402 -2.0246 0.9809
-2.5180 -3.5819 -2.0267 0.9809
-2.1917 -3.7962 -2.0290 0.9809
-1.4879 -4.1356 -2.0344 0.9808
-1.1155 -4.2578 -2.0374 0.9808
0.0493 -4.4228 -2.0474 0.9807
2.3210 -3.8209 -2.0694 0.9805
2.6565 -3.6054 -2.0730 0.9805
2.9718 -3.3603 -2.0765 0.9804
3.5317 -2.7890 -2.0830 0.9804
3.7714 -2.4671 -2.0861 0.9803
4.3051 -1.3882 -2.0938 0.9803
4.4159 -1.0005 -2.0959 0.9802
4.4912 -0.6040 -2.0976 0.9802
4.5303 -0.2020 -2.0991 0.9802
4.5328 0.2021 -2.1002 0.9802
4.4278 1.0032 -2.1015 0.9802
4.3211 1.3934 -2.1016 0.9802
4.1795 1.7723 -2.1014 0.9802
3.2916 3.1131 -2.0971 0.9802
2.6823 3.6405 -2.0931 0.9803
1.9895 4.0485 -2.0880 0.9803
0.8455 4.4107 -2.0788 0.9804
0.4488 4.4611 -2.0754 0.9804
-0.3481 4.4546 -2.0682 0.9805
-0.7419 4.3981 -2.0646 0.9805
-1.1283 4.3068 -2.0608 0.9806
-1.5045 4.1818 -2.0571 0.9806
-3.1330 3.0983 -2.0396 0.9808
-3.9950 1.8001 -2.0283 0.9809
-1.6521 0.2598 -0.7741 0.9927
-1.6675 -0.1865 -0.7767 0.9926
-1.5924 -0.4746 -0.7692 0.9927
-1.5257 -0.6072 -0.7601 0.9928
-3.7035 -2.3066 -2.0196 0.9810
-2.6737 -3.4644 -2.0256 0.9809
-2.0217 -3.8925 -2.0303 0.9809
-1.6694 -4.0623 -2.0330 0.9808
-1.3031 -4.2008 -2.0359 0.9808
-0.5393 -4.3789 -2.0422 0.9807
1.0299 -4.3216 -2.0564 0.9806
1.7862 -4.0852 -2.0639 0.9805
2.4911 -3.7169 -2.0712 0.9805
2.8168 -3.4864 -2.0747 0.9804
3.1211 -3.2272 -2.0782 0.9804
3.8802 -2.2983 -2.0875 0.9803
4.0747 -1.9463 -2.0902 0.9803
4.2367 -1.5778 -2.0927 0.9803
4.3649 -1.1957 -2.0949 0.9802
4.4581 -0.8032 -2.0968 0.9802
4.5153 -0.4035 -2.0984 0.9802
4.2758 0.0000 -2.0974 0.9811
4.2607 0.3807 -2.0983 0.9811
4.2111 0.7587 -2.0989 0.9811
3.2317 2.7946 -2.0957 0.9811
2.9679 3.0688 -2.0941 0.9812
2.3722 3.5395 -2.0901 0.9812
1.3477 4.0253 -2.0822 0.9813
-0.1410 4.2165 -2.0694 0.9814
-0.5148 4.1802 -2.0660 0.9814
-0.8834 4.1109 -2.0625 0.9814
-1.2436 4.0091 -2.0590 0.9815
-2.5476 3.3010 -2.0454 0.9816
-2.8269 3.0564 -2.0422 0.9816
-3.5191 2.1917 -2.0336 0.9817
-3.6957 1.8675 -2.0312 0.9817
-1.3059 0.5198 -0.6895 0.9938
-1.3200 0.3934 -0.6756 0.9939
-1.3047 0.2652 -0.6531 0.9941
-1.3419 0.1501 -0.6624 0.9940
-1.3257 -0.2085 -0.6583 0.9940
-1.3171 -0.4573 -0.6839 0.9938
-1.2865 -0.5797 -0.6922 0.9937
-3.5915 -2.0206 -2.0214 0.9818
-2.3782 -3.3831 -2.0285 0.9817
-2.0699 -3.5852 -2.0307 0.9817
-1.7447 -3.7598 -2.0331 0.9817
-1.4050 -3.9052 -2.0358 0.9817
0.0465 -4.1749 -2.0480 0.9816
0.7886 -4.1142 -2.0548 0.9815
1.1536 -4.0345 -2.0583 0.9815
2.1896 -3.6046 -2.0688 0.9814
2.5058 -3.4010 -2.0722 0.9814
3.0787 -2.9118 -2.0786 0.9813
3.7540 -2.0032 -2.0872 0.9812
4.0587 -1.3088 -2.0918 0.9812
4.1629 -0.9432 -2.0938 0.9812
4.2337 -0.5694 -2.0954 0.9811
4.2704 -0.1904 -2.0968 0.9811
4.2725 0.1905 -2.0979 0.9811
4.0729 1.3134 -2.0992 0.9811
3.9395 1.6705 -2.0990 0.9811
3.7742 2.0140 -2.0984 0.9811
3.5785 2.3410 -2.0976 0.9811
3.3541 2.6487 -2.0964 0.9811
3.1029 2.9347 -2.0949 0.9812
2.8270 3.1965 -2.0932 0.9812
2.5288 3.4321 -2.0912 0.9812
1.8759 3.8174 -2.0864 0.9812
1.1662 4.0785 -2.0808 0.9813
-0.3284 4.2025 -2.0677 0.9814
-0.7000 4.1496 -2.0642 0.9814
-2.0900 3.6199 -2.0504 0.9815
-2.9580 2.9253 -2.0407 0.9816
-3.2020 2.6465 -2.0377 0.9817
-3.6110 2.0315 -2.0324 0.9817
-1.2865 0.5797 -0.6922 0.9937
-1.3536 -0.0302 -0.6641 0.9940
-1.3419 -0.1501 -0.6624 0.9940
-1.3047 -0.2652 -0.6531 0.9941
-1.3200 -0.3934 -0.6756 0.9939
-3.2925 -2.4830 -2.0228 0.9818
-3.0604 -2.7679 -2.0241 0.9818
-2.5253 -3.2722 -2.0275 0.9818
-2.2264 -3.4875 -2.0296 0.9817
-1.2305 -3.9666 -2.0372 0.9817
-0.5092 -4.1341 -2.0432 0.9816
0.6041 -4.1417 -2.0531 0.9815
0.9719 -4.0784 -2.0566 0.9815
1.6854 -3.8545 -2.0636 0.9814
2.3499 -3.5063 -2.0705 0.9814
3.2077 -2.7739 -2.0802 0.9813
3.4468 -2.4808 -2.0831 0.9813
3.6587 -2.1671 -2.0859 0.9812
3.8418 -1.8351 -2.0884 0.9812
4.1149 -1.1272 -2.0928 0.9812
4.2025 -0.7571 -2.0946 0.9812
4.2563 -0.3803 -2.0962 0.9811
4.0244 0.3596 -2.0961 0.9820
3.9775 0.7166 -2.0967 0.9820
3.7878 1.4106 -2.0969 0.9820
3.2775 2.3590 -2.0949 0.9820
2.5323 3.1343 -2.0904 0.9820
2.2411 3.3440 -2.0884 0.9820
1.9325 3.5264 -2.0861 0.9820
1.6091 3.6800 -2.0836 0.9821
0.9286 3.8967 -2.0781 0.9821
-0.1333 3.9857 -2.0689 0.9822
-0.4867 3.9518 -2.0656 0.9822
-1.1759 3.7907 -2.0590 0.9823
-1.8235 3.5110 -2.0524 0.9823
-2.1255 3.3295 -2.0492 0.9824
-2.4097 3.1224 -2.0461 0.9824
-2.9168 2.6381 -2.0403 0.9824
-3.3297 2.0738 -2.0350 0.9825
-1.1266 0.3358 -0.6099 0.9947
-1.1785 0.0263 -0.6115 0.9947
-1.1739 -0.0786 -0.6103 0.9947
-1.1275 -0.2820 -0.6029 0.9948
-1.1198 -0.3888 -0.6150 0.9947
-3.2169 -2.2083 -2.0242 0.9826
-1.3293 -3.6948 -2.0370 0.9825
-0.9964 -3.8034 -2.0397 0.9824
-0.6549 -3.8824 -2.0426 0.9824
1.0908 -3.8148 -2.0584 0.9823
1.7555 -3.5724 -2.0650 0.9822
2.0698 -3.4074 -2.0683 0.9822
2.6492 -2.9955 -2.0746 0.9821
3.3603 -2.1982 -2.0831 0.9821
3.7054 -1.5712 -2.0879 0.9820
3.9993 -0.5379 -2.0934 0.9820
3.9420 0.8931 -2.0968 0.9820
3.8470 1.2405 -2.0969 0.9820
3.3802 2.2112 -2.0954 0.9820
3.1683 2.5020 -2.0943 0.9820
2.6706 3.0197 -2.0913 0.9820
2.3891 3.2424 -2.0894 0.9820
2.0888 3.4387 -2.0873 0.9820
1.7725 3.6069 -2.0849 0.9821
1.4426 3.7457 -2.0823 0.9821
1.1021 3.8541 -2.0796 0.9821
0.7536 3.9314 -2.0767 0.9821
0.0445 3.9908 -2.0705 0.9822
-0.3104 3.9727 -2.0672 0.9822
-1.3425 3.7316 -2.0573 0.9823
-1.6667 3.5916 -2.0541 0.9823
-1.9766 3.4235 -2.0508 0.9823
-2.7983 2.7673 -2.0417 0.9824
-1.1517 0.1811 -0.6048 0.9948
-1.1739 0.0786 -0.6103 0.9947
-1.1785 -0.0263 -0.6115 0.9947
-1.1332 -0.2303 -0.5999 0.9948
-3.3114 -2.0623 -2.0238 0.9826
-3.1161 -2.3500 -2.0247 0.9826
-1.1641 -3.7527 -2.0384 0.9825
-0.8266 -3.8467 -2.0411 0.9824
-0.1319 -3.9437 -2.0471 0.9824
0.5712 -3.9168 -2.0534 0.9823
1.9145 -3.4934 -2.0666 0.9822
2.5113 -3.1083 -2.0730 0.9822
2.7821 -2.8767 -2.0761 0.9821
3.4570 -2.0476 -2.0844 0.9821
3.7736 -1.4053 -2.0890 0.9820
3.8873 -1.0649 -2.0910 0.9820
3.9699 -0.7152 -2.0927 0.9820
4.0206 -0.3593 -2.0941 0.9820
2.0036 0.3610 -1.1150 0.9908
1.9714 0.7342 -1.1522 0.9905
3.2894 1.9483 -2.0939 0.9827
3.1016 2.2324 -2.0930 0.9827
2.8889 2.4982 -2.0918 0.9827
2.6533 2.7435 -2.0904 0.9827
2.1212 3.1650 -2.0868 0.9828
1.8292 3.3378 -2.0847 0.9828
1.5231 3.4835 -2.0823 0.9828
0.8792 3.6891 -2.0771 0.9829
0.5466 3.7476 -2.0743 0.9829
-0.1262 3.7743 -2.0684 0.9829
-0.4609 3.7425 -2.0653 0.9829
-0.7910 3.6810 -2.0621 0.9830
-1.4268 3.4719 -2.0559 0.9830
-1.7275 3.3261 -2.0528 0.9831
-2.0137 3.1545 -2.0498 0.9831
-2.7641 2.4999 -2.0412 0.9831
-0.9364 0.4732 -0.5746 0.9952
-0.9638 0.3836 -0.5681 0.9953
-0.9825 0.2928 -0.5615 0.9953
-1.0376 -0.0695 -0.5696 0.9953
-1.0166 -0.1599 -0.5637 0.9953
-0.9847 -0.2463 -0.5559 0.9954
-0.9756 -0.3387 -0.5656 0.9953
-0.9240 -0.5198 -0.5806 0.9952
-3.0497 -2.0935 -2.0260 0.9833
-2.8528 -2.3579 -2.0271 0.9833
-1.8565 -3.2156 -2.0336 0.9832
-1.5646 -3.3717 -2.0358 0.9832
-1.2598 -3.5016 -2.0382 0.9832
0.0417 -3.7412 -2.0492 0.9831
0.3750 -3.7281 -2.0522 0.9831
0.7064 -3.6855 -2.0553 0.9830
1.6626 -3.3833 -2.0647 0.9830
2.7546 -2.6053 -2.0766 0.9829
2.9794 -2.3528 -2.0793 0.9828
3.3573 -1.7915 -2.0842 0.9828
1.9407 -0.8229 -1.1546 0.9904
2.0434 -0.0911 -1.1203 0.9907
2.0226 0.2720 -1.1178 0.9907
1.9895 0.6415 -1.1449 0.9905
1.9407 0.8229 -1.1546 0.9904
2.9983 2.3677 -2.0925 0.9827
2.7739 2.6235 -2.0911 0.9827
2.2611 3.0688 -2.0878 0.9828
1.3656 3.5458 -2.0811 0.9828
0.0421 3.7789 -2.0699 0.9829
-1.2717 3.5347 -2.0574 0.9830
-1.5788 3.4023 -2.0543 0.9830
-3.0669 2.1053 -2.0374 0.9832
-0.9756 0.3387 -0.5656 0.9953
-1.0166 0.1598 -0.5637 0.9953
-1.0376 0.0695 -0.5696 0.9953
-1.0415 -0.0232 -0.5706 0.9953
-0.9638 -0.3836 -0.5681 0.9953
-0.9364 -0.4732 -0.5746 0.9952
-2.7457 -2.4834 -2.0277 0.9833
-2.5155 -2.7198 -2.0291 0.9832
-2.2653 -2.9353 -2.0308 0.9832
-1.9969 -3.1281 -2.0326 0.9832
-1.7123 -3.2968 -2.0347 0.9832
-1.4137 -3.4400 -2.0370 0.9832
-1.1032 -3.5564 -2.0394 0.9832
-0.4564 -3.7055 -2.0448 0.9831
-0.1249 -3.7366 -2.0477 0.9831
0.2084 -3.7383 -2.0507 0.9831
0.5412 -3.7105 -2.0537 0.9830
0.8706 -3.6531 -2.0568 0.9830
1.1941 -3.5665 -2.0600 0.9830
1.8130 -3.3083 -2.0662 0.9829
2.1034 -3.1385 -2.0693 0.9829
2.6340 -2.7235 -2.0752 0.9829
2.8698 -2.4816 -2.0780 0.9828
3.0832 -2.2191 -2.0806 0.9828
3.2723 -1.9382 -2.0831 0.9828
1.9714 -0.7342 -1.1522 0.9905
2.0036 -0.3610 -1.1150 0.9908
2.0356 -0.1819 -1.1193 0.9907
1.8754 0.0000 -1.0828 0.9914
1.8700 0.1671 -1.0839 0.9914
1.8267 0.5004 -1.0935 0.9913
1.7869 0.6654 -1.1009 0.9912
3.1177 1.8467 -2.0921 0.9834
2.9398 2.1159 -2.0912 0.9834
2.7384 2.3679 -2.0901 0.9834
2.5151 2.6006 -2.0888 0.9834
2.2719 2.8120 -2.0872 0.9834
2.0109 3.0004 -2.0854 0.9835
1.7341 3.1644 -2.0833 0.9835
0.1997 3.5811 -2.0707 0.9836
-0.1197 3.5797 -2.0679 0.9836
-0.7503 3.4918 -2.0620 0.9836
-1.9108 2.9932 -2.0502 0.9837
-2.1667 2.8074 -2.0474 0.9838
-2.6233 2.3726 -2.0421 0.9838
-0.8760 0.4426 -0.5667 0.9955
-0.8932 0.3555 -0.5550 0.9956
-0.9120 0.1854 -0.5373 0.9957
-0.9237 0.1033 -0.5366 0.9957
-0.9306 0.0207 -0.5374 0.9957
-0.9273 -0.0621 -0.5366 0.9957
-0.9030 -0.2259 -0.5374 0.9957
-0.8858 -0.3991 -0.5609 0.9955
-0.8638 -0.4860 -0.5722 0.9954
-2.8955 -1.9877 -2.0277 0.9839
-2.2716 -2.6869 -2.0314 0.9839
-2.0251 -2.8808 -2.0331 0.9839
-1.7623 -3.0524 -2.0349 0.9839
-1.4851 -3.2004 -2.0370 0.9838
-1.1957 -3.3236 -2.0393 0.9838
-0.8962 -3.4208 -2.0417 0.9838
-0.5889 -3.4914 -2.0442 0.9838
0.0395 -3.5500 -2.0497 0.9837
0.3559 -3.5373 -2.0526 0.9837
0.6702 -3.4965 -2.0555 0.9837
1.5770 -3.2091 -2.0644 0.9836
2.1270 -2.8867 -2.0702 0.9836
2.8250 -2.2309 -2.0783 0.9835
1.6861 -0.8997 -1.1034 0.9912
1.7564 -0.7448 -1.1014 0.9912
1.8108 -0.5839 -1.0985 0.9913
1.8755 -0.0836 -1.0839 0.9914
1.6860 0.8997 -1.1034 0.9912
3.0318 1.9833 -2.0917 0.9834
2.8419 2.2443 -2.0907 0.9834
2.6293 2.4868 -2.0895 0.9834
2.3959 2.7091 -2.0880 0.9834
1.8743 3.0856 -2.0844 0.9835
1.5906 3.2368 -2.0822 0.9835
1.2948 3.3618 -2.0799 0.9835
0.9893 3.4596 -2.0775 0.9835
0.3592 3.5710 -2.0721 0.9836
0.0399 3.5839 -2.0693 0.9836
-0.5945 3.5243 -2.0635 0.9836
-1.2064 3.3533 -2.0575 0.9837
-1.7768 3.0775 -2.0517 0.9837
-2.2880 2.7063 -2.0461 0.9838
-2.5166 2.4887 -2.0434 0.9838
-2.7247 2.2521 -2.0409 0.9838
-2.9110 1.9983 -2.0385 0.9838
-0.8638 0.4859 -0.5722 0.9954
-0.8858 0.3991 -0.5609 0.9955
-0.8983 0.3119 -0.5490 0.9956
-0.9030 0.2258 -0.5374 0.9957
-0.9189 0.1445 -0.5370 0.9957
-0.9274 0.0621 -0.5366 0.9957
-0.9306 -0.0207 -0.5374 0.9957
-0.9237 -0.1033 -0.5366 0.9957
-0.9120 -0.1854 -0.5373 0.9957
-0.8932 -0.3555 -0.5550 0.9956
-0.8760 -0.4426 -0.5667 0.9955
-0.8491 -0.5288 -0.5776 0.9954
-2.6068 -2.3577 -2.0293 0.9839
-2.1505 -2.7865 -2.0322 0.9839
-1.0471 -3.3755 -2.0404 0.9838
-0.7434 -3.4595 -2.0429 0.9838
-0.4331 -3.5164 -2.0456 0.9838
0.1978 -3.5471 -2.0511 0.9837
0.5134 -3.5204 -2.0540 0.9837
1.1327 -3.3833 -2.0599 0.9837
1.7196 -3.1379 -2.0659 0.9836
2.2550 -2.7910 -2.0716 0.9836
2.9233 -2.1040 -2.0795 0.9835
3.1024 -1.8376 -2.0818 0.9835
1.7869 -0.6655 -1.1009 0.9912
1.8267 -0.5004 -1.0935 0.9913
