ply
format ascii 1.0
element vertex 1348
property float32 x
property float32 y
property float32 z
property float32 I
end_header
-15.5441 11.7223 -1.8691 0.9247
-16.4644 10.2541 -1.8622 0.9250
-16.0201 10.9972 -1.8655 0.9249
19.0609 0.0000 -2.2642 0.9261
18.9846 1.6964 -2.2641 0.9261
18.7481 3.3776 -2.2629 0.9261
17.8064 6.6312 -2.2571 0.9263
17.1112 8.1733 -2.2525 0.9265
16.2757 9.6401 -2.2470 0.9266
15.3087 11.0185 -2.2405 0.9268
14.2202 12.2967 -2.2331 0.9271
-10.8738 11.7567 -1.9023 0.9375
-11.8328 10.7021 -1.8952 0.9378
-12.8909 9.7215 -1.9179 0.9370
-15.1990 7.6804 -2.0229 0.9337
-16.7101 -2.6275 -2.0093 0.9341
-16.0126 -5.5602 -2.0135 0.9340
-13.7675 -7.7455 -1.8764 0.9384
17.5228 -2.3566 -2.1002 0.9313
19.0387 -0.8490 -2.2638 0.9261
19.0429 0.8491 -2.2643 0.9261
18.0990 5.8362 -2.2589 0.9263
17.4768 7.4108 -2.2549 0.9264
16.7104 8.9169 -2.2499 0.9265
15.8080 10.3411 -2.2439 0.9267
14.7790 11.6708 -2.2369 0.9270
11.4975 13.0004 -2.0616 0.9325
10.2518 13.9139 -2.0530 0.9328
-11.3650 11.2391 -1.8987 0.9376
-12.2764 10.1466 -1.8919 0.9379
-16.0353 5.5681 -2.0163 0.9339
-16.4405 4.1120 -2.0131 0.9340
-16.7213 2.6293 -2.0107 0.9341
-16.8763 1.1297 -2.0092 0.9341
-16.9047 -0.3767 -2.0085 0.9342
-14.0833 -7.1166 -1.8744 0.9384
17.0181 -4.6618 -2.0960 0.9314
17.3909 -3.1331 -2.0990 0.9313
15.8172 -0.0000 -2.2411 0.9381
15.7539 1.4078 -2.2411 0.9381
15.5591 2.8031 -2.2401 0.9381
15.2347 4.1732 -2.2381 0.9382
14.7840 5.5056 -2.2353 0.9383
14.2116 6.7883 -2.2316 0.9384
11.8278 10.2279 -2.2156 0.9388
10.8373 11.2057 -2.2088 0.9390
8.0016 11.9392 -2.0364 0.9436
6.8807 12.5557 -2.0286 0.9438
-10.7184 9.6943 -2.0477 0.9433
-11.5465 8.7076 -2.0491 0.9432
-12.2442 7.6258 -2.0438 0.9434
-13.3468 5.3119 -2.0354 0.9436
-14.0385 2.8535 -2.0298 0.9438
-14.2251 1.5913 -2.0281 0.9438
-14.2745 -0.9556 -2.0271 0.9438
-13.5428 -4.7025 -2.0313 0.9437
-11.6372 -6.5470 -1.8919 0.9475
13.4526 -5.7044 -2.0704 0.9427
15.8021 0.7046 -2.2412 0.9381
15.6729 2.1078 -2.2407 0.9381
15.4129 3.4921 -2.2392 0.9381
14.5127 6.1539 -2.2335 0.9383
13.8816 7.4074 -2.2294 0.9384
13.1379 8.5944 -2.2244 0.9385
12.2891 9.7046 -2.2187 0.9387
10.2942 11.6398 -2.2017 0.9392
7.4477 12.2606 -2.0326 0.9437
-6.8147 11.8034 -1.9311 0.9464
-7.8088 11.1081 -1.9239 0.9466
-8.7355 10.3324 -1.9171 0.9468
-11.1627 9.2262 -2.0519 0.9432
-11.9071 8.1738 -2.0464 0.9433
-12.5571 7.0645 -2.0415 0.9435
-14.1452 2.2242 -2.0289 0.9438
-14.0283 -2.8514 -2.0283 0.9438
-13.7309 -4.0922 -2.0301 0.9438
-13.3287 -5.3047 -2.0326 0.9437
-12.2964 -6.2136 -1.9521 0.9459
-11.3455 -7.0661 -1.8938 0.9474
-10.6961 -8.0663 -1.8982 0.9473
13.1714 -6.2914 -2.0682 0.9427
13.7063 -5.1043 -2.0723 0.9426
14.1290 -3.8703 -2.0757 0.9425
15.7483 -1.4073 -2.2403 0.9381
13.4504 1.2019 -2.2246 0.9467
13.2849 2.3934 -2.2238 0.9467
12.6271 4.7024 -2.2197 0.9468
12.1411 5.7993 -2.2166 0.9469
11.5566 6.8450 -2.2127 0.9470
9.2722 9.5874 -2.1972 0.9474
3.8678 11.5524 -2.0070 0.9518
-1.4612 11.8637 -1.9692 0.9527
-2.5018 11.6423 -1.9617 0.9529
-3.5150 11.3312 -1.9545 0.9530
-4.4933 10.9338 -1.9474 0.9532
-6.3175 9.8961 -1.9341 0.9535
-8.5345 9.2274 -2.0706 0.9503
-9.9832 7.5287 -2.0599 0.9506
-11.1136 5.6159 -2.0513 0.9508
-11.5502 4.5969 -2.0479 0.9509
-12.1534 2.4703 -2.0431 0.9510
-12.3162 1.3778 -2.0416 0.9510
-12.3852 0.2760 -2.0408 0.9510
-12.3599 -0.8274 -2.0407 0.9510
-11.3282 -5.1042 -2.0469 0.9509
-10.8166 -6.0853 -2.0446 0.9509
-9.5425 -6.5505 -1.9068 0.9542
-8.9405 -7.3895 -1.9108 0.9541
10.4056 -6.8071 -2.0484 0.9508
10.9939 -5.8666 -2.0529 0.9507
12.7752 -4.1195 -2.2113 0.9470
13.1508 -2.9796 -2.2214 0.9468
13.3754 -1.7988 -2.2233 0.9468
13.4893 -0.6015 -2.2244 0.9467
13.4914 0.6016 -2.2248 0.9467
13.3815 1.7996 -2.2243 0.9467
13.1609 2.9819 -2.2231 0.9468
12.8315 4.1376 -2.2210 0.9468
11.8609 6.3291 -2.2147 0.9470
11.2291 7.3457 -2.2105 0.9471
7.8663 10.6762 -2.1846 0.9477
4.3865 11.3893 -2.0106 0.9517
3.3431 11.6917 -2.0033 0.9519
2.2807 11.8981 -1.9958 0.9521
-1.9844 11.7644 -1.9654 0.9528
-4.9671 10.7039 -1.9440 0.9533
-8.9246 8.8257 -2.0677 0.9504
-9.6496 7.9756 -2.0624 0.9505
-10.2969 7.0684 -2.0575 0.9506
-11.3429 5.1109 -2.0495 0.9508
-12.0370 3.0107 -2.0440 0.9509
-12.3625 0.8276 -2.0411 0.9510
-12.3843 -0.2760 -2.0407 0.9510
-11.0977 -5.6079 -2.0484 0.9508
-9.9861 -6.2194 -1.9381 0.9534
-8.6125 -7.7895 -1.9130 0.9540
10.7105 -6.3439 -2.0507 0.9508
11.9270 -4.4417 -2.0967 0.9497
13.2768 -2.3919 -2.2224 0.9468
11.7704 0.0000 -2.2124 0.9532
11.7234 1.0476 -2.2123 0.9532
11.5798 2.0862 -2.2116 0.9532
11.3409 3.1066 -2.2102 0.9533
11.0089 4.0998 -2.2081 0.9533
10.5872 5.0571 -2.2053 0.9534
10.0797 5.9702 -2.2020 0.9534
9.4913 6.8314 -2.1980 0.9535
8.8275 7.6334 -2.1935 0.9536
8.0945 8.3697 -2.1885 0.9537
6.4487 9.6221 -2.1772 0.9540
4.4201 10.1089 -2.0738 0.9561
1.5280 10.4767 -1.9900 0.9578
0.5875 10.5357 -1.9834 0.9580
-1.2812 10.4027 -1.9701 0.9582
-2.1947 10.2133 -1.9635 0.9584
-3.0850 9.9449 -1.9571 0.9585
-5.0412 9.7060 -2.0557 0.9565
-5.9745 9.3589 -2.0870 0.9558
-6.7709 8.7733 -2.0830 0.9559
-8.7849 6.6250 -2.0681 0.9562
-10.8495 1.2137 -2.0520 0.9565
-10.9107 0.2431 -2.0513 0.9566
-10.5948 -2.6500 -2.0528 0.9565
-9.9760 -4.4950 -2.0567 0.9564
-9.5493 -5.3723 -2.0594 0.9564
-9.0162 -6.1892 -2.0556 0.9565
-7.8682 -6.5032 -1.9187 0.9593
-7.2734 -7.1928 -1.9227 0.9592
-6.6197 -7.8298 -1.9272 0.9591
9.0791 -5.9393 -2.0392 0.9568
11.4645 -2.5975 -2.2095 0.9533
11.6590 -1.5680 -2.2112 0.9532
11.7575 -0.5243 -2.2121 0.9532
11.7590 0.5243 -2.2124 0.9532
11.4721 2.5992 -2.2110 0.9533
11.1863 3.6071 -2.2092 0.9533
10.8091 4.5834 -2.2068 0.9533
10.3439 5.5196 -2.2037 0.9534
9.1684 7.2402 -2.1959 0.9536
8.4692 8.0101 -2.1911 0.9537
7.7042 8.7112 -2.1859 0.9538
2.9252 10.2300 -1.9999 0.9576
1.9965 10.4155 -1.9934 0.9578
1.0580 10.5168 -1.9867 0.9579
-0.8179 10.4670 -1.9734 0.9582
-1.7404 10.3180 -1.9668 0.9583
-2.6432 10.0888 -1.9603 0.9584
-3.5193 9.7820 -1.9540 0.9586
-4.5080 9.7146 -2.0130 0.9573
-7.1456 8.4518 -2.0803 0.9560
-9.0622 6.2209 -2.0661 0.9562
-9.5624 5.3797 -2.0623 0.9563
-9.9875 4.5001 -2.0590 0.9564
-10.3347 3.5886 -2.0563 0.9565
-10.7876 1.6963 -2.0526 0.9565
-10.8905 0.7290 -2.0516 0.9565
-10.8461 -1.2133 -2.0514 0.9566
-10.6992 -2.1747 -2.0521 0.9565
-9.3044 -5.7948 -2.0603 0.9564
-8.2492 -6.2210 -1.9420 0.9588
-7.5784 -6.8543 -1.9206 0.9593
-6.9537 -7.5182 -1.9249 0.9592
-6.2721 -8.1270 -1.9296 0.9591
8.7964 -6.3313 -2.0371 0.9568
9.3438 -5.5344 -2.0412 0.9568
11.3319 -3.1041 -2.2084 0.9533
11.5736 -2.0851 -2.2104 0.9533
11.7203 -1.0473 -2.2117 0.9532
10.4210 0.0000 -2.2028 0.9583
10.3794 0.9275 -2.2027 0.9583
10.2526 1.8471 -2.2021 0.9583
10.0418 2.7507 -2.2008 0.9583
9.7490 3.6305 -2.1990 0.9584
9.3768 4.4789 -2.1966 0.9584
8.9289 5.2886 -2.1936 0.9585
8.4094 6.0527 -2.1901 0.9585
4.9249 8.9868 -2.1662 0.9590
3.2308 9.6499 -2.1511 0.9592
1.4222 9.7513 -2.0830 0.9605
-0.3247 9.7123 -2.0541 0.9610
-2.9517 9.5152 -2.1059 0.9601
-5.3283 8.3466 -2.0932 0.9603
-6.0351 7.8199 -2.0880 0.9604
-7.8364 5.9097 -2.0747 0.9607
-9.0777 3.6128 -2.0652 0.9608
-9.6861 1.0836 -2.0602 0.9609
-9.7412 0.2171 -2.0596 0.9609
-9.7214 -0.6508 -2.0595 0.9609
-8.5221 -4.7944 -2.0669 0.9608
-8.0731 -5.5419 -2.0699 0.9608
-7.5021 -6.2007 -2.0574 0.9610
-5.9026 -6.9816 -1.9325 0.9633
-4.5926 -7.9546 -1.9416 0.9631
5.6529 -7.6722 -2.0144 0.9618
6.9565 -6.5795 -2.0240 0.9616
7.5303 -5.9466 -2.0282 0.9615
8.2276 -5.3823 -2.0782 0.9606
9.1385 -4.8765 -2.1895 0.9585
10.3230 -1.3883 -2.2017 0.9583
10.4097 -0.4642 -2.2026 0.9583
10.4109 0.4642 -2.2028 0.9583
10.1576 2.3014 -2.2015 0.9583
9.9055 3.1941 -2.2000 0.9583
9.5726 4.0591 -2.1979 0.9584
8.6778 5.6768 -2.1919 0.9585
8.1243 6.4156 -2.1882 0.9586
6.8303 7.7232 -2.1794 0.9587
6.1017 8.2813 -2.1743 0.9588
4.5137 9.1851 -2.1633 0.9590
3.6680 9.5238 -2.1573 0.9591
2.7902 9.7579 -2.1453 0.9594
1.8740 9.7764 -2.1042 0.9601
0.1082 9.7143 -2.0535 0.9611
-0.7588 9.7108 -2.0589 0.9610
-2.5259 9.6414 -2.1068 0.9601
-3.3716 9.3716 -2.1053 0.9601
-4.9576 8.5867 -2.0959 0.9603
-5.6877 8.0908 -2.0905 0.9604
-6.3700 7.5344 -2.0855 0.9605
-6.9997 6.9221 -2.0809 0.9606
-8.0846 5.5497 -2.0728 0.9607
-8.5325 4.8003 -2.0694 0.9608
-9.4641 2.3671 -2.0622 0.9609
-9.6306 1.5144 -2.0607 0.9609
-9.7406 -0.2171 -2.0595 0.9609
-9.3467 -2.7856 -2.0616 0.9609
-8.3058 -5.1729 -2.0683 0.9608
-4.9363 -7.7326 -1.9392 0.9632
5.2987 -7.9063 -2.0118 0.9618
6.6491 -6.8751 -2.0217 0.9617
9.3661 -4.4739 -2.1941 0.9585
10.3770 -0.9273 -2.2022 0.9583
9.3400 0.0000 -2.1951 0.9623
9.3027 0.8313 -2.1951 0.9624
9.1894 1.6555 -2.1945 0.9624
9.0010 2.4656 -2.1934 0.9624
8.4066 4.0155 -2.1896 0.9624
7.5415 5.4281 -2.1838 0.9625
7.0170 6.0679 -2.1803 0.9626
6.4374 6.6562 -2.1763 0.9627
4.4216 8.0685 -2.1624 0.9629
-1.1044 8.9668 -2.1233 0.9636
-4.1217 7.9356 -2.1016 0.9639
-4.8003 7.5196 -2.0967 0.9640
-5.4384 7.0468 -2.0920 0.9641
-6.0315 6.5212 -2.0877 0.9642
-7.0661 5.3288 -2.0800 0.9643
-7.8757 3.9798 -2.0739 0.9644
-8.4386 2.5150 -2.0695 0.9645
-8.3158 -2.8876 -2.0689 0.9645
-7.6872 -4.3248 -2.0730 0.9644
-7.2812 -4.9983 -2.0757 0.9644
-6.8177 -5.6350 -2.0788 0.9643
-6.2691 -6.1996 -2.0722 0.9644
-5.3206 -6.2933 -1.9368 0.9667
-4.7490 -6.7556 -1.9408 0.9666
-2.1126 -8.0638 -1.9591 0.9663
-1.3901 -8.2412 -1.9642 0.9662
-0.6528 -8.3543 -1.9694 0.9662
2.3286 -8.1438 -1.9907 0.9658
3.0522 -7.9248 -1.9959 0.9657
3.7549 -7.6411 -2.0009 0.9656
5.0744 -6.8871 -2.0105 0.9655
6.2416 -5.9033 -2.0191 0.9653
8.2054 -4.3786 -2.1859 0.9625
9.0997 -2.0617 -2.1928 0.9624
9.2526 -1.2444 -2.1941 0.9624
9.3299 -0.4160 -2.1949 0.9624
9.2555 1.2447 -2.1948 0.9624
9.1045 2.0628 -2.1940 0.9624
8.8791 2.8631 -2.1926 0.9624
8.5816 3.6389 -2.1907 0.9624
7.7816 5.0905 -2.1854 0.9625
7.2865 5.7541 -2.1821 0.9626
5.4761 7.4322 -2.1697 0.9628
4.7822 7.8726 -2.1649 0.9629
4.0530 8.2476 -2.1598 0.9629
3.2947 8.5545 -2.1545 0.9630
1.7169 8.9568 -2.1434 0.9632
0.9104 9.0499 -2.1377 0.9633
-1.5007 8.8968 -2.1205 0.9636
-2.2806 8.7049 -2.1149 0.9637
-3.0385 8.4456 -2.1095 0.9638
-4.4658 7.7350 -2.0991 0.9640
-5.1248 7.2900 -2.0943 0.9640
-6.3098 6.2399 -2.0856 0.9642
-8.6897 1.3664 -2.0674 0.9645
-8.4332 -2.5134 -2.0682 0.9645
-8.1823 -3.2565 -2.0697 0.9645
-7.8677 -3.9757 -2.0718 0.9644
-5.7488 -6.2156 -1.9898 0.9658
-5.0400 -6.5306 -1.9388 0.9667
-4.4481 -6.9679 -1.9428 0.9666
-3.8189 -7.3526 -1.9472 0.9665
-3.1567 -7.6815 -1.9518 0.9665
-2.4666 -7.9516 -1.9567 0.9664
-1.7536 -8.1605 -1.9617 0.9663
-1.0230 -8.3059 -1.9668 0.9662
1.2175 -8.3480 -1.9827 0.9659
1.9609 -8.2285 -1.9880 0.9658
3.4065 -7.7910 -1.9984 0.9657
4.0966 -7.4754 -2.0034 0.9656
5.9664 -6.1692 -2.0171 0.9653
6.5770 -5.6873 -2.0435 0.9649
7.9965 -4.7363 -2.1843 0.9625
8.7320 -3.2518 -2.1899 0.9624
8.9953 -2.4641 -2.1920 0.9624
9.1855 -1.6548 -2.1936 0.9624
9.3008 -0.8311 -2.1946 0.9624
8.4537 0.0000 -2.1888 0.9657
8.4200 0.7524 -2.1888 0.9657
8.3176 1.4985 -2.1882 0.9657
8.1475 2.2318 -2.1872 0.9657
7.9111 2.9461 -2.1858 0.9657
7.6107 3.6353 -2.1838 0.9658
6.3553 5.4956 -2.1754 0.9659
5.8313 6.0295 -2.1718 0.9659
4.0077 7.3132 -2.1592 0.9661
2.6358 7.8728 -2.1496 0.9663
1.9201 8.0572 -2.1446 0.9664
0.4589 8.2301 -2.1342 0.9665
-1.7192 8.0003 -2.1187 0.9668
-2.4187 7.7970 -2.1137 0.9668
-4.3634 6.8351 -2.0996 0.9670
-4.9444 6.4067 -2.0954 0.9671
-5.4846 5.9299 -2.0914 0.9672
-7.6796 2.2888 -2.0748 0.9674
-7.8476 1.5951 -2.0734 0.9675
-7.7673 -1.9427 -2.0730 0.9675
-7.5680 -2.6279 -2.0743 0.9674
-6.9947 -3.9351 -2.0780 0.9674
-6.6245 -4.5475 -2.0804 0.9673
-3.7615 -6.5152 -1.9479 0.9694
-0.5928 -7.5857 -1.9701 0.9690
1.4429 -7.5277 -1.9846 0.9688
2.7680 -7.1869 -1.9941 0.9687
5.2077 -5.8885 -2.0353 0.9680
6.0688 -5.7398 -2.1628 0.9661
6.5900 -5.2041 -2.1742 0.9659
7.0379 -4.6040 -2.1775 0.9658
7.7622 -3.2915 -2.1830 0.9658
8.0321 -2.5900 -2.1851 0.9657
8.3749 -1.1263 -2.1879 0.9657
8.2409 1.8671 -2.1878 0.9657
8.0374 2.5917 -2.1866 0.9657
7.0461 4.6094 -2.1801 0.9658
6.5988 5.2110 -2.1770 0.9659
4.9619 6.7344 -2.1658 0.9660
4.3341 7.1349 -2.1615 0.9661
2.2798 7.9731 -2.1471 0.9663
0.0917 8.2323 -2.1316 0.9666
-0.6398 8.1878 -2.1264 0.9666
-2.0714 7.9063 -2.1162 0.9668
-4.0589 7.0301 -2.1018 0.9670
-5.2199 6.1741 -2.0933 0.9671
-6.6322 4.5528 -2.0829 0.9673
-7.0017 3.9391 -2.0801 0.9674
-7.3161 3.2964 -2.0777 0.9674
-7.9853 0.5345 -2.0722 0.9675
-7.9529 -0.8897 -2.0720 0.9675
-7.8444 -1.5944 -2.0726 0.9675
-7.6751 -2.2874 -2.0736 0.9675
-7.1593 -3.6178 -2.0769 0.9674
-6.8163 -4.2453 -2.0792 0.9674
-6.4196 -4.8413 -2.0818 0.9673
-5.9719 -5.4013 -2.0849 0.9673
-5.4692 -5.9132 -2.0855 0.9673
-4.7921 -6.2093 -2.0308 0.9681
-4.0440 -6.3348 -1.9459 0.9694
-2.2410 -7.2244 -1.9585 0.9692
-1.5928 -7.4124 -1.9630 0.9692
-0.9290 -7.5427 -1.9677 0.9691
-0.2546 -7.6139 -1.9725 0.9690
3.0890 -7.0647 -1.9964 0.9686
6.3349 -5.4780 -2.1684 0.9660
6.8207 -4.9093 -2.1759 0.9659
7.2411 -4.2889 -2.1790 0.9658
7.6037 -3.6320 -2.1818 0.9658
8.3144 -1.4979 -2.1874 0.9657
8.4184 -0.7523 -2.1884 0.9657
7.7132 0.0000 -2.1835 0.9684
7.6825 0.6865 -2.1835 0.9684
7.2190 2.6884 -2.1808 0.9685
6.2336 4.4867 -2.1743 0.9686
5.8017 5.0169 -2.1713 0.9686
5.3241 5.5051 -2.1681 0.9687
4.2491 6.3401 -2.1607 0.9688
3.6610 6.6805 -2.1566 0.9688
2.4087 7.1944 -2.1478 0.9690
1.0902 7.4751 -2.1385 0.9691
-0.2513 7.5163 -2.1290 0.9692
-0.9172 7.4475 -2.1243 0.9693
-2.2134 7.1354 -2.1150 0.9694
-3.9954 6.2587 -2.1021 0.9696
-4.5283 5.8674 -2.0982 0.9697
-5.0238 5.4317 -2.0945 0.9697
-5.8891 4.4412 -2.0881 0.9698
-6.2529 3.8943 -2.0854 0.9698
-6.5671 3.3185 -2.0830 0.9699
-6.8298 2.7182 -2.0810 0.9699
-7.0390 2.0978 -2.0793 0.9699
-7.1934 1.4621 -2.0780 0.9699
-7.2919 0.8157 -2.0772 0.9700
-6.9369 -2.4088 -2.0788 0.9699
-6.0706 -4.1672 -2.0845 0.9699
-5.6827 -4.6969 -2.0871 0.9698
-4.2497 -6.0452 -2.0919 0.9697
-3.5859 -6.2110 -2.0303 0.9706
-2.9054 -6.2611 -1.9540 0.9717
-2.3413 -6.5079 -1.9579 0.9717
0.6999 -6.9570 -1.9794 0.9714
2.5297 -6.5682 -1.9925 0.9712
3.6798 -6.0578 -2.0065 0.9710
4.3982 -5.9693 -2.0990 0.9696
5.0510 -5.7112 -2.1584 0.9688
6.0163 -4.7510 -2.1702 0.9686
6.7812 -3.6186 -2.1759 0.9686
7.0839 -3.0039 -2.1783 0.9685
7.3296 -2.3635 -2.1802 0.9685
7.6416 -1.0277 -2.1828 0.9685
7.7050 -0.3436 -2.1834 0.9684
7.5194 1.7036 -2.1826 0.9685
7.3341 2.3649 -2.1815 0.9685
6.7875 3.6219 -2.1780 0.9685
6.4312 4.2071 -2.1756 0.9686
6.0236 4.7568 -2.1728 0.9686
5.5684 5.2665 -2.1697 0.9686
5.0695 5.7322 -2.1663 0.9687
4.5314 6.1501 -2.1626 0.9687
3.3565 6.8302 -2.1545 0.9689
2.7297 7.0874 -2.1501 0.9689
2.0836 7.2868 -2.1455 0.9690
0.7553 7.5079 -2.1362 0.9691
0.0839 7.5285 -2.1314 0.9692
-0.5852 7.4893 -2.1266 0.9693
-3.7163 6.4367 -2.1041 0.9696
-4.2663 6.0688 -2.1001 0.9696
-4.7809 5.6549 -2.0963 0.9697
-5.2564 5.1982 -2.0928 0.9697
-5.6895 4.7025 -2.0896 0.9698
-6.4163 3.6098 -2.0841 0.9699
-6.7050 3.0211 -2.0819 0.9699
-6.9412 2.4102 -2.0801 0.9699
-7.2497 1.1399 -2.0776 0.9700
-7.2904 -0.8156 -2.0767 0.9700
-6.5616 -3.3157 -2.0812 0.9699
-5.8825 -4.4362 -2.0858 0.9698
-5.4716 -4.9487 -2.0885 0.9698
-4.5177 -5.8538 -2.0933 0.9697
-3.2306 -6.2200 -1.9842 0.9713
-1.4577 -6.7833 -1.9641 0.9716
0.3888 -6.9735 -1.9772 0.9714
1.0102 -6.9267 -1.9816 0.9713
1.6263 -6.8244 -1.9860 0.9713
2.2322 -6.6672 -1.9904 0.9712
2.8227 -6.4558 -1.9946 0.9711
3.3931 -6.1917 -1.9988 0.9711
5.3126 -5.4932 -2.1634 0.9687
6.6094 -3.9147 -2.1746 0.9686
7.4304 -2.0354 -2.1810 0.9685
7.6811 -0.6864 -2.1831 0.9684
6.9709 1.2559 -2.1786 0.9708
6.8288 1.8706 -2.1778 0.9708
6.6314 2.4696 -2.1765 0.9708
6.3805 3.0477 -2.1749 0.9708
5.7276 4.1225 -2.1706 0.9709
4.8931 5.0594 -2.1649 0.9710
3.9062 5.8285 -2.1581 0.9711
3.3661 6.1423 -2.1543 0.9711
2.8009 6.4058 -2.1504 0.9712
2.2154 6.6170 -2.1463 0.9712
1.0031 6.8775 -2.1377 0.9713
-1.4483 6.7396 -2.1203 0.9716
-3.1589 6.0820 -2.1080 0.9717
-3.6811 5.7663 -2.1042 0.9718
-4.6298 5.0057 -2.0972 0.9719
-5.7644 3.5901 -2.0888 0.9720
-6.6333 1.3483 -2.0820 0.9721
-6.7244 0.7522 -2.0812 0.9721
-6.7496 -0.4518 -2.0807 0.9721
-6.6836 -1.0509 -2.0810 0.9721
-6.5656 -1.6422 -2.0817 0.9721
-6.3966 -2.2211 -2.0827 0.9721
-6.1777 -2.7835 -2.0841 0.9720
-5.9104 -3.3251 -2.0859 0.9720
-5.5966 -3.8418 -2.0879 0.9720
-5.2385 -4.3297 -2.0904 0.9720
-4.8386 -4.7850 -2.0931 0.9719
-4.3998 -5.2041 -2.0961 0.9719
-3.9253 -5.5838 -2.0993 0.9718
-1.6304 -6.2232 -1.9787 0.9734
-0.4992 -6.3889 -1.9711 0.9735
0.0715 -6.4211 -1.9751 0.9735
0.6441 -6.4024 -1.9792 0.9734
1.2139 -6.3327 -1.9832 0.9734
2.3680 -6.1483 -2.0265 0.9728
2.9966 -6.0979 -2.0898 0.9720
3.6230 -5.9644 -2.1464 0.9712
4.6532 -5.2614 -2.1604 0.9710
5.1109 -4.8339 -2.1637 0.9710
5.5288 -4.3661 -2.1668 0.9709
6.2304 -3.3247 -2.1721 0.9709
6.5080 -2.7596 -2.1742 0.9709
6.7332 -2.1712 -2.1760 0.9708
6.9041 -1.5643 -2.1774 0.9708
6.7369 2.1724 -2.1772 0.9708
5.9089 3.8654 -2.1718 0.9709
4.1654 5.6533 -2.1599 0.9710
3.6396 5.9915 -2.1562 0.9711
1.9165 6.7025 -2.1442 0.9712
1.3098 6.8329 -2.1399 0.9713
-1.1478 6.8044 -2.1224 0.9715
-2.8875 6.2225 -2.1099 0.9717
-4.4057 5.2110 -2.0989 0.9718
-5.2443 4.3345 -2.0927 0.9719
-5.6021 3.8456 -2.0900 0.9720
-6.5684 1.6429 -2.0825 0.9721
-6.6854 1.0512 -2.0815 0.9721
-6.6310 -1.3478 -2.0813 0.9721
-5.7592 -3.5869 -2.0869 0.9720
-5.4229 -4.0896 -2.0891 0.9720
-3.1463 -6.0577 -2.0995 0.9718
-1.3423 -6.2464 -1.9651 0.9736
-0.7825 -6.3538 -1.9691 0.9736
0.3579 -6.4181 -1.9771 0.9735
0.9296 -6.3739 -1.9812 0.9734
1.4963 -6.2787 -1.9853 0.9733
2.0662 -6.1715 -2.0018 0.9731
2.6776 -6.1238 -2.0557 0.9724
3.3236 -6.0647 -2.1271 0.9715
4.4105 -5.4590 -2.1586 0.9711
5.3251 -4.6048 -2.1653 0.9710
5.7216 -4.1182 -2.1683 0.9709
6.0728 -3.5969 -2.1709 0.9709
6.3756 -3.0454 -2.1732 0.9709
6.6273 -2.4680 -2.1752 0.9708
6.9687 -1.2555 -2.1779 0.9708
6.5179 0.5824 -2.1752 0.9728
6.4390 1.1600 -2.1748 0.9728
6.1259 2.2813 -2.1729 0.9728
5.8944 2.8155 -2.1714 0.9728
5.6157 3.3262 -2.1695 0.9729
4.9264 4.2600 -2.1649 0.9729
4.5219 4.6756 -2.1621 0.9730
4.0821 5.0525 -2.1591 0.9730
3.6107 5.3876 -2.1559 0.9730
2.5897 5.9228 -2.1488 0.9731
0.9278 6.3618 -2.1371 0.9733
-0.7814 6.3446 -2.1249 0.9734
-1.8869 6.0828 -2.1170 0.9735
-2.9251 5.6318 -2.1095 0.9736
-3.8647 5.0076 -2.1027 0.9737
-4.2887 4.6369 -2.0995 0.9737
-5.6108 2.8353 -2.0897 0.9738
-5.8360 2.3227 -2.0879 0.9739
-6.0155 1.7928 -2.0865 0.9739
-6.1480 1.2496 -2.0854 0.9739
-6.2560 -0.4188 -2.0842 0.9739
-6.0853 -1.5220 -2.0851 0.9739
-5.1860 -3.5600 -2.0909 0.9738
-4.8538 -4.0117 -2.0932 0.9738
-4.4828 -4.4332 -2.0957 0.9738
-3.6358 -5.1721 -2.1015 0.9737
-2.6696 -5.7529 -2.1082 0.9736
-2.1470 -5.9677 -2.1082 0.9736
-1.6080 -6.1378 -2.1091 0.9736
-1.0464 -6.2032 -2.0911 0.9738
0.0692 -6.2088 -2.0640 0.9742
0.6238 -6.2012 -2.0717 0.9741
1.1859 -6.1867 -2.0939 0.9738
2.3118 -6.0025 -2.1381 0.9733
3.3597 -5.5309 -2.1511 0.9731
3.8450 -5.2185 -2.1546 0.9730
4.3008 -4.8630 -2.1580 0.9730
5.7563 -3.0717 -2.1688 0.9729
6.0123 -2.5494 -2.1708 0.9728
6.2200 -2.0057 -2.1724 0.9728
6.4836 -0.8720 -2.1746 0.9728
6.5371 -0.2915 -2.1751 0.9728
6.3799 1.4455 -2.1745 0.9728
5.4593 3.5713 -2.1685 0.9729
5.1143 4.0387 -2.1662 0.9729
4.7288 4.4725 -2.1636 0.9729
3.3645 5.5387 -2.1542 0.9731
2.3213 6.0270 -2.1469 0.9731
0.6429 6.3908 -2.1351 0.9733
-0.4985 6.3792 -2.1269 0.9734
-1.6155 6.1665 -2.1189 0.9735
-2.6736 5.7615 -2.1113 0.9736
-3.1704 5.4913 -2.1077 0.9736
-4.0809 4.8269 -2.1011 0.9737
-4.8587 4.0158 -2.0953 0.9738
-5.1907 3.5632 -2.0928 0.9738
-5.4815 3.0838 -2.0906 0.9738
-6.0877 1.5226 -2.0859 0.9739
-6.2567 0.4188 -2.0844 0.9739
-6.2684 -0.1397 -2.0842 0.9739
-6.2314 -0.6971 -2.0843 0.9739
-5.8326 -2.3213 -2.0867 0.9739
-3.8598 -5.0013 -2.1000 0.9737
-3.4044 -5.3329 -2.1031 0.9737
-2.4106 -5.8658 -2.1081 0.9736
0.3460 -6.2053 -2.0659 0.9741
0.9037 -6.1962 -2.0814 0.9740
1.4712 -6.1734 -2.1096 0.9736
2.0391 -6.0904 -2.1349 0.9733
2.5809 -5.9027 -2.1414 0.9732
5.2869 -3.8053 -2.1653 0.9729
5.6109 -3.3234 -2.1677 0.9729
6.1223 -2.2800 -2.1716 0.9728
6.3051 -1.7272 -2.1731 0.9728
5.8546 1.6037 -2.1708 0.9745
4.9128 3.5360 -2.1646 0.9746
4.5737 3.9551 -2.1623 0.9746
3.7906 4.6917 -2.1570 0.9747
3.3533 5.0034 -2.1539 0.9747
2.8903 5.2741 -2.1507 0.9748
1.9033 5.6847 -2.1438 0.9749
0.3320 5.9546 -2.1327 0.9750
-0.7264 5.8982 -2.1252 0.9751
-1.7546 5.6563 -2.1178 0.9752
-2.2473 5.4685 -2.1143 0.9752
-2.7207 5.2383 -2.1108 0.9752
-3.9904 4.3143 -2.1016 0.9753
-5.4321 2.1619 -2.0907 0.9755
-5.5994 1.6688 -2.0894 0.9755
-5.8018 0.6490 -2.0877 0.9755
-5.8355 0.1300 -2.0873 0.9755
-5.8237 -0.3899 -2.0873 0.9755
-5.0979 -2.8680 -2.0918 0.9755
-4.8266 -3.3133 -2.0936 0.9754
-4.5170 -3.7334 -2.0956 0.9754
-4.1715 -4.1252 -2.0980 0.9754
-3.7924 -4.4857 -2.1006 0.9754
-3.3827 -4.8119 -2.1034 0.9753
-2.9452 -5.1012 -2.1064 0.9753
-2.4832 -5.3512 -2.1097 0.9753
-1.5000 -5.7254 -2.1165 0.9752
0.0662 -5.9401 -2.1244 0.9751
0.5957 -5.9217 -2.1283 0.9750
1.1229 -5.8581 -2.1330 0.9750
3.5710 -4.8465 -2.1528 0.9748
3.9939 -4.5159 -2.1559 0.9747
4.3858 -4.1481 -2.1588 0.9747
4.7434 -3.7459 -2.1614 0.9747
5.0636 -3.3125 -2.1638 0.9746
5.7733 -1.8617 -2.1693 0.9746
5.9193 -1.3412 -2.1704 0.9745
6.0675 0.2705 -2.1719 0.9745
5.3475 2.8535 -2.1675 0.9746
5.0679 3.3153 -2.1657 0.9746
4.7480 3.7494 -2.1635 0.9746
3.9985 4.5212 -2.1584 0.9747
2.6504 5.3935 -2.1490 0.9748
1.6467 5.7590 -2.1420 0.9749
-0.9876 5.8549 -2.1233 0.9751
-1.5022 5.7337 -2.1196 0.9751
-2.9490 5.1078 -2.1092 0.9753
-3.3868 4.8178 -2.1060 0.9753
-3.7968 4.4908 -2.1030 0.9753
-4.1759 4.1296 -2.1002 0.9754
-4.5213 3.7370 -2.0976 0.9754
-5.3323 2.4026 -2.0915 0.9755
-5.6667 1.4173 -2.0889 0.9755
-5.8353 -0.1300 -2.0873 0.9755
-5.8008 -0.6489 -2.0874 0.9755
-5.5970 -1.6681 -2.0885 0.9755
-5.4291 -2.1607 -2.0896 0.9755
-4.9671 -3.0936 -2.0926 0.9754
-4.3486 -3.9331 -2.0968 0.9754
-3.9860 -4.3096 -2.0993 0.9754
-3.5912 -4.6533 -2.1020 0.9753
-3.1672 -4.9613 -2.1049 0.9753
-2.7171 -5.2313 -2.1080 0.9753
-2.2442 -5.4609 -2.1113 0.9752
-1.7521 -5.6482 -2.1148 0.9752
-0.1983 -5.9323 -2.1226 0.9751
0.3310 -5.9366 -2.1263 0.9751
0.8598 -5.8956 -2.1306 0.9750
1.3844 -5.8091 -2.1355 0.9750
2.4022 -5.4941 -2.1443 0.9748
3.7861 -4.6861 -2.1544 0.9747
4.5691 -3.9511 -2.1601 0.9747
4.9084 -3.5329 -2.1627 0.9746
6.0484 -0.5405 -2.1716 0.9745
5.6599 -0.0000 -2.1690 0.9760
5.2990 1.9734 -2.1669 0.9761
5.0993 2.4357 -2.1656 0.9761
4.5793 3.2960 -2.1622 0.9761
3.5341 4.3743 -2.1550 0.9762
3.1267 4.6654 -2.1522 0.9762
2.2435 5.1311 -2.1461 0.9763
1.7752 5.3023 -2.1428 0.9763
0.8044 5.5154 -2.1360 0.9764
0.3098 5.5560 -2.1325 0.9764
-0.6780 5.5046 -2.1254 0.9765
-1.1633 5.4136 -2.1220 0.9766
-1.6379 5.2801 -2.1185 0.9766
-2.0981 5.1053 -2.1152 0.9766
-2.5403 4.8909 -2.1120 0.9767
-3.7268 4.0294 -2.1034 0.9768
-4.0658 3.6773 -2.1009 0.9768
-4.6439 2.8922 -2.0965 0.9768
-4.8787 2.4653 -2.0948 0.9769
-5.4526 0.1215 -2.0900 0.9769
-5.4416 -0.3643 -2.0900 0.9769
-4.9790 -2.2434 -2.0928 0.9769
-4.7627 -2.6795 -2.0942 0.9769
-4.5090 -3.0953 -2.0959 0.9768
-3.8964 -3.8533 -2.1000 0.9768
-2.7503 -4.7636 -2.1079 0.9767
-2.3187 -4.9966 -2.1109 0.9767
-1.4003 -5.3448 -2.1173 0.9766
0.5567 -5.5334 -2.1312 0.9765
1.5339 -5.3646 -2.1382 0.9764
2.0085 -5.2151 -2.1416 0.9763
3.7238 -4.2106 -2.1541 0.9762
4.4219 -3.4919 -2.1592 0.9762
4.7200 -3.0877 -2.1614 0.9761
5.2015 -2.2056 -2.1651 0.9761
5.5165 -1.2499 -2.1676 0.9761
5.6079 -0.7542 -2.1684 0.9761
5.6543 0.2521 -2.1690 0.9760
5.6090 0.7543 -2.1688 0.9760
5.3830 1.7358 -2.1675 0.9761
5.2044 2.2069 -2.1663 0.9761
4.4258 3.4950 -2.1611 0.9761
3.7278 4.2151 -2.1564 0.9762
3.3336 4.5244 -2.1537 0.9762
2.9138 4.7967 -2.1508 0.9762
2.0112 5.2220 -2.1445 0.9763
1.5361 5.3719 -2.1411 0.9764
0.0619 5.5597 -2.1307 0.9765
-0.4324 5.5339 -2.1272 0.9765
-1.8700 5.1978 -2.1169 0.9766
-3.1627 4.4990 -2.1075 0.9767
-3.5459 4.1941 -2.1047 0.9767
-3.9003 3.8571 -2.1021 0.9768
-4.2233 3.4906 -2.0997 0.9768
-4.7660 2.6813 -2.0956 0.9768
-4.9818 2.2447 -2.0940 0.9769
-5.1584 1.7912 -2.0926 0.9769
-5.2946 1.3243 -2.0915 0.9769
-5.4421 0.3643 -2.0902 0.9769
-5.2296 -1.5586 -2.0912 0.9769
-5.0725 -2.0188 -2.0922 0.9769
-3.3540 -4.3459 -2.1037 0.9768
-2.0953 -5.0987 -2.1125 0.9767
0.3094 -5.5481 -2.1294 0.9765
0.8033 -5.5076 -2.1330 0.9764
1.7728 -5.2951 -2.1399 0.9764
2.2406 -5.1244 -2.1433 0.9763
3.1230 -4.6598 -2.1497 0.9763
3.5302 -4.3694 -2.1526 0.9762
3.9101 -4.0431 -2.1554 0.9762
4.2596 -3.6834 -2.1580 0.9762
4.8552 -2.8757 -2.1625 0.9761
5.0962 -2.4342 -2.1643 0.9761
5.2964 -1.9724 -2.1658 0.9761
5.2721 0.4711 -2.1663 0.9774
4.2835 3.0831 -2.1600 0.9774
2.9256 4.3653 -2.1507 0.9775
2.0996 4.8019 -2.1450 0.9776
1.2114 5.0833 -2.1387 0.9777
0.2900 5.2017 -2.1322 0.9777
-1.0895 5.0700 -2.1224 0.9778
-1.5341 4.9454 -2.1192 0.9779
-1.9653 4.7822 -2.1161 0.9779
-2.7743 4.3459 -2.1102 0.9780
-3.1461 4.0765 -2.1075 0.9780
-4.3524 2.7107 -2.0986 0.9781
-2.1365 0.4343 -0.8923 0.9906
-2.1261 0.2378 -0.8756 0.9908
-2.1285 0.0474 -0.8714 0.9908
-2.1302 -0.1426 -0.8738 0.9908
-2.1345 -0.3356 -0.8843 0.9907
-4.8332 -1.6783 -2.0940 0.9781
-4.4641 -2.5115 -2.0964 0.9781
-3.6515 -3.6111 -2.1018 0.9780
-3.3192 -3.9260 -2.1041 0.9780
-2.9601 -4.2108 -2.1066 0.9780
-2.1722 -4.6810 -2.1120 0.9779
-1.3116 -5.0062 -2.1181 0.9779
-0.8621 -5.1107 -2.1212 0.9778
-0.4044 -5.1751 -2.1245 0.9778
0.0579 -5.1985 -2.1277 0.9778
0.9817 -5.1217 -2.1343 0.9777
1.4359 -5.0216 -2.1376 0.9777
1.8799 -4.8812 -2.1408 0.9776
2.3103 -4.7013 -2.1439 0.9776
2.7233 -4.4832 -2.1469 0.9776
3.1157 -4.2287 -2.1497 0.9776
4.6587 -2.4860 -2.1612 0.9774
4.8650 -2.0630 -2.1628 0.9774
5.0324 -1.6227 -2.1641 0.9774
5.1593 -1.1690 -2.1651 0.9774
5.2876 -0.2358 -2.1663 0.9774
5.2880 0.2358 -2.1664 0.9774
5.2456 0.7055 -2.1662 0.9774
5.1608 1.1693 -2.1657 0.9774
4.8676 2.0640 -2.1639 0.9774
4.6617 2.4875 -2.1625 0.9774
3.1191 4.2332 -2.1521 0.9775
2.7265 4.4884 -2.1493 0.9776
0.0580 5.2054 -2.1306 0.9778
-0.4049 5.1819 -2.1273 0.9778
-0.8632 5.1174 -2.1240 0.9778
-1.3132 5.0126 -2.1208 0.9779
-1.7516 4.8686 -2.1176 0.9779
-2.1748 4.6866 -2.1146 0.9779
-2.5797 4.4682 -2.1116 0.9779
-3.3225 3.9299 -2.1062 0.9780
-3.6549 3.6144 -2.1038 0.9780
-4.4670 2.5131 -2.0977 0.9781
-4.6695 2.1040 -2.0961 0.9781
-4.8352 1.6790 -2.0949 0.9781
-2.1302 0.1426 -0.8738 0.9908
-2.1285 -0.0474 -0.8714 0.9908
-2.1365 -0.4343 -0.8923 0.9906
-4.7547 -1.8924 -2.0945 0.9781
-4.5701 -2.3094 -2.0957 0.9781
-4.0944 -3.0877 -2.0988 0.9781
-1.5322 -4.9392 -2.1165 0.9779
-1.0881 -5.0634 -2.1196 0.9779
0.7520 -5.1564 -2.1327 0.9777
2.0970 -4.7961 -2.1423 0.9776
2.9223 -4.3604 -2.1483 0.9776
3.3031 -4.0883 -2.1511 0.9775
4.7666 -2.2768 -2.1620 0.9774
4.9537 -1.8448 -2.1634 0.9774
5.2072 -0.9381 -2.1655 0.9774
4.9654 -0.0000 -2.1640 0.9786
4.9457 0.4419 -2.1640 0.9786
4.7870 1.3113 -2.1631 0.9786
4.4745 2.1373 -2.1611 0.9786
3.4361 3.5529 -2.1541 0.9787
3.1030 3.8406 -2.1518 0.9787
1.5597 4.6587 -2.1411 0.9788
0.7070 4.8477 -2.1351 0.9789
0.2724 4.8844 -2.1320 0.9789
-0.5963 4.8412 -2.1258 0.9789
-1.0233 4.7621 -2.1228 0.9790
-2.6068 4.0834 -2.1113 0.9791
-2.9563 3.8306 -2.1088 0.9791
-4.0909 2.5478 -2.1004 0.9792
-4.2982 2.1720 -2.0988 0.9792
-4.4716 1.7796 -2.0975 0.9792
-1.9300 0.3923 -0.8583 0.9914
-1.9470 0.0434 -0.8487 0.9915
-1.9397 -0.3050 -0.8557 0.9915
-1.9080 -0.4772 -0.8571 0.9915
-1.8290 -0.6351 -0.8438 0.9916
-4.3870 -1.9767 -2.0970 0.9792
-4.1961 -2.3607 -2.0983 0.9792
-3.9722 -2.7268 -2.0998 0.9792
-3.4318 -3.3938 -2.1034 0.9792
-3.1193 -3.6895 -2.1056 0.9791
-2.7816 -3.9568 -2.1079 0.9791
-2.4212 -4.1937 -2.1104 0.9791
-0.8097 -4.8005 -2.1217 0.9790
0.0544 -4.8821 -2.1278 0.9789
0.9218 -4.8090 -2.1340 0.9789
1.3481 -4.7146 -2.1370 0.9788
1.7648 -4.5823 -2.1400 0.9788
2.1686 -4.4131 -2.1430 0.9788
3.2697 -3.6971 -2.1510 0.9787
3.5897 -3.3951 -2.1533 0.9787
3.8815 -3.0652 -2.1555 0.9787
4.1427 -2.7100 -2.1574 0.9786
4.5643 -1.9354 -2.1607 0.9786
4.7211 -1.5224 -2.1619 0.9786
4.9200 -0.6617 -2.1635 0.9786
4.9603 -0.2212 -2.1639 0.9786
4.9606 0.2212 -2.1641 0.9786
4.9208 0.6618 -2.1639 0.9786
4.8414 1.0969 -2.1634 0.9786
4.7230 1.5230 -2.1627 0.9786
4.5666 1.9364 -2.1617 0.9786
3.8846 3.0676 -2.1572 0.9786
3.5928 3.3980 -2.1552 0.9787
2.9272 3.9728 -2.1506 0.9787
2.5589 4.2125 -2.1481 0.9787
2.1711 4.4180 -2.1454 0.9787
1.7669 4.5877 -2.1425 0.9788
1.3497 4.7203 -2.1396 0.9788
0.4900 4.8709 -2.1336 0.9789
-0.3803 4.8665 -2.1274 0.9789
-0.8107 4.8064 -2.1243 0.9790
-1.2336 4.7084 -2.1213 0.9790
-2.4238 4.1981 -2.1127 0.9791
-3.1222 3.6929 -2.1076 0.9791
-3.4347 3.3967 -2.1053 0.9791
-3.9750 2.7287 -2.1012 0.9792
-1.9397 0.3050 -0.8557 0.9915
-1.9470 -0.0434 -0.8487 0.9915
-1.9433 -0.2174 -0.8522 0.9915
-1.9300 -0.3923 -0.8583 0.9914
-1.8741 -0.5585 -0.8523 0.9915
-4.2958 -2.1708 -2.0976 0.9792
-4.0882 -2.5462 -2.0990 0.9792
-2.6041 -4.0792 -2.1091 0.9791
-1.4394 -4.6400 -2.1173 0.9790
-1.0221 -4.7563 -2.1202 0.9790
-0.1630 -4.8761 -2.1263 0.9789
0.2720 -4.8783 -2.1294 0.9789
0.7062 -4.8418 -2.1325 0.9789
1.1359 -4.7666 -2.1355 0.9788
1.9686 -4.5022 -2.1415 0.9788
2.3646 -4.3149 -2.1444 0.9788
2.7428 -4.0926 -2.1471 0.9787
3.7393 -3.2335 -2.1544 0.9787
4.0161 -2.8906 -2.1565 0.9786
4.2610 -2.5238 -2.1583 0.9786
4.4721 -2.1362 -2.1599 0.9786
4.8849 -0.8801 -2.1632 0.9786
4.9451 -0.4419 -2.1638 0.9786
4.6706 -0.0000 -2.1619 0.9796
4.5959 0.8280 -2.1616 0.9796
4.5028 1.2334 -2.1611 0.9796
4.3735 1.6287 -2.1603 0.9796
4.2091 2.0105 -2.1592 0.9796
4.0110 2.3758 -2.1579 0.9797
3.7810 2.7214 -2.1564 0.9797
3.5209 3.0446 -2.1546 0.9797
3.2330 3.3428 -2.1526 0.9797
2.2277 4.0650 -2.1457 0.9798
1.8548 4.2420 -2.1431 0.9798
0.6656 4.5635 -2.1347 0.9799
0.2564 4.5984 -2.1318 0.9799
-0.1537 4.5966 -2.1289 0.9799
-0.5614 4.5585 -2.1260 0.9800
-1.3571 4.3749 -2.1203 0.9800
-1.7389 4.2313 -2.1175 0.9800
-2.1059 4.0546 -2.1149 0.9801
-2.4555 3.8465 -2.1123 0.9801
-3.3737 3.0513 -2.1056 0.9801
-3.6286 2.7365 -2.1037 0.9802
-3.8547 2.4007 -2.1020 0.9802
-4.0502 2.0466 -2.1005 0.9802
-1.5257 0.6072 -0.7601 0.9928
-1.5924 0.4746 -0.7692 0.9927
-1.6675 0.1865 -0.7767 0.9926
-1.6716 0.0372 -0.7739 0.9927
-4.1341 -1.8627 -2.0989 0.9802
-3.9541 -2.2245 -2.1001 0.9802
-3.7429 -2.5694 -2.1015 0.9802
-3.5021 -2.8945 -2.1031 0.9802
-2.6204 -3.7276 -2.1091 0.9801
-2.2808 -3.9504 -2.1115 0.9801
-0.3576 -4.5767 -2.1250 0.9800
0.0512 -4.5967 -2.1279 0.9799
1.6611 -4.3130 -2.1394 0.9798
2.0410 -4.1534 -2.1421 0.9798
2.4056 -3.9601 -2.1448 0.9798
2.7517 -3.7346 -2.1473 0.9798
3.3775 -3.1944 -2.1519 0.9797
3.6519 -2.8839 -2.1539 0.9797
3.8973 -2.5495 -2.1557 0.9797
4.2936 -1.8207 -2.1588 0.9797
4.5528 -1.0315 -2.1608 0.9796
4.6657 -0.2081 -2.1618 0.9796
4.6660 0.2081 -2.1620 0.9796
4.6286 0.6225 -2.1618 0.9796
4.5539 1.0318 -2.1614 0.9796
4.1142 2.1954 -2.1586 0.9797
3.8999 2.5512 -2.1571 0.9797
3.6545 2.8860 -2.1555 0.9797
3.3802 3.1970 -2.1536 0.9797
3.0793 3.4818 -2.1516 0.9797
2.4080 3.9641 -2.1469 0.9798
0.4613 4.5855 -2.1333 0.9799
-0.3581 4.5821 -2.1274 0.9799
-1.1617 4.4340 -2.1217 0.9800
-1.9244 4.1470 -2.1162 0.9801
-2.6229 3.7311 -2.1111 0.9801
-2.9413 3.4790 -2.1088 0.9801
-3.7453 2.5710 -2.1028 0.9802
-3.9563 2.2258 -2.1012 0.9802
-4.1360 1.8636 -2.0999 0.9802
-1.5621 0.5424 -0.7654 0.9927
-1.6738 0.1120 -0.7765 0.9926
-1.6675 -0.1865 -0.7767 0.9926
-1.5924 -0.4746 -0.7692 0.9927
-1.5257 -0.6073 -0.7601 0.9928
-3.8523 -2.3992 -2.1007 0.9802
-3.3711 -3.0489 -2.1040 0.9802
-2.4531 -3.8427 -2.1103 0.9801
-1.7370 -4.2267 -2.1153 0.9801
-1.3556 -4.3701 -2.1179 0.9800
0.2561 -4.5930 -2.1293 0.9799
0.6648 -4.5582 -2.1322 0.9799
2.2254 -4.0609 -2.1435 0.9798
2.5811 -3.8513 -2.1460 0.9798
3.5181 -3.0422 -2.1529 0.9797
4.2070 -2.0095 -2.1581 0.9797
4.3860 0.3919 -2.1600 0.9806
4.1237 1.5357 -2.1585 0.9806
3.7821 2.2402 -2.1562 0.9806
3.5653 2.5662 -2.1548 0.9806
3.0489 3.1525 -2.1513 0.9807
2.7536 3.4081 -2.1492 0.9807
2.1012 3.8343 -2.1447 0.9807
1.7496 4.0015 -2.1423 0.9807
1.3849 4.1364 -2.1397 0.9808
0.6280 4.3057 -2.1344 0.9808
-0.1450 4.3376 -2.1289 0.9808
-0.5298 4.3019 -2.1262 0.9809
-0.9095 4.2323 -2.1234 0.9809
-1.2809 4.1294 -2.1208 0.9809
-1.6414 3.9941 -2.1182 0.9809
-2.6293 3.4069 -2.1110 0.9810
-2.9192 3.1562 -2.1089 0.9810
-3.1855 2.8812 -2.1069 0.9810
-1.3059 0.5197 -0.6895 0.9938
-1.3200 0.3934 -0.6756 0.9939
-1.3047 0.2652 -0.6531 0.9941
-1.3419 0.1501 -0.6624 0.9940
-1.3257 -0.2085 -0.6583 0.9940
-1.3149 -0.3289 -0.6649 0.9940
-3.5346 -2.4263 -2.1030 0.9811
-3.3070 -2.7333 -2.1045 0.9811
-3.0531 -3.0193 -2.1062 0.9811
-2.7747 -3.2820 -2.1081 0.9810
-2.4740 -3.5194 -2.1102 0.9810
-2.1533 -3.7295 -2.1124 0.9810
-1.8148 -3.9107 -2.1148 0.9810
-1.4612 -4.0615 -2.1173 0.9810
-0.3375 -4.3193 -2.1252 0.9809
0.0483 -4.3378 -2.1279 0.9809
0.4348 -4.3219 -2.1307 0.9808
2.2691 -3.7354 -2.1439 0.9807
2.5954 -3.5225 -2.1462 0.9807
2.9016 -3.2809 -2.1485 0.9807
3.4438 -2.7196 -2.1525 0.9806
3.8773 -2.0690 -2.1557 0.9806
4.3990 -0.1962 -2.1599 0.9806
4.3640 0.5869 -2.1599 0.9806
4.2936 0.9728 -2.1595 0.9806
4.1888 1.3507 -2.1589 0.9806
3.8793 2.0701 -2.1569 0.9806
3.6774 2.4056 -2.1555 0.9806
3.4462 2.7214 -2.1540 0.9806
1.9273 3.9219 -2.1435 0.9807
1.5687 4.0731 -2.1410 0.9807
1.1985 4.1914 -2.1384 0.9808
0.8197 4.2761 -2.1357 0.9808
0.4353 4.3266 -2.1330 0.9808
0.0484 4.3426 -2.1303 0.9808
-0.3379 4.3241 -2.1275 0.9809
-1.0964 4.1849 -2.1221 0.9809
-1.8166 3.9146 -2.1169 0.9810
-2.4763 3.5225 -2.1121 0.9810
-3.7361 2.1019 -2.1028 0.9811
-1.3171 0.4573 -0.6839 0.9938
-1.3513 0.0905 -0.6643 0.9940
-1.3419 -0.1501 -0.6624 0.9940
-1.3047 -0.2652 -0.6531 0.9941
-1.3059 -0.5198 -0.6895 0.9938
-3.8229 -1.9318 -2.1011 0.9811
-3.4242 -2.5823 -2.1037 0.9811
-2.3160 -3.6280 -2.1113 0.9810
-1.9861 -3.8239 -2.1136 0.9810
-1.2796 -4.1250 -2.1185 0.9809
-0.9085 -4.2278 -2.1211 0.9809
-0.5293 -4.2972 -2.1238 0.9809
0.2417 -4.3341 -2.1293 0.9808
0.6273 -4.3010 -2.1320 0.9808
1.0089 -4.2335 -2.1348 0.9808
1.3834 -4.1321 -2.1375 0.9808
1.7478 -3.9974 -2.1401 0.9807
2.7512 -3.4052 -2.1474 0.9807
3.7800 -2.2389 -2.1550 0.9806
3.9668 -1.8948 -2.1564 0.9806
4.2442 -1.1626 -2.1586 0.9806
4.3323 -0.7805 -2.1593 0.9806
4.0939 0.7376 -2.1580 0.9814
3.8961 1.4509 -2.1568 0.9814
3.7499 1.7911 -2.1559 0.9814
3.3689 2.4248 -2.1533 0.9815
2.6022 3.2208 -2.1481 0.9815
1.9860 3.6240 -2.1438 0.9816
1.3091 3.9100 -2.1391 0.9816
0.9548 4.0063 -2.1366 0.9816
0.5937 4.0706 -2.1341 0.9816
-0.8600 4.0023 -2.1237 0.9817
-1.5524 3.7775 -2.1187 0.9818
-2.7616 2.9858 -2.1099 0.9818
-3.0137 2.7258 -2.1081 0.9819
-1.1070 0.4406 -0.6181 0.9946
-1.1266 0.3358 -0.6099 0.9947
-1.1649 0.1303 -0.6081 0.9947
-1.1739 -0.0786 -0.6103 0.9947
-1.1517 -0.1811 -0.6048 0.9948
-3.5332 -1.9878 -2.1031 0.9819
-3.3442 -2.2957 -2.1044 0.9819
-2.8885 -2.8565 -2.1075 0.9819
-2.3404 -3.3293 -2.1112 0.9818
-1.7165 -3.6991 -2.1155 0.9818
-1.0358 -3.9537 -2.1203 0.9818
-0.6806 -4.0350 -2.1228 0.9817
0.0457 -4.1016 -2.1280 0.9817
1.1318 -3.9582 -2.1357 0.9816
1.4814 -3.8462 -2.1382 0.9816
2.4529 -3.3292 -2.1453 0.9815
3.0101 -2.8469 -2.1494 0.9815
3.4727 -2.2717 -2.1528 0.9815
3.6636 -1.9550 -2.1542 0.9815
3.8252 -1.6220 -2.1555 0.9815
3.9563 -1.2758 -2.1565 0.9814
4.0556 -0.9189 -2.1573 0.9814
4.1224 -0.5544 -2.1579 0.9814
4.1561 -0.1853 -2.1582 0.9814
4.1563 0.1853 -2.1583 0.9814
3.8268 1.6227 -2.1564 0.9814
3.6654 1.9559 -2.1553 0.9815
3.2564 2.5715 -2.1526 0.9815
2.4550 3.3320 -2.1471 0.9815
2.1466 3.5337 -2.1450 0.9815
1.8216 3.7069 -2.1427 0.9816
1.1330 3.9622 -2.1379 0.9816
0.4115 4.0905 -2.1328 0.9816
0.0457 4.1059 -2.1302 0.9817
-0.3195 4.0887 -2.1276 0.9817
-0.6813 4.0391 -2.1250 0.9817
-1.0369 3.9577 -2.1225 0.9817
-2.6271 3.1073 -2.1109 0.9818
-2.8906 2.8585 -2.1090 0.9818
-3.1309 2.5877 -2.1072 0.9819
-3.3462 2.2970 -2.1056 0.9819
-1.0898 0.4910 -0.6201 0.9946
-1.1198 0.3888 -0.6150 0.9947
-1.1275 0.2820 -0.6029 0.9948
-1.1517 0.1811 -0.6048 0.9948
-1.1739 0.0786 -0.6103 0.9947
-1.1785 -0.0263 -0.6115 0.9947
-1.1649 -0.1303 -0.6081 0.9947
-1.1266 -0.3358 -0.6099 0.9947
-1.0665 -0.5390 -0.6199 0.9946
-3.4421 -2.1438 -2.1037 0.9819
-1.8786 -3.6170 -2.1144 0.9818
-0.8592 -3.9983 -2.1216 0.9817
-0.5005 -4.0637 -2.1241 0.9817
-0.1370 -4.0971 -2.1267 0.9817
0.2285 -4.0980 -2.1293 0.9817
0.9538 -4.0023 -2.1344 0.9816
1.3078 -3.9061 -2.1370 0.9816
1.6522 -3.7786 -2.1395 0.9816
2.3010 -3.4334 -2.1442 0.9815
2.6001 -3.2182 -2.1463 0.9815
3.5717 -2.1155 -2.1535 0.9815
3.8947 -1.4504 -2.1560 0.9814
4.0100 -1.0985 -2.1569 0.9814
2.0429 0.0000 -1.1189 0.9907
2.0036 0.3610 -1.1150 0.9908
3.1890 2.2953 -2.1520 0.9822
2.7276 2.8203 -2.1489 0.9823
2.1805 3.2535 -2.1451 0.9823
1.8804 3.4313 -2.1430 0.9823
1.5659 3.5814 -2.1408 0.9823
0.9042 3.7940 -2.1362 0.9824
0.5623 3.8551 -2.1338 0.9824
0.2166 3.8854 -2.1313 0.9824
-0.1299 3.8848 -2.1289 0.9824
-0.8147 3.7915 -2.1240 0.9825
-1.1477 3.6997 -2.1216 0.9825
-3.0723 2.3169 -2.1076 0.9826
-0.9364 0.4732 -0.5746 0.9952
-0.9825 0.2928 -0.5615 0.9953
-1.0415 0.0232 -0.5706 0.9953
-1.0166 -0.1599 -0.5637 0.9953
-0.9756 -0.3388 -0.5656 0.9953
-0.9472 -0.4268 -0.5690 0.9953
-3.1696 -2.1758 -2.1056 0.9826
-2.9653 -2.4509 -2.1070 0.9826
-2.7374 -2.7071 -2.1086 0.9826
-2.4876 -2.9423 -2.1103 0.9826
-2.2178 -3.1548 -2.1121 0.9826
-1.6264 -3.5049 -2.1162 0.9825
-1.3094 -3.6395 -2.1185 0.9825
-0.9813 -3.7457 -2.1208 0.9825
-0.6448 -3.8224 -2.1231 0.9825
0.3894 -3.8703 -2.1305 0.9824
1.0718 -3.7485 -2.1353 0.9824
1.7233 -3.5068 -2.1400 0.9823
2.0307 -3.3429 -2.1423 0.9823
2.3224 -3.1521 -2.1444 0.9823
3.0807 -2.4328 -2.1500 0.9823
3.2873 -2.1505 -2.1515 0.9822
1.9895 -0.6415 -1.1449 0.9905
2.0434 -0.0911 -1.1203 0.9907
2.0226 0.2720 -1.1178 0.9907
2.0041 0.4541 -1.1255 0.9907
1.9407 0.8229 -1.1546 0.9904
3.0826 2.4343 -2.1513 0.9822
2.8516 2.6970 -2.1497 0.9823
2.5981 2.9378 -2.1480 0.9823
2.3243 3.1546 -2.1461 0.9823
1.7248 3.5099 -2.1420 0.9823
1.4041 3.6457 -2.1397 0.9823
1.0729 3.7521 -2.1374 0.9824
0.7338 3.8284 -2.1350 0.9824
-0.9823 3.7493 -2.1228 0.9825
-1.3106 3.6429 -2.1204 0.9825
-1.6279 3.5080 -2.1181 0.9825
-2.4894 2.9445 -2.1119 0.9826
-3.1713 2.1770 -2.1068 0.9826
-0.9240 0.5198 -0.5806 0.9952
-1.0166 0.1598 -0.5637 0.9953
-1.0293 -0.1151 -0.5673 0.9953
-1.0000 -0.2033 -0.5589 0.9954
-0.9825 -0.2928 -0.5615 0.9953
-3.0705 -2.3155 -2.1063 0.9826
-2.8542 -2.5815 -2.1078 0.9826
-2.3551 -3.0515 -2.1112 0.9826
-2.0760 -3.2520 -2.1131 0.9826
-1.1466 -3.6962 -2.1196 0.9825
-0.4741 -3.8495 -2.1243 0.9825
0.5617 -3.8513 -2.1317 0.9824
1.2385 -3.6991 -2.1365 0.9824
1.8788 -3.4283 -2.1412 0.9823
2.7256 -2.8183 -2.1473 0.9823
2.9681 -2.5666 -2.1491 0.9823
3.1872 -2.2940 -2.1508 0.9823
1.9714 -0.7342 -1.1522 0.9905
2.0004 -0.5480 -1.1360 0.9906
2.0036 -0.3610 -1.1150 0.9908
2.0356 -0.1819 -1.1193 0.9907
1.8700 0.1671 -1.0839 0.9914
1.7194 0.8213 -1.1001 0.9912
3.2071 1.8996 -2.1520 0.9829
3.0236 2.1762 -2.1508 0.9829
2.8160 2.4351 -2.1494 0.9830
2.5862 2.6741 -2.1478 0.9830
2.3361 2.8914 -2.1461 0.9830
2.0677 3.0852 -2.1443 0.9830
1.1757 3.5116 -2.1381 0.9830
0.8576 3.5986 -2.1358 0.9831
-0.4502 3.6556 -2.1265 0.9831
-0.7730 3.5972 -2.1242 0.9831
-1.0889 3.5103 -2.1220 0.9832
-1.3956 3.3959 -2.1198 0.9832
-1.6906 3.2549 -2.1176 0.9832
-1.9717 3.0886 -2.1156 0.9832
-2.2367 2.8982 -2.1136 0.9832
-2.4837 2.6853 -2.1118 0.9832
-2.7107 2.4516 -2.1102 0.9833
-0.8491 0.5288 -0.5776 0.9954
-0.8760 0.4426 -0.5667 0.9955
-0.9012 0.2686 -0.5429 0.9957
-0.9120 0.1854 -0.5373 0.9957
-0.9237 0.1033 -0.5366 0.9957
-0.9273 -0.0621 -0.5366 0.9957
-0.9189 -0.1445 -0.5370 0.9957
-0.9030 -0.2259 -0.5374 0.9957
-0.8983 -0.3119 -0.5490 0.9956
-0.8638 -0.4860 -0.5722 0.9954
-2.5981 -2.5693 -2.1096 0.9833
-1.5434 -3.3259 -2.1169 0.9832
-1.2425 -3.4535 -2.1190 0.9832
-0.2868 -3.6707 -2.1257 0.9831
0.0411 -3.6857 -2.1280 0.9831
0.6954 -3.6279 -2.1327 0.9831
1.0166 -3.5554 -2.1350 0.9831
1.3305 -3.4545 -2.1373 0.9830
2.2024 -2.9891 -2.1436 0.9830
2.7020 -2.5556 -2.1473 0.9830
1.8592 -0.2500 -1.0831 0.9914
1.8755 0.0836 -1.0839 0.9914
1.7564 0.7448 -1.1014 0.9912
1.6861 0.8997 -1.1034 0.9912
3.1185 2.0400 -2.1515 0.9829
2.9227 2.3080 -2.1501 0.9829
2.7038 2.5572 -2.1487 0.9830
2.4636 2.7856 -2.1470 0.9830
1.9273 3.1728 -2.1433 0.9830
1.6357 3.3286 -2.1413 0.9830
1.3316 3.4575 -2.1391 0.9830
1.0176 3.5587 -2.1369 0.9830
0.6961 3.6313 -2.1347 0.9831
0.0411 3.6891 -2.1300 0.9831
-1.8330 3.1749 -2.1166 0.9832
-2.3626 2.7944 -2.1127 0.9832
-2.5998 2.5710 -2.1110 0.9833
-2.8161 2.3276 -2.1094 0.9833
-3.0101 2.0663 -2.1079 0.9833
-0.8638 0.4859 -0.5722 0.9954
-0.8858 0.3991 -0.5609 0.9955
-0.8984 0.3119 -0.5490 0.9956
-0.9030 0.2258 -0.5374 0.9957
-0.9189 0.1445 -0.5370 0.9957
-0.9273 0.0621 -0.5366 0.9957
-0.9237 -0.1033 -0.5366 0.9957
-0.9120 -0.1854 -0.5373 0.9957
-0.8932 -0.3555 -0.5550 0.9956
-1.6892 -3.2523 -2.1159 0.9832
-1.3944 -3.3930 -2.1179 0.9832
-0.7723 -3.5939 -2.1223 0.9832
-0.4498 -3.6523 -2.1246 0.9831
-0.1231 -3.6818 -2.1269 0.9831
0.2053 -3.6822 -2.1292 0.9831
0.5328 -3.6533 -2.1315 0.9831
2.0661 -3.0828 -2.1426 0.9830
2.3344 -2.8893 -2.1445 0.9830
2.5845 -2.6723 -2.1464 0.9830
3.0219 -2.1751 -2.1496 0.9829
1.7194 -0.8213 -1.1001 0.9912
1.7869 -0.6654 -1.1009 0.9912
1.8700 -0.1671 -1.0839 0.9914
