ply
format ascii 1.0
element vertex 1359
property float32 x
property float32 y
property float32 z
property float32 I
end_header
-16.0206 10.9975 -1.8656 0.9249
-17.8824 -7.1170 -1.8478 0.9256
19.0595 0.0000 -2.2640 0.9261
18.9829 1.6963 -2.2639 0.9261
18.7463 3.3773 -2.2626 0.9261
18.3519 5.0271 -2.2603 0.9262
17.8042 6.6304 -2.2568 0.9263
17.1089 8.1722 -2.2522 0.9265
16.2734 9.6388 -2.2467 0.9266
14.2181 12.2949 -2.2328 0.9271
12.7816 13.2161 -2.1840 0.9286
10.8830 13.4700 -2.0570 0.9326
-12.8910 9.7215 -1.9179 0.9370
-15.1998 7.6808 -2.0230 0.9337
-15.7877 6.2834 -2.0184 0.9338
-16.2547 4.8444 -2.0148 0.9340
-16.8737 -1.1296 -2.0088 0.9341
-16.0152 -5.5611 -2.0138 0.9340
17.2219 -3.9020 -2.0976 0.9313
17.5219 -2.3565 -2.1001 0.9313
19.0375 -0.8489 -2.2636 0.9261
18.8845 2.5397 -2.2634 0.9261
18.0969 5.8355 -2.2587 0.9263
17.4746 7.4099 -2.2546 0.9264
16.7082 8.9158 -2.2496 0.9266
15.8058 10.3397 -2.2436 0.9267
11.4958 12.9985 -2.0613 0.9325
10.2503 13.9118 -2.0527 0.9328
-12.2765 10.1468 -1.8919 0.9379
-14.0537 9.6473 -2.0249 0.9336
-14.8615 8.3609 -2.0255 0.9336
-16.4420 4.1124 -2.0132 0.9340
-16.7230 2.6296 -2.0109 0.9341
-16.8089 -1.8803 -2.0091 0.9341
-16.5848 -3.3710 -2.0103 0.9341
-14.0858 -7.1179 -1.8747 0.9384
17.3902 -3.1330 -2.0990 0.9313
15.7529 1.4077 -2.2409 0.9381
15.5579 2.8029 -2.2399 0.9381
15.2334 4.1729 -2.2379 0.9382
14.7826 5.5051 -2.2351 0.9383
13.5219 8.0090 -2.2268 0.9385
12.7247 9.1587 -2.2214 0.9386
-7.3196 11.4659 -1.9274 0.9465
-8.2808 10.7298 -1.9204 0.9467
-9.1717 9.9164 -1.9139 0.9469
-12.8461 6.4914 -2.0393 0.9435
-13.3476 5.3122 -2.0355 0.9436
-13.7462 4.0968 -2.0324 0.9437
-14.0397 2.8537 -2.0300 0.9438
-14.3054 0.3188 -2.0274 0.9438
-14.1390 -2.2233 -2.0280 0.9438
-13.8947 -3.4753 -2.0294 0.9438
-13.5447 -4.7032 -2.0315 0.9437
-13.0762 -5.8919 -2.0322 0.9437
-11.0335 -7.5741 -1.8962 0.9474
13.4526 -5.7044 -2.0704 0.9427
15.6639 -2.1066 -2.2394 0.9381
15.7984 -0.7045 -2.2407 0.9381
15.8011 0.7046 -2.2411 0.9381
15.6717 2.1077 -2.2405 0.9381
14.5113 6.1533 -2.2333 0.9383
13.8801 7.4067 -2.2291 0.9384
11.3422 10.7273 -2.2120 0.9389
8.5401 11.5908 -2.0399 0.9435
7.4468 12.2591 -2.0323 0.9437
-7.8086 11.1079 -1.9238 0.9466
-8.7354 10.3323 -1.9171 0.9468
-9.8268 9.7180 -1.9582 0.9457
-11.1629 9.2264 -2.0520 0.9432
-11.9075 8.1740 -2.0464 0.9433
-13.5599 4.7085 -2.0338 0.9437
-14.3043 -0.3188 -2.0273 0.9438
-14.2211 -1.5908 -2.0275 0.9438
-14.0302 -2.8518 -2.0286 0.9438
-13.7328 -4.0928 -2.0304 0.9438
-13.3307 -5.3055 -2.0329 0.9437
-11.3474 -7.0672 -1.8941 0.9474
-10.6979 -8.0676 -1.8985 0.9473
13.1715 -6.2915 -2.0682 0.9427
14.1287 -3.8703 -2.0756 0.9425
13.5037 0.0000 -2.2246 0.9467
13.4497 1.2019 -2.2245 0.9467
13.0087 3.5635 -2.2220 0.9468
12.6261 4.7020 -2.2196 0.9468
11.5556 6.8444 -2.2125 0.9470
10.1142 8.7461 -2.2028 0.9472
8.3572 10.3439 -2.1907 0.9475
7.2200 10.7729 -2.1364 0.9488
5.8956 10.7581 -2.0210 0.9515
2.8135 11.8059 -1.9994 0.9520
-2.5017 11.6417 -1.9616 0.9529
-4.4931 10.9334 -1.9473 0.9532
-5.4295 10.4536 -1.9406 0.9534
-6.3174 9.8960 -1.9341 0.9535
-9.9834 7.5289 -2.0599 0.9506
-10.5905 6.5958 -2.0554 0.9507
-11.1141 5.6162 -2.0514 0.9508
-11.8983 3.5461 -2.0453 0.9509
-12.1543 2.4705 -2.0432 0.9510
-12.3173 1.3779 -2.0418 0.9510
-12.3864 0.2760 -2.0410 0.9510
-12.3612 -0.8275 -2.0409 0.9510
-12.2419 -1.9249 -2.0415 0.9510
-12.0292 -3.0087 -2.0427 0.9510
-11.3297 -5.1049 -2.0472 0.9509
-10.8180 -6.0861 -2.0448 0.9509
-9.5439 -6.5515 -1.9071 0.9542
-8.9419 -7.3906 -1.9111 0.9541
10.9942 -5.8667 -2.0529 0.9507
13.1506 -2.9795 -2.2213 0.9468
13.3750 -1.7988 -2.2232 0.9468
13.1600 2.9817 -2.2229 0.9468
12.8306 4.1373 -2.2209 0.9468
12.3958 5.2563 -2.2181 0.9469
11.8598 6.3286 -2.2145 0.9470
11.2280 7.3450 -2.2103 0.9471
9.7022 9.1762 -2.2000 0.9473
5.4013 10.9913 -2.0175 0.9516
4.3861 11.3882 -2.0104 0.9517
3.3428 11.6906 -2.0031 0.9519
2.2805 11.8972 -1.9956 0.9521
-4.0088 11.1426 -1.9508 0.9531
-6.8343 9.7219 -1.9577 0.9530
-10.8629 6.1114 -2.0533 0.9507
-11.3435 5.1111 -2.0497 0.9508
-11.7359 4.0751 -2.0466 0.9509
-12.0379 3.0109 -2.0442 0.9509
-12.2475 1.9258 -2.0424 0.9510
-12.3636 0.8277 -2.0413 0.9510
-12.1471 -2.4690 -2.0420 0.9510
-11.0992 -5.6087 -2.0487 0.9508
-9.9861 -6.2194 -1.9381 0.9534
-9.2521 -6.9773 -1.9090 0.9541
11.2554 -5.3762 -2.0549 0.9507
12.9976 -3.5604 -2.2201 0.9468
13.4458 -1.2015 -2.2239 0.9467
11.7700 0.0000 -2.2123 0.9532
11.7229 1.0476 -2.2122 0.9532
11.3402 3.1064 -2.2100 0.9533
11.0082 4.0995 -2.2079 0.9533
10.5865 5.0567 -2.2052 0.9534
9.4905 6.8309 -2.1979 0.9535
8.0938 8.3690 -2.1884 0.9537
5.5396 10.1084 -2.1666 0.9542
2.4624 10.3325 -1.9965 0.9577
-0.3514 10.5101 -1.9766 0.9581
-1.2811 10.4021 -1.9700 0.9582
-2.1946 10.2129 -1.9634 0.9584
-3.9954 9.7221 -1.9757 0.9581
-5.0412 9.7060 -2.0557 0.9565
-6.7709 8.7733 -2.0830 0.9559
-7.5054 8.1148 -2.0776 0.9560
-8.1784 7.3969 -2.0727 0.9561
-9.3218 5.8057 -2.0642 0.9563
-9.7849 4.9445 -2.0607 0.9564
-10.4791 3.1231 -2.0553 0.9565
-10.8503 1.2138 -2.0522 0.9565
-10.8895 -0.7290 -2.0514 0.9566
-10.3265 -3.5857 -2.0547 0.9565
-9.9772 -4.4955 -2.0569 0.9564
-7.2744 -7.1938 -1.9230 0.9592
-6.6207 -7.8309 -1.9275 0.9591
9.0794 -5.9395 -2.0393 0.9568
9.5900 -5.1174 -2.0431 0.9567
10.7732 -4.5682 -2.1995 0.9535
11.1760 -3.6038 -2.2072 0.9533
11.4644 -2.5975 -2.2095 0.9533
11.7586 0.5243 -2.2124 0.9532
11.6631 1.5685 -2.2119 0.9532
11.1857 3.6069 -2.2091 0.9533
10.8083 4.5831 -2.2066 0.9533
10.3432 5.5193 -2.2036 0.9534
9.1677 7.2397 -2.1957 0.9536
8.4685 8.0095 -2.1909 0.9537
7.7035 8.7105 -2.1857 0.9538
6.0046 9.8850 -2.1739 0.9540
5.0184 10.2122 -2.1387 0.9547
2.9250 10.2293 -1.9998 0.9576
1.0579 10.5161 -1.9866 0.9579
-1.7404 10.3175 -1.9667 0.9583
-2.6431 10.0884 -1.9602 0.9584
-3.5192 9.7816 -1.9539 0.9586
-4.5080 9.7146 -2.0130 0.9573
-5.5485 9.6103 -2.0858 0.9558
-6.3820 9.0785 -2.0859 0.9558
-7.1456 8.4518 -2.0803 0.9560
-7.8499 7.7629 -2.0751 0.9561
-8.4903 7.0174 -2.0704 0.9562
-10.3353 3.5888 -2.0564 0.9564
-10.6027 2.6519 -2.0543 0.9565
-10.8915 0.7291 -2.0517 0.9565
-10.8472 -1.2134 -2.0516 0.9565
-10.4713 -3.1208 -2.0537 0.9565
-9.7734 -4.9387 -2.0582 0.9564
-8.2492 -6.2210 -1.9420 0.9588
8.7968 -6.3315 -2.0372 0.9568
9.3441 -5.5345 -2.0413 0.9568
10.9975 -4.0955 -2.2058 0.9534
10.4207 0.0000 -2.2027 0.9583
10.0414 2.7506 -2.2007 0.9583
8.9284 5.2883 -2.1935 0.9585
7.1749 7.4188 -2.1816 0.9587
6.4717 8.0101 -2.1768 0.9588
5.7194 8.5339 -2.1716 0.9589
3.2306 9.6493 -2.1509 0.9593
0.5420 9.7196 -2.0577 0.9610
-0.3247 9.7123 -2.0541 0.9610
-2.0848 9.7020 -2.0976 0.9602
-5.3282 8.3466 -2.0931 0.9603
-6.6917 7.2350 -2.0832 0.9605
-7.2936 6.5967 -2.0788 0.9606
-8.3170 5.1799 -2.0711 0.9607
-9.3539 2.7878 -2.0632 0.9609
-9.6869 1.0836 -2.0604 0.9609
-9.7420 0.2171 -2.0598 0.9609
-9.6278 -1.5139 -2.0601 0.9609
-9.2180 -3.2008 -2.0626 0.9609
-8.5230 -4.7950 -2.0671 0.9608
-8.0741 -5.5426 -2.0701 0.9608
-6.4879 -6.4160 -1.9288 0.9634
-5.9033 -6.9825 -1.9328 0.9633
-3.8768 -8.3542 -1.9468 0.9630
6.3292 -7.1566 -2.0195 0.9617
6.9569 -6.5798 -2.0241 0.9616
7.5306 -5.9469 -2.0283 0.9615
9.5628 -4.0550 -2.1956 0.9584
9.8975 -3.1915 -2.1982 0.9584
10.3228 -1.3883 -2.2017 0.9583
10.4094 -0.4642 -2.2025 0.9583
10.4106 0.4642 -2.2028 0.9583
9.9050 3.1940 -2.1999 0.9583
9.5721 4.0589 -2.1977 0.9584
9.1616 4.8888 -2.1950 0.9584
7.5060 7.0992 -2.1839 0.9586
6.1013 8.2807 -2.1742 0.9588
4.5134 9.1845 -2.1632 0.9590
2.7900 9.7573 -2.1452 0.9594
-0.7588 9.7108 -2.0589 0.9610
-1.6372 9.7057 -2.0806 0.9606
-3.3716 9.3714 -2.1052 0.9601
-4.9575 8.5866 -2.0958 0.9603
-6.3700 7.5345 -2.0855 0.9605
-6.9998 6.9222 -2.0809 0.9606
-7.5727 6.2590 -2.0767 0.9606
-9.6313 1.5145 -2.0609 0.9609
-9.6844 -1.0833 -2.0598 0.9609
-9.5528 -1.9417 -2.0606 0.9609
-8.7226 -4.4077 -2.0658 0.9608
-8.3068 -5.1735 -2.0686 0.9608
-6.2020 -6.7055 -1.9307 0.9633
-5.5926 -7.2465 -1.9349 0.9633
-4.9370 -7.7336 -1.9394 0.9632
5.9969 -7.4225 -2.0171 0.9617
7.2508 -6.2700 -2.0262 0.9616
10.2477 -1.8462 -2.2010 0.9583
10.3768 -0.9273 -2.2022 0.9583
9.3398 0.0000 -2.1951 0.9624
9.3025 0.8313 -2.1950 0.9624
9.0006 2.4655 -2.1933 0.9624
8.7388 3.2544 -2.1916 0.9624
8.4062 4.0153 -2.1895 0.9624
8.0057 4.7418 -2.1868 0.9625
6.4370 6.6559 -2.1762 0.9627
5.1336 7.6599 -2.1672 0.9628
2.9065 8.6814 -2.1516 0.9631
2.1168 8.8826 -2.1461 0.9632
1.3144 9.0120 -2.1404 0.9633
-0.3027 9.0535 -2.1290 0.9635
-2.6626 8.5833 -2.1121 0.9637
-3.4073 8.2912 -2.1068 0.9638
-4.1216 7.9356 -2.1016 0.9639
-4.8003 7.5196 -2.0967 0.9640
-5.4385 7.0468 -2.0920 0.9641
-6.5754 5.9471 -2.0837 0.9642
-7.5008 4.6715 -2.0768 0.9643
-8.1895 3.2593 -2.0716 0.9644
-8.4391 2.5151 -2.0696 0.9645
-8.7406 0.9778 -2.0671 0.9645
-8.5351 -2.1348 -2.0677 0.9645
-8.3167 -2.8879 -2.0691 0.9645
-8.0337 -3.6198 -2.0709 0.9644
-7.2821 -4.9989 -2.0759 0.9644
-6.8185 -5.6356 -2.0790 0.9643
-6.2691 -6.1996 -2.0722 0.9644
-5.3213 -6.2940 -1.9371 0.9667
-4.7496 -6.7564 -1.9410 0.9666
-4.1384 -7.1679 -1.9452 0.9666
-3.4920 -7.5251 -1.9497 0.9665
-1.3903 -8.2421 -1.9645 0.9662
-0.6529 -8.3552 -1.9697 0.9661
1.5905 -8.2974 -1.9856 0.9659
2.3288 -8.1445 -1.9909 0.9658
3.0524 -7.9255 -1.9960 0.9657
3.7552 -7.6417 -2.0011 0.9656
5.0747 -6.8875 -2.0107 0.9655
6.2419 -5.9035 -2.0192 0.9653
7.0795 -5.5906 -2.1201 0.9636
8.2056 -4.3787 -2.1859 0.9625
8.5738 -3.6356 -2.1887 0.9625
8.8727 -2.8611 -2.1910 0.9624
9.1041 2.0627 -2.1939 0.9624
8.8788 2.8630 -2.1925 0.9624
7.2861 5.7538 -2.1820 0.9626
6.7334 6.3684 -2.1782 0.9626
4.7819 7.8721 -2.1647 0.9629
4.0528 8.2471 -2.1597 0.9629
3.2945 8.5541 -2.1544 0.9630
2.5137 8.7909 -2.1489 0.9631
0.9104 9.0495 -2.1376 0.9633
0.1010 9.0702 -2.1318 0.9634
-2.2805 8.7047 -2.1149 0.9637
-4.4657 7.7349 -2.0991 0.9640
-5.1248 7.2901 -2.0943 0.9640
-7.2908 5.0048 -2.0784 0.9643
-8.6903 1.3665 -2.0675 0.9645
-8.7741 0.5874 -2.0667 0.9645
-8.7902 -0.1959 -2.0664 0.9645
-8.7386 -0.9776 -2.0666 0.9645
-8.4340 -2.5136 -2.0684 0.9645
-8.1831 -3.2568 -2.0699 0.9645
-5.7489 -6.2156 -1.9898 0.9658
-5.0406 -6.5313 -1.9390 0.9667
-4.4487 -6.9687 -1.9431 0.9666
-2.4669 -7.9525 -1.9569 0.9664
-1.0231 -8.3068 -1.9670 0.9662
3.4068 -7.7916 -1.9986 0.9657
7.9967 -4.7364 -2.1843 0.9625
8.7321 -3.2519 -2.1899 0.9624
8.9953 -2.4641 -2.1920 0.9624
8.4536 0.0000 -2.1888 0.9657
8.4198 0.7524 -2.1887 0.9657
8.1472 2.2318 -2.1872 0.9657
7.9108 2.9460 -2.1857 0.9657
7.6104 3.6352 -2.1837 0.9658
7.2487 4.2934 -2.1813 0.9658
4.6521 6.9415 -2.1636 0.9661
4.0075 7.3128 -2.1591 0.9661
2.6357 7.8724 -2.1495 0.9663
1.9200 8.0568 -2.1445 0.9664
1.1925 8.1762 -2.1394 0.9664
-1.0027 8.1410 -2.1238 0.9667
-1.7191 8.0001 -2.1187 0.9668
-2.4186 7.7968 -2.1136 0.9668
-3.0958 7.5332 -2.1088 0.9669
-4.9444 6.4067 -2.0954 0.9671
-5.9803 5.4088 -2.0878 0.9672
-6.4277 4.8474 -2.0845 0.9673
-7.4522 2.9659 -2.0767 0.9674
-7.6800 2.2889 -2.0749 0.9674
-7.8481 1.5952 -2.0736 0.9675
-7.7680 -1.9429 -2.0732 0.9675
-7.5687 -2.6281 -2.0745 0.9674
-6.9954 -3.9355 -2.0782 0.9674
-5.7305 -5.6670 -2.0867 0.9672
-4.3734 -6.2213 -1.9690 0.9691
-3.7619 -6.5159 -1.9481 0.9694
-1.9194 -7.3263 -1.9609 0.9692
-1.2627 -7.4857 -1.9656 0.9691
-0.5928 -7.5865 -1.9703 0.9690
0.7654 -7.6084 -1.9799 0.9689
2.7682 -7.1875 -1.9942 0.9687
3.4047 -6.9285 -1.9988 0.9686
4.0168 -6.6125 -2.0032 0.9685
4.5990 -6.2419 -2.0074 0.9685
5.2077 -5.8885 -2.0353 0.9680
6.0690 -5.7401 -2.1629 0.9661
6.5903 -5.2043 -2.1742 0.9659
7.4300 -3.9648 -2.1805 0.9658
7.7624 -3.2915 -2.1830 0.9658
8.2370 -1.8663 -2.1868 0.9657
8.4445 -0.3766 -2.1886 0.9657
8.4453 0.3766 -2.1888 0.9657
8.3771 1.1266 -2.1885 0.9657
8.2407 1.8671 -2.1877 0.9657
8.0372 2.5917 -2.1865 0.9657
7.0458 4.6092 -2.1800 0.9658
6.5985 5.2108 -2.1769 0.9659
6.0990 5.7684 -2.1735 0.9659
3.6738 7.4760 -2.1568 0.9662
2.2797 7.9727 -2.1470 0.9663
0.8261 8.2112 -2.1368 0.9665
0.0917 8.2321 -2.1316 0.9666
-0.6398 8.1875 -2.1264 0.9666
-1.3627 8.0784 -2.1212 0.9667
-4.6587 6.6272 -2.0975 0.9671
-6.2102 5.1329 -2.0861 0.9673
-6.6324 4.5529 -2.0829 0.9673
-7.0020 3.9392 -2.0802 0.9673
-7.3164 3.2966 -2.0778 0.9674
-7.9536 -0.8897 -2.0722 0.9675
-7.6758 -2.2876 -2.0738 0.9674
-7.4469 -2.9638 -2.0752 0.9674
-6.8170 -4.2457 -2.0794 0.9674
-5.9726 -5.4019 -2.0851 0.9673
-4.7921 -6.2093 -2.0308 0.9681
-4.0444 -6.3354 -1.9461 0.9694
-3.4716 -6.6839 -1.9501 0.9694
-1.5930 -7.4132 -1.9632 0.9692
-0.2546 -7.6146 -1.9727 0.9690
3.7141 -6.7775 -2.0010 0.9686
4.8775 -6.0369 -2.0095 0.9684
7.2412 -4.2890 -2.1791 0.9658
7.6038 -3.6320 -2.1818 0.9658
8.4183 -0.7522 -2.1883 0.9657
7.2188 2.6883 -2.1807 0.9685
6.2333 4.4865 -2.1742 0.9686
5.3239 5.5049 -2.1680 0.9687
3.0457 6.9657 -2.1522 0.9689
2.4086 7.1941 -2.1477 0.9690
1.7550 7.3642 -2.1431 0.9690
-0.2513 7.5161 -2.1289 0.9692
-0.9172 7.4473 -2.1242 0.9693
-2.2134 7.1354 -2.1149 0.9694
-3.4292 6.6024 -2.1062 0.9695
-3.9955 6.2588 -2.1021 0.9696
-5.0239 5.4317 -2.0946 0.9697
-5.8893 4.4413 -2.0882 0.9698
-6.2531 3.8945 -2.0855 0.9698
-6.8301 2.7183 -2.0811 0.9699
-7.3344 0.1634 -2.0768 0.9700
-7.2482 -1.1397 -2.0771 0.9700
-7.1205 -1.7809 -2.0779 0.9699
-6.9375 -2.4090 -2.0790 0.9699
-6.7005 -3.0191 -2.0805 0.9699
-6.4110 -3.6068 -2.0824 0.9699
-6.0712 -4.1676 -2.0847 0.9699
-5.6833 -4.6973 -2.0873 0.9698
-5.2500 -5.1919 -2.0903 0.9698
-4.7745 -5.6473 -2.0935 0.9697
-4.2501 -6.0458 -2.0921 0.9697
-3.5859 -6.2110 -2.0303 0.9706
-2.9057 -6.2617 -1.9542 0.9717
-2.3416 -6.5086 -1.9581 0.9717
-1.7567 -6.7052 -1.9622 0.9716
0.0777 -6.9767 -1.9752 0.9714
1.3194 -6.8831 -1.9840 0.9713
1.9310 -6.7532 -1.9884 0.9712
2.5299 -6.5686 -1.9927 0.9712
5.5611 -5.2597 -2.1669 0.9687
6.0165 -4.7512 -2.1703 0.9686
7.3297 -2.3635 -2.1802 0.9685
7.6416 -1.0277 -2.1828 0.9685
7.7049 -0.3436 -2.1834 0.9684
7.6435 1.0279 -2.1833 0.9684
7.3339 2.3649 -2.1814 0.9685
7.0892 3.0061 -2.1799 0.9685
6.7873 3.6218 -2.1779 0.9685
6.4309 4.2069 -2.1755 0.9686
4.5312 6.1499 -2.1625 0.9687
3.3563 6.8300 -2.1544 0.9689
2.7296 7.0871 -2.1500 0.9689
2.0835 7.2865 -2.1454 0.9690
1.4236 7.4270 -2.1408 0.9691
0.0839 7.5282 -2.1313 0.9692
-0.5852 7.4891 -2.1266 0.9693
-2.5264 7.0222 -2.1127 0.9695
-3.7163 6.4367 -2.1041 0.9696
-4.2663 6.0689 -2.1001 0.9696
-5.2565 5.1983 -2.0929 0.9697
-5.6897 4.7026 -2.0897 0.9698
-6.0772 4.1718 -2.0868 0.9698
-6.9415 2.4103 -2.0802 0.9699
-7.1235 1.7817 -2.0787 0.9699
-7.1913 -1.4617 -2.0774 0.9700
-7.0359 -2.0969 -2.0784 0.9699
-6.8257 -2.7166 -2.0797 0.9699
-6.5622 -3.3160 -2.0814 0.9699
-5.0174 -5.4247 -2.0918 0.9697
-4.5182 -5.8544 -2.0935 0.9697
-3.9585 -6.2008 -2.0826 0.9699
-3.2306 -6.2200 -1.9842 0.9713
-0.8500 -6.9018 -1.9686 0.9715
-0.2329 -6.9655 -1.9730 0.9714
0.3889 -6.9741 -1.9774 0.9714
1.6265 -6.8250 -1.9862 0.9713
2.8229 -6.4562 -1.9948 0.9711
3.3934 -6.1921 -1.9989 0.9711
4.0328 -6.0173 -2.0506 0.9703
4.7800 -5.9163 -2.1532 0.9689
6.2267 -4.4817 -2.1718 0.9686
6.9397 -3.3148 -2.1772 0.9685
7.5866 -1.3668 -2.1823 0.9685
7.6811 -0.6864 -2.1831 0.9684
7.0563 0.6306 -2.1790 0.9708
6.9708 1.2558 -2.1786 0.9708
6.8287 1.8706 -2.1777 0.9708
6.6313 2.4695 -2.1765 0.9708
6.3804 3.0476 -2.1748 0.9708
6.0782 3.6001 -2.1728 0.9709
5.7274 4.1223 -2.1705 0.9709
5.3312 4.6100 -2.1678 0.9709
3.9061 5.8282 -2.1580 0.9711
1.6144 6.7743 -2.1420 0.9713
0.3861 6.9251 -2.1333 0.9714
-2.0383 6.5708 -2.1160 0.9716
-2.6099 6.3509 -2.1119 0.9717
-3.6811 5.7663 -2.1042 0.9718
-5.0496 4.5671 -2.0942 0.9719
-5.4287 4.0940 -2.0913 0.9719
-5.7646 3.5902 -2.0888 0.9720
-6.0549 3.0597 -2.0866 0.9720
-6.2976 2.5064 -2.0848 0.9720
-6.4910 1.9345 -2.0833 0.9721
-6.6337 1.3484 -2.0821 0.9721
-6.7637 0.1507 -2.0809 0.9721
-6.6841 -1.0510 -2.0811 0.9721
-6.1782 -2.7838 -2.0843 0.9720
-5.9109 -3.3254 -2.0860 0.9720
-5.5971 -3.8422 -2.0881 0.9720
-4.8391 -4.7854 -2.0933 0.9719
-2.8731 -6.1913 -2.0994 0.9718
-2.2352 -6.2128 -2.0308 0.9727
-1.6304 -6.2232 -1.9787 0.9734
-0.4993 -6.3894 -1.9712 0.9735
0.0715 -6.4217 -1.9753 0.9735
1.7764 -6.2126 -1.9874 0.9733
2.3680 -6.1484 -2.0265 0.9728
2.9966 -6.0979 -2.0898 0.9720
3.6233 -5.9647 -2.1466 0.9712
4.1562 -5.6408 -2.1551 0.9711
4.6534 -5.2617 -2.1605 0.9710
5.1112 -4.8341 -2.1638 0.9710
5.5290 -4.3662 -2.1669 0.9709
5.9032 -3.8617 -2.1697 0.9709
6.2306 -3.3247 -2.1722 0.9709
6.5081 -2.7597 -2.1743 0.9708
6.7333 -2.1712 -2.1760 0.9708
7.0191 -0.9440 -2.1784 0.9708
7.0771 -0.3156 -2.1789 0.9708
7.0777 0.3156 -2.1791 0.9708
7.0207 0.9442 -2.1789 0.9708
5.1171 4.8397 -2.1663 0.9710
4.6592 5.2683 -2.1632 0.9710
2.5103 6.5178 -2.1483 0.9712
1.3097 6.8327 -2.1398 0.9713
0.0772 6.9283 -2.1311 0.9714
-1.1477 6.8043 -2.1224 0.9715
-2.3267 6.4671 -2.1140 0.9716
-2.8875 6.2224 -2.1099 0.9717
-3.4236 5.9298 -2.1060 0.9718
-3.9309 5.5918 -2.1024 0.9718
-4.4057 5.2111 -2.0989 0.9718
-4.8446 4.7909 -2.0957 0.9719
-6.4006 2.2225 -2.0840 0.9720
-6.5687 1.6429 -2.0826 0.9721
-6.6858 1.0513 -2.0817 0.9721
-6.7508 0.4519 -2.0810 0.9721
-6.7634 -0.1507 -2.0808 0.9721
-6.7236 -0.7521 -2.0809 0.9721
-6.6316 -1.3479 -2.0814 0.9721
-6.2939 -2.5049 -2.0835 0.9720
-6.0505 -3.0574 -2.0851 0.9720
-5.4234 -4.0900 -2.0893 0.9720
-5.0441 -4.5621 -2.0919 0.9719
-4.6243 -4.9998 -2.0947 0.9719
-3.6758 -5.7580 -2.1011 0.9718
-3.1466 -6.0582 -2.0997 0.9718
-1.9290 -6.2184 -2.0026 0.9731
-1.3424 -6.2470 -1.9653 0.9736
-0.7826 -6.3544 -1.9692 0.9736
-0.2144 -6.4119 -1.9733 0.9735
0.9297 -6.3744 -1.9814 0.9734
3.8929 -5.8087 -2.1508 0.9712
5.3253 -4.6050 -2.1654 0.9710
5.7218 -4.1183 -2.1684 0.9709
6.6274 -2.4681 -2.1752 0.9708
6.8256 -1.8697 -2.1768 0.9708
6.9687 -1.2555 -2.1779 0.9708
7.0553 -0.6305 -2.1787 0.9708
6.5439 0.0000 -2.1752 0.9728
6.5178 0.5824 -2.1752 0.9728
6.1257 2.2813 -2.1728 0.9728
5.6155 3.3261 -2.1695 0.9729
4.0820 5.0523 -2.1591 0.9730
3.1118 5.6783 -2.1523 0.9731
2.5896 5.9226 -2.1487 0.9731
-0.7814 6.3445 -2.1249 0.9734
-2.9251 5.6318 -2.1095 0.9736
-3.8648 5.0077 -2.1027 0.9737
-5.3416 3.3268 -2.0918 0.9738
-5.8363 2.3228 -2.0880 0.9739
-6.1483 1.2497 -2.0855 0.9739
-6.2691 0.1397 -2.0844 0.9739
-6.2564 -0.4188 -2.0843 0.9739
-6.1952 -0.9741 -2.0846 0.9739
-6.0858 -1.5221 -2.0853 0.9739
-5.9289 -2.0587 -2.0862 0.9739
-5.4777 -3.0817 -2.0892 0.9739
-5.1865 -3.5603 -2.0911 0.9738
-4.8542 -4.0121 -2.0934 0.9738
-4.4832 -4.4336 -2.0959 0.9738
-4.0762 -4.8214 -2.0987 0.9737
-3.6362 -5.1725 -2.1017 0.9737
-2.6699 -5.7534 -2.1084 0.9736
-1.6082 -6.1383 -2.1093 0.9736
-1.0464 -6.2032 -2.0911 0.9738
-0.4851 -6.2079 -2.0698 0.9741
0.6238 -6.2012 -2.0717 0.9741
1.1859 -6.1867 -2.0939 0.9738
2.3119 -6.0028 -2.1382 0.9732
2.8461 -5.7917 -2.1451 0.9732
3.8452 -5.2187 -2.1548 0.9730
5.1092 -4.0347 -2.1640 0.9729
5.4545 -3.5682 -2.1666 0.9729
6.0124 -2.5495 -2.1708 0.9728
6.2201 -2.0057 -2.1724 0.9728
6.4836 -0.8720 -2.1746 0.9728
6.2231 2.0067 -2.1735 0.9728
6.0161 2.5510 -2.1721 0.9728
5.7607 3.0740 -2.1705 0.9729
5.4592 3.5712 -2.1684 0.9729
5.1141 4.0386 -2.1661 0.9729
4.7286 4.4723 -2.1635 0.9729
2.8533 5.8064 -2.1505 0.9731
1.2114 6.3199 -2.1390 0.9732
-1.0623 6.2974 -2.1229 0.9734
-1.6155 6.1664 -2.1189 0.9735
-2.6736 5.7615 -2.1113 0.9736
-3.1704 5.4913 -2.1077 0.9736
-4.0809 4.8269 -2.1011 0.9737
-4.4880 4.4383 -2.0981 0.9737
-5.9318 2.0598 -2.0873 0.9739
-6.0880 1.5227 -2.0860 0.9739
-6.2571 0.4189 -2.0845 0.9739
-6.2319 -0.6971 -2.0844 0.9739
-5.3373 -3.3241 -2.0901 0.9738
-5.0253 -3.7898 -2.0922 0.9738
-4.6734 -4.2268 -2.0946 0.9738
-4.2841 -4.6319 -2.0973 0.9738
-2.9212 -5.6243 -2.1067 0.9736
-1.8795 -6.0589 -2.1087 0.9736
-0.7643 -6.2059 -2.0785 0.9740
0.3460 -6.2054 -2.0659 0.9741
1.4712 -6.1735 -2.1096 0.9736
2.0392 -6.0908 -2.1351 0.9733
3.6060 -5.3805 -2.1530 0.9731
4.5167 -4.6703 -2.1597 0.9730
4.9212 -4.2556 -2.1626 0.9729
5.2871 -3.8054 -2.1653 0.9729
6.1224 -2.2800 -2.1717 0.9728
6.5169 -0.5824 -2.1749 0.9728
5.9760 1.0766 -2.1715 0.9745
5.6858 2.1174 -2.1697 0.9746
5.4712 2.6134 -2.1683 0.9746
4.5736 3.9550 -2.1623 0.9746
3.7905 4.6916 -2.1569 0.9747
3.3532 5.0033 -2.1539 0.9747
2.8902 5.2740 -2.1507 0.9748
2.4056 5.5016 -2.1473 0.9748
1.9032 5.6846 -2.1438 0.9749
-0.1989 5.9499 -2.1289 0.9750
-0.7264 5.8982 -2.1252 0.9751
-1.2463 5.8000 -2.1214 0.9751
-1.7546 5.6563 -2.1178 0.9752
-2.7207 5.2383 -2.1108 0.9752
-3.1712 4.9677 -2.1076 0.9753
-3.5955 4.6588 -2.1045 0.9753
-3.9904 4.3144 -2.1016 0.9753
-4.3530 3.9371 -2.0989 0.9754
-4.9712 3.0961 -2.0943 0.9754
-5.2223 2.6390 -2.0924 0.9754
-5.7232 1.1633 -2.0885 0.9755
-5.8021 0.6491 -2.0878 0.9755
-5.8358 0.1300 -2.0875 0.9755
-5.6651 -1.4169 -2.0883 0.9755
-5.5189 -1.9164 -2.0892 0.9755
-4.5174 -3.7337 -2.0958 0.9754
-4.1718 -4.1256 -2.0982 0.9754
-3.7928 -4.4861 -2.1008 0.9754
-3.3830 -4.8123 -2.1036 0.9753
-2.9454 -5.1017 -2.1066 0.9753
-2.4835 -5.3517 -2.1098 0.9752
-2.0005 -5.5604 -2.1132 0.9752
-0.9855 -5.8423 -2.1188 0.9751
0.0662 -5.9406 -2.1245 0.9751
1.6440 -5.7493 -2.1384 0.9749
2.1535 -5.5913 -2.1427 0.9749
3.1208 -5.1376 -2.1496 0.9748
3.5711 -4.8468 -2.1529 0.9747
4.7436 -3.7460 -2.1615 0.9746
5.0638 -3.3126 -2.1639 0.9746
5.3437 -2.8515 -2.1660 0.9746
5.5809 -2.3665 -2.1678 0.9746
5.9194 -1.3412 -2.1705 0.9745
6.0175 -0.8093 -2.1713 0.9745
6.0671 -0.2705 -2.1718 0.9745
5.9213 1.3416 -2.1712 0.9745
5.3473 2.8534 -2.1675 0.9746
4.7479 3.7494 -2.1634 0.9746
3.9984 4.5210 -2.1583 0.9747
3.5753 4.8524 -2.1554 0.9747
1.1257 5.8725 -2.1383 0.9749
0.5975 5.9390 -2.1346 0.9750
0.0664 5.9581 -2.1308 0.9750
-0.9876 5.8548 -2.1233 0.9751
-2.4866 5.3586 -2.1125 0.9752
-3.3869 4.8179 -2.1060 0.9753
-3.7968 4.4909 -2.1030 0.9753
-4.8308 3.3161 -2.0954 0.9754
-5.5214 1.9172 -2.0901 0.9755
-5.6670 1.4174 -2.0890 0.9755
-5.7683 0.9070 -2.0881 0.9755
-5.8247 0.3899 -2.0876 0.9755
-5.8012 -0.6490 -2.0875 0.9755
-5.5974 -1.6682 -2.0887 0.9755
-5.4295 -2.1609 -2.0898 0.9755
-5.2191 -2.6373 -2.0911 0.9755
-4.9676 -3.0938 -2.0928 0.9754
-4.3490 -3.9334 -2.0970 0.9754
-3.9863 -4.3100 -2.0994 0.9754
-3.5915 -4.6537 -2.1022 0.9753
-2.2444 -5.4613 -2.1115 0.9752
-1.7522 -5.6486 -2.1150 0.9752
-1.2442 -5.7901 -2.1178 0.9752
-0.1984 -5.9328 -2.1228 0.9751
1.9006 -5.6769 -2.1409 0.9749
2.4024 -5.4944 -2.1445 0.9748
2.8866 -5.2673 -2.1480 0.9748
3.3492 -4.9973 -2.1513 0.9748
3.7862 -4.6863 -2.1545 0.9747
4.1941 -4.3367 -2.1575 0.9747
5.2089 -3.0853 -2.1650 0.9746
5.8523 -1.6031 -2.1699 0.9746
5.9745 -1.0764 -2.1709 0.9745
5.6599 0.0000 -2.1690 0.9760
5.5692 1.0033 -2.1686 0.9761
5.4561 1.4946 -2.1679 0.9761
5.2990 1.9734 -2.1669 0.9761
4.8586 2.8778 -2.1640 0.9761
4.5792 3.2959 -2.1621 0.9761
4.2635 3.6868 -2.1600 0.9761
3.1266 4.6652 -2.1522 0.9762
1.7752 5.3022 -2.1428 0.9763
0.3098 5.5559 -2.1324 0.9764
-0.1856 5.5522 -2.1289 0.9765
-1.1633 5.4136 -2.1219 0.9766
-1.6379 5.2801 -2.1185 0.9766
-2.0981 5.1054 -2.1152 0.9766
-2.5403 4.8910 -2.1120 0.9767
-3.3578 4.3508 -2.1061 0.9767
-3.7269 4.0295 -2.1034 0.9768
-4.0659 3.6774 -2.1009 0.9768
-4.6440 2.8923 -2.0966 0.9768
-4.8789 2.4654 -2.0948 0.9769
-5.2319 1.5593 -2.0921 0.9769
-5.4213 0.6065 -2.0905 0.9769
-5.4529 0.1215 -2.0902 0.9769
-4.9793 -2.2436 -2.0929 0.9769
-4.5094 -3.0955 -2.0960 0.9768
-4.2199 -3.4878 -2.0980 0.9768
-3.8968 -3.8536 -2.1002 0.9768
-3.5424 -4.1900 -2.1026 0.9768
-3.1594 -4.4943 -2.1053 0.9767
-2.7505 -4.7640 -2.1081 0.9767
-0.9205 -5.4573 -2.1209 0.9766
1.0488 -5.4713 -2.1349 0.9764
2.0087 -5.2154 -2.1417 0.9763
2.4687 -5.0237 -2.1450 0.9763
2.9104 -4.7911 -2.1482 0.9763
3.3299 -4.5194 -2.1513 0.9762
3.7240 -4.2108 -2.1542 0.9762
4.0890 -3.8674 -2.1568 0.9762
4.4221 -3.4921 -2.1593 0.9762
4.7202 -3.0878 -2.1615 0.9761
4.9808 -2.6578 -2.1635 0.9761
5.2016 -2.2057 -2.1651 0.9761
5.3807 -1.7351 -2.1665 0.9761
5.5166 -1.2499 -2.1676 0.9761
5.6079 -0.7542 -2.1684 0.9761
5.6089 0.7543 -2.1688 0.9760
5.3829 1.7358 -2.1674 0.9761
5.2043 2.2068 -2.1663 0.9761
4.7236 3.0901 -2.1631 0.9761
4.4257 3.4950 -2.1611 0.9761
4.0928 3.8710 -2.1588 0.9762
3.7277 4.2150 -2.1563 0.9762
3.3335 4.5243 -2.1536 0.9762
2.9137 4.7966 -2.1507 0.9762
2.4717 5.0297 -2.1476 0.9763
1.5360 5.3718 -2.1411 0.9764
1.0501 5.4784 -2.1377 0.9764
0.5574 5.5411 -2.1342 0.9764
0.0619 5.5596 -2.1307 0.9765
-2.3216 5.0030 -2.1136 0.9767
-2.7537 4.7695 -2.1105 0.9767
-3.1628 4.4991 -2.1075 0.9767
-3.9004 3.8572 -2.1021 0.9768
-5.4424 0.3643 -2.0903 0.9769
-5.2299 -1.5587 -2.0913 0.9769
-4.6408 -2.8903 -2.0952 0.9769
-4.3690 -3.2948 -2.0970 0.9768
-3.3543 -4.3463 -2.1039 0.9768
-2.9580 -4.6336 -2.1067 0.9767
-2.0955 -5.0991 -2.1127 0.9767
-1.6358 -5.2734 -2.1159 0.9766
0.3094 -5.5485 -2.1296 0.9765
1.7729 -5.2955 -2.1400 0.9764
2.2407 -5.1247 -2.1434 0.9763
3.9103 -4.0432 -2.1555 0.9762
4.5756 -3.2933 -2.1604 0.9761
5.2965 -1.9724 -2.1659 0.9761
5.4541 -1.4940 -2.1671 0.9761
5.6366 -0.5037 -2.1687 0.9760
5.2721 0.4711 -2.1663 0.9774
5.2084 0.9383 -2.1660 0.9774
4.9560 1.8456 -2.1644 0.9774
4.2834 3.0830 -2.1600 0.9774
3.9883 3.4488 -2.1580 0.9775
3.3065 4.0925 -2.1533 0.9775
2.9255 4.3652 -2.1507 0.9775
2.5221 4.6022 -2.1479 0.9776
2.0996 4.8018 -2.1449 0.9776
1.6615 4.9625 -2.1419 0.9776
0.7530 5.1631 -2.1355 0.9777
0.2900 5.2016 -2.1322 0.9777
-1.0895 5.0700 -2.1224 0.9778
-2.7744 4.3460 -2.1102 0.9780
-3.1461 4.0766 -2.1075 0.9780
-3.4923 3.7758 -2.1050 0.9780
-4.0977 3.0902 -2.1005 0.9781
-4.3525 2.7108 -2.0986 0.9781
-4.5729 2.3108 -2.0970 0.9781
-4.9042 1.4616 -2.0944 0.9781
-2.1261 0.2378 -0.8756 0.9908
-2.1285 0.0474 -0.8714 0.9908
-2.1302 -0.1426 -0.8738 0.9908
-2.1345 -0.3356 -0.8843 0.9907
-2.1308 -0.5330 -0.8989 0.9906
-3.9549 -3.2688 -2.0999 0.9781
-3.6518 -3.6114 -2.1020 0.9780
-3.3195 -3.9263 -2.1043 0.9780
-2.9603 -4.2111 -2.1067 0.9780
-2.5770 -4.4635 -2.1094 0.9780
-2.1724 -4.6814 -2.1122 0.9779
-1.7495 -4.8629 -2.1152 0.9779
-1.3117 -5.0066 -2.1182 0.9779
-0.8621 -5.1111 -2.1214 0.9778
-0.4044 -5.1754 -2.1246 0.9778
0.5212 -5.1811 -2.1312 0.9777
1.8800 -4.8814 -2.1409 0.9776
2.3104 -4.7015 -2.1440 0.9776
3.1159 -4.2289 -2.1498 0.9776
4.4153 -2.8884 -2.1594 0.9775
4.6588 -2.4860 -2.1612 0.9774
4.8651 -2.0630 -2.1628 0.9774
5.2877 -0.2358 -2.1663 0.9774
5.1608 1.1693 -2.1657 0.9774
5.0344 1.6234 -2.1649 0.9774
4.8675 2.0640 -2.1639 0.9774
3.8288 3.6213 -2.1569 0.9775
3.1190 4.2331 -2.1520 0.9775
2.7264 4.4883 -2.1493 0.9776
2.3130 4.7068 -2.1464 0.9776
1.8822 4.8871 -2.1434 0.9776
1.4377 5.0280 -2.1403 0.9777
0.9830 5.1283 -2.1371 0.9777
0.5219 5.1875 -2.1338 0.9777
-0.8632 5.1174 -2.1240 0.9778
-1.3132 5.0126 -2.1208 0.9779
-1.7516 4.8686 -2.1176 0.9779
-2.5797 4.4683 -2.1117 0.9779
-3.3226 3.9300 -2.1062 0.9780
-3.6550 3.6145 -2.1038 0.9780
-3.9579 3.2713 -2.1016 0.9781
-4.6697 2.1041 -2.0962 0.9781
-4.8354 1.6790 -2.0949 0.9781
-2.1308 0.5330 -0.8989 0.9906
-2.1345 0.3356 -0.8843 0.9907
-2.1302 0.1426 -0.8738 0.9908
-2.1261 -0.2378 -0.8756 0.9908
-2.1365 -0.4343 -0.8923 0.9906
-4.9025 -1.4611 -2.0937 0.9781
-4.7551 -1.8925 -2.0946 0.9781
-4.3497 -2.7090 -2.0973 0.9781
-4.0947 -3.0879 -2.0990 0.9781
-3.8071 -3.4433 -2.1009 0.9781
-3.4892 -3.7724 -2.1031 0.9780
-3.1431 -4.0726 -2.1055 0.9780
-2.7715 -4.3415 -2.1081 0.9780
-2.3772 -4.5769 -2.1108 0.9780
-1.5323 -4.9396 -2.1167 0.9779
-0.1736 -5.1923 -2.1263 0.9778
0.7521 -5.1567 -2.1328 0.9777
1.2099 -5.0771 -2.1361 0.9777
2.5193 -4.5972 -2.1455 0.9776
2.9225 -4.3606 -2.1484 0.9776
3.3032 -4.0885 -2.1512 0.9775
3.6584 -3.7828 -2.1538 0.9775
3.9850 -3.4460 -2.1562 0.9775
4.5416 -2.6900 -2.1603 0.9774
4.7668 -2.2769 -2.1620 0.9774
4.9538 -1.8448 -2.1635 0.9774
5.1010 -1.3973 -2.1646 0.9774
5.2073 -0.9381 -2.1655 0.9774
4.9655 0.0000 -2.1640 0.9786
4.9457 0.4419 -2.1640 0.9786
4.8860 0.8802 -2.1637 0.9786
4.2637 2.5254 -2.1597 0.9786
3.4361 3.5529 -2.1541 0.9787
2.3672 4.3196 -2.1467 0.9787
1.1373 4.7723 -2.1381 0.9788
0.7070 4.8477 -2.1351 0.9789
-1.0233 4.7621 -2.1228 0.9790
-1.8463 4.4927 -2.1169 0.9790
-2.2358 4.3048 -2.1141 0.9791
-2.6068 4.0835 -2.1114 0.9791
-3.5809 3.2387 -2.1042 0.9792
-3.8513 2.9044 -2.1022 0.9792
-4.0910 2.5479 -2.1004 0.9792
-1.9433 0.2174 -0.8522 0.9915
-1.9470 0.0434 -0.8487 0.9915
-1.9080 -0.4772 -0.8571 0.9915
-3.9725 -2.7270 -2.0999 0.9792
-3.7171 -3.0722 -2.1017 0.9792
-3.1195 -3.6898 -2.1058 0.9791
-2.7818 -3.9571 -2.1081 0.9791
-2.0411 -4.3984 -2.1132 0.9791
-1.2322 -4.7031 -2.1189 0.9790
-0.3798 -4.8608 -2.1249 0.9790
0.4894 -4.8652 -2.1311 0.9789
1.3482 -4.7149 -2.1372 0.9788
1.7649 -4.5826 -2.1402 0.9788
2.1688 -4.4133 -2.1431 0.9788
3.2698 -3.6972 -2.1511 0.9787
3.5898 -3.3952 -2.1534 0.9787
4.1428 -2.7101 -2.1575 0.9786
4.3710 -2.3325 -2.1592 0.9786
4.9200 -0.6617 -2.1635 0.9786
4.9606 0.2212 -2.1641 0.9786
4.9208 0.6618 -2.1639 0.9786
4.8414 1.0969 -2.1634 0.9786
4.7229 1.5230 -2.1627 0.9786
4.5665 1.9364 -2.1617 0.9786
4.1455 2.7118 -2.1589 0.9786
3.8845 3.0676 -2.1571 0.9786
3.2727 3.7005 -2.1530 0.9787
2.5589 4.2125 -2.1480 0.9787
1.3497 4.7202 -2.1396 0.9788
0.9229 4.8148 -2.1366 0.9788
-1.2336 4.7084 -2.1213 0.9790
-1.6454 4.5736 -2.1183 0.9790
-2.4238 4.1982 -2.1127 0.9791
-2.7844 3.9609 -2.1101 0.9791
-3.4348 3.3968 -2.1053 0.9791
-4.1988 2.3622 -2.0996 0.9792
-4.3894 1.9777 -2.0982 0.9792
-1.8290 0.6351 -0.8438 0.9916
-1.9080 0.4772 -0.8571 0.9915
-1.9397 0.3050 -0.8557 0.9915
-1.9470 -0.0434 -0.8487 0.9915
-1.9433 -0.2174 -0.8522 0.9915
-3.5781 -3.2362 -2.1026 0.9792
-2.9536 -3.8271 -2.1069 0.9791
-2.6043 -4.0795 -2.1093 0.9791
-2.2335 -4.3003 -2.1119 0.9791
-1.4395 -4.6404 -2.1174 0.9790
-0.5956 -4.8356 -2.1234 0.9790
0.2720 -4.8787 -2.1295 0.9789
0.7062 -4.8421 -2.1326 0.9789
1.5580 -4.6534 -2.1387 0.9788
1.9687 -4.5025 -2.1416 0.9788
2.3648 -4.3152 -2.1445 0.9788
2.7429 -4.0928 -2.1472 0.9787
3.1001 -3.8370 -2.1498 0.9787
3.4332 -3.5499 -2.1523 0.9787
3.7394 -3.2336 -2.1545 0.9787
4.0162 -2.8907 -2.1566 0.9786
4.2612 -2.5239 -2.1584 0.9786
4.7855 -1.3109 -2.1624 0.9786
4.6706 0.0000 -2.1619 0.9796
4.6520 0.4157 -2.1619 0.9796
4.5959 0.8280 -2.1616 0.9796
4.3735 1.6287 -2.1602 0.9796
4.0110 2.3757 -2.1579 0.9797
3.7809 2.7213 -2.1563 0.9797
3.5208 3.0446 -2.1546 0.9797
2.9196 3.6137 -2.1504 0.9797
2.5836 3.8550 -2.1481 0.9798
2.2277 4.0650 -2.1456 0.9798
0.6656 4.5634 -2.1347 0.9799
0.2564 4.5983 -2.1318 0.9799
-1.7389 4.2313 -2.1176 0.9800
-2.1060 4.0547 -2.1149 0.9801
-2.4555 3.8465 -2.1124 0.9801
-2.7850 3.6086 -2.1100 0.9801
-3.0918 3.3428 -2.1077 0.9801
-1.5257 0.6072 -0.7601 0.9928
-1.6675 0.1865 -0.7767 0.9926
-1.6716 0.0373 -0.7739 0.9927
-1.6738 -0.1120 -0.7765 0.9926
-1.6521 -0.2598 -0.7741 0.9927
-4.1343 -1.8628 -2.0990 0.9802
-3.9544 -2.2247 -2.1002 0.9802
-3.7432 -2.5695 -2.1016 0.9802
-3.5023 -2.8948 -2.1032 0.9802
-2.9389 -3.4762 -2.1071 0.9801
-2.6206 -3.7279 -2.1093 0.9801
-2.2809 -3.9507 -2.1116 0.9801
-1.1604 -4.4293 -2.1195 0.9800
-0.3577 -4.5771 -2.1251 0.9800
0.0512 -4.5970 -2.1280 0.9799
2.4057 -3.9603 -2.1449 0.9798
2.7518 -3.7348 -2.1474 0.9798
3.0767 -3.4789 -2.1498 0.9797
3.3776 -3.1945 -2.1520 0.9797
4.5528 -1.0315 -2.1608 0.9796
4.6279 -0.6224 -2.1615 0.9796
4.5539 1.0318 -2.1614 0.9796
4.4426 1.4326 -2.1607 0.9796
2.7543 3.7382 -2.1493 0.9797
1.6629 4.3177 -2.1417 0.9798
0.4613 4.5855 -2.1333 0.9799
0.0513 4.6020 -2.1303 0.9799
-0.3581 4.5821 -2.1274 0.9799
-0.7634 4.5259 -2.1246 0.9800
-1.1617 4.4340 -2.1217 0.9800
-1.9244 4.1470 -2.1162 0.9801
-2.2831 3.9544 -2.1136 0.9801
-2.9414 3.4791 -2.1088 0.9801
-3.2360 3.2002 -2.1067 0.9801
-3.9565 2.2259 -2.1013 0.9802
-4.1362 1.8637 -2.1000 0.9802
-1.5621 0.5424 -0.7654 0.9927
-1.6521 0.2598 -0.7741 0.9927
-1.5924 -0.4746 -0.7692 0.9927
-3.8526 -2.3994 -2.1009 0.9802
-3.6263 -2.7348 -2.1024 0.9802
-2.4533 -3.8430 -2.1104 0.9801
-2.1039 -4.0508 -2.1129 0.9801
-1.7371 -4.2271 -2.1154 0.9801
-1.3557 -4.3704 -2.1181 0.9800
0.2561 -4.5933 -2.1295 0.9799
1.4665 -4.3801 -2.1381 0.9798
2.2255 -4.0611 -2.1436 0.9798
2.5812 -3.8515 -2.1461 0.9798
2.9171 -3.6106 -2.1486 0.9797
3.2303 -3.3401 -2.1509 0.9797
3.5183 -3.0424 -2.1530 0.9797
4.0087 -2.3744 -2.1566 0.9797
4.2071 -2.0095 -2.1581 0.9797
4.5015 -1.2331 -2.1604 0.9796
4.5950 -0.8278 -2.1612 0.9796
4.4036 0.0000 -2.1600 0.9806
4.3860 0.3919 -2.1600 0.9806
4.2455 1.1630 -2.1592 0.9806
4.1236 1.5357 -2.1585 0.9806
3.9687 1.8957 -2.1574 0.9806
3.5653 2.5661 -2.1548 0.9806
3.3202 2.8711 -2.1531 0.9806
3.0488 3.1525 -2.1512 0.9807
2.7535 3.4081 -2.1492 0.9807
2.1012 3.8343 -2.1447 0.9807
1.3849 4.1364 -2.1397 0.9808
1.0100 4.2380 -2.1371 0.9808
-0.1450 4.3376 -2.1289 0.9808
-1.2810 4.1294 -2.1208 0.9809
-2.3182 3.6314 -2.1133 0.9810
-2.9193 3.1563 -2.1089 0.9810
-3.1856 2.8812 -2.1070 0.9810
-3.6402 2.2671 -2.1036 0.9811
-3.8250 1.9328 -2.1022 0.9811
-1.3257 -0.2085 -0.6583 0.9940
-3.7344 -2.1009 -2.1018 0.9811
-2.7749 -3.2822 -2.1083 0.9810
-2.4742 -3.5196 -2.1104 0.9810
-2.1534 -3.7298 -2.1126 0.9810
-0.7198 -4.2670 -2.1226 0.9809
-0.3375 -4.3196 -2.1253 0.9809
0.0483 -4.3381 -2.1281 0.9809
1.1973 -4.1872 -2.1362 0.9808
1.5672 -4.0691 -2.1389 0.9808
2.5955 -3.5227 -2.1463 0.9807
3.1854 -3.0127 -2.1506 0.9807
3.4439 -2.7196 -2.1526 0.9806
3.6752 -2.4042 -2.1543 0.9806
3.8774 -2.0690 -2.1558 0.9806
4.0486 -1.7167 -2.1571 0.9806
4.3990 -0.1962 -2.1600 0.9806
4.2936 0.9728 -2.1595 0.9806
4.0503 1.7174 -2.1580 0.9806
3.6774 2.4056 -2.1555 0.9806
3.4462 2.7214 -2.1539 0.9806
3.1877 3.0149 -2.1522 0.9806
2.9040 3.2836 -2.1502 0.9807
2.2712 3.7389 -2.1459 0.9807
1.1985 4.1914 -2.1384 0.9808
0.8197 4.2761 -2.1357 0.9808
0.4353 4.3266 -2.1330 0.9808
0.0484 4.3426 -2.1303 0.9808
-0.3379 4.3241 -2.1275 0.9809
-0.7205 4.2713 -2.1248 0.9809
-1.4627 4.0657 -2.1195 0.9809
-1.8166 3.9147 -2.1169 0.9810
-2.4763 3.5226 -2.1121 0.9810
-2.7771 3.2848 -2.1100 0.9810
-3.0555 3.0217 -2.1079 0.9810
-3.3094 2.7353 -2.1060 0.9811
-3.7363 2.1020 -2.1028 0.9811
-1.2865 0.5797 -0.6922 0.9937
-1.3171 0.4573 -0.6839 0.9938
-1.3149 0.3289 -0.6649 0.9940
-1.3257 0.2084 -0.6583 0.9940
-1.3047 -0.2652 -0.6531 0.9941
-1.3200 -0.3934 -0.6756 0.9939
-1.3059 -0.5198 -0.6895 0.9938
-3.8232 -1.9319 -2.1012 0.9811
-2.3162 -3.6282 -2.1115 0.9810
-1.9862 -3.8241 -2.1138 0.9810
-1.2797 -4.1253 -2.1187 0.9809
-0.9086 -4.2280 -2.1213 0.9809
-0.1449 -4.3331 -2.1267 0.9809
0.6273 -4.3012 -2.1322 0.9808
1.0089 -4.2337 -2.1349 0.9808
1.3835 -4.1323 -2.1376 0.9808
2.0993 -3.8307 -2.1427 0.9807
3.5631 -2.5646 -2.1534 0.9806
3.7801 -2.2389 -2.1551 0.9806
3.9669 -1.8949 -2.1565 0.9806
4.2443 -1.1626 -2.1586 0.9806
4.3324 -0.7805 -2.1593 0.9806
4.1604 0.0000 -2.1583 0.9814
3.8961 1.4509 -2.1568 0.9814
1.9860 3.6239 -2.1438 0.9816
1.3091 3.9100 -2.1391 0.9816
0.9548 4.0063 -2.1366 0.9816
0.5937 4.0705 -2.1341 0.9816
0.2287 4.1023 -2.1315 0.9817
-0.1371 4.1013 -2.1289 0.9817
-0.8601 4.0023 -2.1237 0.9817
-2.4873 3.2229 -2.1120 0.9818
-3.0138 2.7258 -2.1081 0.9819
-3.2419 2.4448 -2.1064 0.9819
-3.4441 2.1450 -2.1049 0.9819
-1.0665 0.5390 -0.6199 0.9946
-1.1070 0.4406 -0.6181 0.9946
-1.1266 0.3358 -0.6099 0.9947
-1.1785 0.0263 -0.6115 0.9947
-1.1739 -0.0786 -0.6103 0.9947
-1.1517 -0.1811 -0.6048 0.9948
-1.1198 -0.3888 -0.6150 0.9947
-3.3445 -2.2958 -2.1045 0.9819
-3.1290 -2.5862 -2.1060 0.9819
-1.3821 -3.8417 -2.1180 0.9818
1.4814 -3.8465 -2.1383 0.9816
1.8200 -3.7036 -2.1408 0.9816
2.4530 -3.3293 -2.1454 0.9815
2.7423 -3.1008 -2.1475 0.9815
3.4728 -2.2718 -2.1529 0.9815
3.8253 -1.6221 -2.1555 0.9815
3.9564 -1.2758 -2.1566 0.9814
4.1225 -0.5544 -2.1579 0.9814
4.1561 -0.1853 -2.1582 0.9814
3.9576 1.2761 -2.1572 0.9814
3.8268 1.6227 -2.1564 0.9814
3.2564 2.5715 -2.1526 0.9815
3.0122 2.8490 -2.1509 0.9815
2.4550 3.3319 -2.1471 0.9815
1.8216 3.7068 -2.1427 0.9816
1.4828 3.8500 -2.1403 0.9816
1.1329 3.9621 -2.1379 0.9816
0.7749 4.0425 -2.1353 0.9816
0.4115 4.0905 -2.1328 0.9816
-0.6813 4.0391 -2.1250 0.9817
-1.7182 3.7026 -2.1176 0.9818
-2.3424 3.3321 -2.1130 0.9818
-2.6271 3.1074 -2.1110 0.9818
-1.1198 0.3889 -0.6150 0.9947
-1.1275 0.2820 -0.6029 0.9948
-1.1517 0.1811 -0.6048 0.9948
-1.1739 0.0786 -0.6103 0.9947
-1.1649 -0.1303 -0.6081 0.9947
-1.1266 -0.3358 -0.6099 0.9947
-3.4424 -2.1439 -2.1039 0.9819
-3.0118 -2.7241 -2.1068 0.9819
-2.7597 -2.9837 -2.1085 0.9819
-2.4854 -3.2204 -2.1104 0.9818
-1.8788 -3.6173 -2.1146 0.9818
-1.2103 -3.9016 -2.1192 0.9818
-0.8592 -3.9985 -2.1217 0.9817
-0.1370 -4.0973 -2.1268 0.9817
0.2285 -4.0983 -2.1294 0.9817
0.9538 -4.0025 -2.1346 0.9816
1.3078 -3.9064 -2.1371 0.9816
1.9843 -3.6208 -2.1420 0.9816
2.3011 -3.4335 -2.1443 0.9815
2.8791 -2.9769 -2.1485 0.9815
3.1354 -2.7112 -2.1504 0.9815
3.5718 -2.1156 -2.1536 0.9815
3.7482 -1.7904 -2.1549 0.9815
3.8947 -1.4504 -2.1561 0.9814
4.0101 -1.0985 -2.1570 0.9814
4.1435 -0.3703 -2.1581 0.9814
2.0429 0.0000 -1.1189 0.9907
2.0356 0.1819 -1.1193 0.9907
3.5494 1.6954 -2.1544 0.9822
3.3827 2.0036 -2.1533 0.9822
3.1890 2.2953 -2.1520 0.9822
2.9700 2.5683 -2.1505 0.9823
2.4636 3.0493 -2.1471 0.9823
2.1804 3.2535 -2.1451 0.9823
0.9042 3.7940 -2.1362 0.9824
-0.4746 3.8533 -2.1264 0.9824
-0.8147 3.7915 -2.1240 0.9825
-1.1477 3.6997 -2.1216 0.9825
-2.0778 3.2547 -2.1149 0.9825
-2.6170 2.8295 -2.1110 0.9826
-2.8561 2.5832 -2.1092 0.9826
-3.2642 2.0329 -2.1062 0.9826
-0.9638 0.3836 -0.5681 0.9953
-1.0000 0.2033 -0.5589 0.9954
-1.0293 0.1151 -0.5673 0.9953
-1.0415 0.0232 -0.5706 0.9953
-1.0376 -0.0695 -0.5696 0.9953
-1.0166 -0.1598 -0.5637 0.9953
-0.9847 -0.2463 -0.5559 0.9954
-0.9756 -0.3387 -0.5656 0.9953
-0.9240 -0.5198 -0.5806 0.9952
-3.1698 -2.1759 -2.1058 0.9826
-2.4877 -2.9425 -2.1104 0.9826
-1.9301 -3.3431 -2.1143 0.9825
-0.6448 -3.8227 -2.1233 0.9825
-0.3024 -3.8693 -2.1257 0.9825
0.0433 -3.8853 -2.1281 0.9824
0.7332 -3.8249 -2.1330 0.9824
1.0719 -3.7487 -2.1355 0.9824
1.4029 -3.6425 -2.1378 0.9824
2.3225 -3.1522 -2.1445 0.9823
2.5963 -2.9357 -2.1465 0.9823
3.0808 -2.4329 -2.1500 0.9823
3.2874 -2.1505 -2.1516 0.9822
3.4680 -1.8506 -2.1529 0.9822
1.9407 -0.8229 -1.1546 0.9904
2.0041 0.4541 -1.1255 0.9907
1.9407 0.8229 -1.1546 0.9904
3.4695 1.8514 -2.1539 0.9822
2.8516 2.6970 -2.1497 0.9823
2.5981 2.9378 -2.1480 0.9823
2.0324 3.3458 -2.1441 0.9823
1.4041 3.6456 -2.1397 0.9823
1.0729 3.7521 -2.1374 0.9824
0.3897 3.8741 -2.1326 0.9824
0.0433 3.8889 -2.1301 0.9824
-0.9823 3.7493 -2.1228 0.9825
-1.3106 3.6429 -2.1204 0.9825
-1.6279 3.5080 -2.1182 0.9825
-1.9317 3.3457 -2.1160 0.9825
-2.4895 2.9446 -2.1119 0.9826
-2.7393 2.7090 -2.1101 0.9826
-3.1714 2.1771 -2.1069 0.9826
-0.9240 0.5198 -0.5806 0.9952
-0.9847 0.2463 -0.5559 0.9954
-1.0166 0.1599 -0.5637 0.9953
-1.0415 -0.0232 -0.5706 0.9953
-1.0293 -0.1151 -0.5673 0.9953
-0.9825 -0.2928 -0.5615 0.9953
-0.9638 -0.3836 -0.5681 0.9953
-0.9364 -0.4732 -0.5746 0.9952
-3.0707 -2.3157 -2.1064 0.9826
-2.6153 -2.8276 -2.1095 0.9826
-2.0761 -3.2522 -2.1133 0.9826
-1.7802 -3.4274 -2.1153 0.9825
-1.1467 -3.6965 -2.1197 0.9825
-0.8140 -3.7880 -2.1221 0.9825
0.5617 -3.8515 -2.1318 0.9824
0.9033 -3.7906 -2.1343 0.9824
1.5646 -3.5783 -2.1390 0.9823
1.8789 -3.4285 -2.1413 0.9823
2.1788 -3.2509 -2.1434 0.9823
2.7257 -2.8184 -2.1474 0.9823
3.1873 -2.2941 -2.1508 0.9822
3.3811 -2.0026 -2.1523 0.9822
3.5480 -1.6947 -2.1536 0.9822
1.9714 -0.7342 -1.1522 0.9905
2.0004 -0.5480 -1.1360 0.9906
2.0036 -0.3610 -1.1150 0.9908
2.0356 -0.1819 -1.1193 0.9907
1.8700 0.1671 -1.0839 0.9914
1.7869 0.6655 -1.1009 0.9912
1.7194 0.8213 -1.1001 0.9912
3.0236 2.1762 -2.1508 0.9829
2.8160 2.4351 -2.1494 0.9830
2.5862 2.6741 -2.1478 0.9830
2.3361 2.8914 -2.1461 0.9830
1.7832 3.2540 -2.1423 0.9830
0.8576 3.5986 -2.1358 0.9831
0.5333 3.6567 -2.1335 0.9831
0.2055 3.6856 -2.1312 0.9831
-1.0889 3.5104 -2.1220 0.9832
-1.3956 3.3960 -2.1198 0.9832
-1.9717 3.0887 -2.1156 0.9832
-2.9161 2.1991 -2.1087 0.9833
-0.8491 0.5288 -0.5776 0.9954
-0.8932 0.3555 -0.5550 0.9956
-0.9237 0.1033 -0.5366 0.9957
-0.9189 -0.1445 -0.5370 0.9957
-0.8858 -0.3991 -0.5609 0.9955
-2.8147 -2.3264 -2.1083 0.9833
-2.5982 -2.5694 -2.1097 0.9833
-1.8317 -3.1725 -2.1150 0.9832
-1.5435 -3.3261 -2.1170 0.9832
-1.2425 -3.4537 -2.1191 0.9832
-0.9312 -3.5543 -2.1213 0.9832
-0.2868 -3.6709 -2.1258 0.9831
0.0411 -3.6859 -2.1282 0.9831
0.3694 -3.6716 -2.1305 0.9831
1.0167 -3.5556 -2.1351 0.9831
1.9258 -3.1704 -2.1417 0.9830
2.2024 -2.9892 -2.1437 0.9830
2.7021 -2.5557 -2.1473 0.9830
2.9211 -2.3068 -2.1489 0.9830
1.7564 -0.7448 -1.1014 0.9912
1.8316 -0.4150 -1.0843 0.9914
1.8592 -0.2500 -1.0831 0.9914
1.8755 -0.0836 -1.0839 0.9914
1.8592 0.2500 -1.0831 0.9914
1.8316 0.4150 -1.0843 0.9914
1.8108 0.5839 -1.0985 0.9913
1.7564 0.7448 -1.1014 0.9912
1.6861 0.8997 -1.1034 0.9912
2.4636 2.7856 -2.1470 0.9830
2.2040 2.9913 -2.1452 0.9830
1.9273 3.1728 -2.1433 0.9830
1.0176 3.5587 -2.1369 0.9830
0.6961 3.6313 -2.1347 0.9831
0.3697 3.6748 -2.1324 0.9831
0.0411 3.6891 -2.1300 0.9831
-0.2871 3.6741 -2.1277 0.9831
-1.2436 3.4566 -2.1209 0.9832
-1.5447 3.3287 -2.1187 0.9832
-1.8330 3.1749 -2.1166 0.9832
-2.1064 2.9964 -2.1146 0.9832
-2.3626 2.7945 -2.1128 0.9832
-3.0102 2.0664 -2.1080 0.9833
-0.8638 0.4859 -0.5722 0.9954
-0.9189 0.1445 -0.5370 0.9957
-0.9274 0.0621 -0.5366 0.9957
-0.9306 -0.0207 -0.5374 0.9957
-0.9237 -0.1033 -0.5366 0.9957
-0.9012 -0.2686 -0.5429 0.9957
-0.8491 -0.5289 -0.5776 0.9954
-2.4821 -2.6836 -2.1105 0.9833
-2.2352 -2.8963 -2.1122 0.9832
-1.3945 -3.3932 -2.1181 0.9832
-0.7723 -3.5941 -2.1224 0.9832
-0.4498 -3.6525 -2.1247 0.9831
-0.1231 -3.6820 -2.1270 0.9831
0.2053 -3.6824 -2.1293 0.9831
0.5328 -3.6535 -2.1317 0.9831
0.8568 -3.5955 -2.1340 0.9831
1.1747 -3.5087 -2.1363 0.9831
1.7818 -3.2514 -2.1406 0.9830
2.3345 -2.8894 -2.1446 0.9830
2.5846 -2.6724 -2.1465 0.9830
2.8144 -2.4337 -2.1482 0.9830
3.0220 -2.1751 -2.1497 0.9829
3.2057 -1.8987 -2.1511 0.9829
1.8426 -0.3320 -1.0810 0.9914
1.8700 -0.1671 -1.0839 0.9914
