ply
format ascii 1.0
element vertex 1369
property float32 x
property float32 y
property float32 z
property float32 I
end_header
-16.2862 10.1431 -1.8420 0.9258
-17.9158 -6.2211 -1.8208 0.9266
-17.1181 -7.7130 -1.8025 0.9273
-15.8601 10.8873 -1.8469 0.9256
-17.2678 9.7147 -1.9021 0.9235
-17.4332 -6.9382 -1.8014 0.9274
19.0448 1.7019 -2.2713 0.9259
18.8285 3.3921 -2.2726 0.9258
18.4511 5.0543 -2.2725 0.9258
17.9164 6.6721 -2.2710 0.9259
17.2299 8.2300 -2.2682 0.9260
16.3988 9.7130 -2.2640 0.9261
14.3395 12.3999 -2.2519 0.9265
12.7906 13.2253 -2.1855 0.9286
-11.7409 10.6190 -1.8805 0.9382
-12.8869 9.7185 -1.9173 0.9371
-15.0285 7.5943 -2.0002 0.9344
-15.5887 6.2042 -1.9930 0.9346
-16.3467 3.3226 -1.9815 0.9350
-16.5416 1.8504 -1.9772 0.9352
-16.5609 -1.1086 -1.9716 0.9353
-16.0903 -4.0245 -1.9702 0.9354
-15.6750 -5.4429 -1.9710 0.9353
-13.4500 -7.5668 -1.8332 0.9397
17.5109 -2.3550 -2.0988 0.9313
19.0639 -0.8501 -2.2668 0.9260
19.0919 0.8513 -2.2701 0.9259
18.9569 2.5495 -2.2721 0.9258
18.2031 5.8698 -2.2719 0.9259
17.5917 7.4595 -2.2698 0.9259
16.8319 8.9818 -2.2662 0.9260
15.9317 10.4220 -2.2614 0.9262
11.5892 13.1041 -2.0780 0.9320
-11.2847 11.1597 -1.8852 0.9381
-15.8239 5.4947 -1.9898 0.9348
-16.2031 4.0527 -1.9840 0.9349
-16.5927 1.1108 -1.9754 0.9352
-16.4889 -1.8446 -1.9709 0.9354
-15.8975 -4.7379 -1.9705 0.9354
-13.1118 -8.1661 -1.8349 0.9397
18.7174 -1.6726 -2.2322 0.9271
15.7722 1.4094 -2.2437 0.9380
15.5916 2.8090 -2.2447 0.9380
14.2726 6.8174 -2.2411 0.9381
11.8930 10.2843 -2.2278 0.9385
9.3026 11.5140 -2.0973 0.9420
6.9139 12.6163 -2.0384 0.9435
-7.2868 11.4145 -1.9188 0.9468
-8.2341 10.6693 -1.9096 0.9470
-10.6453 9.6281 -2.0337 0.9437
-12.7068 6.4210 -2.0172 0.9441
-13.1878 5.2486 -2.0111 0.9443
-13.8413 2.8134 -2.0013 0.9445
-14.0750 0.3136 -1.9948 0.9447
-13.6361 -3.4106 -1.9916 0.9448
-13.2832 -4.6124 -1.9923 0.9448
-12.8272 -5.7797 -1.9935 0.9447
-10.7959 -7.4110 -1.8554 0.9485
-10.1147 -8.3600 -1.8593 0.9484
13.8694 -4.4723 -2.0648 0.9428
14.9378 -3.3845 -2.1702 0.9400
15.7934 -0.7043 -2.2400 0.9381
15.8127 0.7051 -2.2427 0.9381
15.6985 2.1113 -2.2443 0.9380
15.4517 3.5009 -2.2448 0.9380
15.0745 4.8609 -2.2442 0.9380
14.5705 6.1784 -2.2424 0.9381
13.9449 7.4412 -2.2396 0.9381
7.4844 12.3210 -2.0426 0.9434
-9.8244 9.7155 -1.9577 0.9457
-11.0744 9.1532 -2.0357 0.9436
-13.9393 2.1919 -1.9993 0.9446
-13.9731 -1.5631 -1.9922 0.9448
-13.4723 -4.0152 -1.9919 0.9448
-13.0692 -5.2014 -1.9930 0.9448
-12.2817 -6.2062 -1.9497 0.9459
-10.4655 -7.8924 -1.8572 0.9484
15.5011 -2.7927 -2.2317 0.9384
13.4893 0.0000 -2.2222 0.9468
13.4469 1.2016 -2.2241 0.9467
12.1703 5.8133 -2.2219 0.9468
11.5895 6.8645 -2.2190 0.9469
10.9139 7.8553 -2.2152 0.9469
10.1501 8.7772 -2.2106 0.9471
9.3056 9.6220 -2.2052 0.9472
8.3887 10.3828 -2.1990 0.9473
7.2213 10.7749 -2.1368 0.9488
5.9127 10.7893 -2.0268 0.9513
4.9107 11.2311 -2.0193 0.9515
2.8188 11.8281 -2.0031 0.9519
-2.4980 11.6247 -1.9588 0.9529
-5.4069 10.4102 -1.9325 0.9536
-7.4918 9.7074 -2.0201 0.9515
-8.4792 9.1676 -2.0572 0.9506
-11.4179 4.5442 -2.0245 0.9514
-11.9916 2.4374 -2.0159 0.9516
-12.1415 1.3582 -2.0127 0.9517
-12.1993 0.2719 -2.0102 0.9517
-12.0385 -1.8930 -2.0076 0.9518
-11.8214 -2.9567 -2.0074 0.9518
-10.6232 -5.9765 -2.0080 0.9518
-9.3541 -6.4212 -1.8691 0.9550
-8.7614 -7.2414 -1.8725 0.9550
-8.0997 -8.0099 -1.8766 0.9549
11.4222 -4.8434 -2.0439 0.9509
13.1049 -2.9692 -2.2136 0.9470
13.3419 -1.7943 -2.2177 0.9469
13.3834 1.7999 -2.2246 0.9467
12.8515 4.1441 -2.2245 0.9467
12.4233 5.2679 -2.2230 0.9468
10.5426 8.3254 -2.2130 0.9470
6.4186 10.5665 -2.0367 0.9511
5.4163 11.0219 -2.0231 0.9514
4.3970 11.4165 -2.0154 0.9516
2.2842 11.9165 -1.9989 0.9520
-3.0065 11.4756 -1.9543 0.9530
-3.9977 11.1118 -1.9454 0.9533
-4.9487 10.6641 -1.9367 0.9535
-8.0598 9.5332 -2.0566 0.9507
-12.0781 1.8992 -2.0142 0.9516
-12.1936 -0.2717 -2.0093 0.9518
-12.1131 -1.3551 -2.0080 0.9518
-11.3289 -4.5088 -2.0087 0.9518
-9.9747 -6.2123 -1.9359 0.9535
10.6265 -6.2941 -2.0346 0.9512
11.9235 -4.4404 -2.0961 0.9497
12.9458 -3.5462 -2.2112 0.9470
13.2371 -2.3848 -2.2158 0.9469
13.4190 -1.1991 -2.2194 0.9468
11.7078 1.0462 -2.2094 0.9533
11.3405 3.1065 -2.2101 0.9533
11.0146 4.1019 -2.2092 0.9533
9.5073 6.8430 -2.2018 0.9534
8.8444 7.6480 -2.1977 0.9535
5.5499 10.1273 -2.1706 0.9541
4.4204 10.1098 -2.0739 0.9561
0.5871 10.5299 -1.9823 0.9580
-0.3510 10.4988 -1.9745 0.9581
-3.0751 9.9131 -1.9509 0.9586
-3.9949 9.7210 -1.9754 0.9581
-5.0404 9.7045 -2.0554 0.9565
-5.9468 9.3155 -2.0773 0.9560
-8.1160 7.3405 -2.0569 0.9564
-9.6842 4.8936 -2.0394 0.9568
-10.7554 0.2397 -2.0221 0.9572
-10.6153 -1.6692 -2.0198 0.9572
-10.4239 -2.6072 -2.0196 0.9572
-9.8053 -4.4180 -2.0215 0.9572
-9.3821 -5.2783 -2.0234 0.9571
-6.4937 -7.6807 -1.8905 0.9599
8.4163 -6.6463 -2.0157 0.9573
10.7123 -4.5424 -2.1870 0.9537
11.1198 -3.5857 -2.1961 0.9536
11.4170 -2.5868 -2.2003 0.9535
11.6207 -1.5628 -2.2039 0.9534
11.7285 -0.5230 -2.2067 0.9533
11.6522 1.5671 -2.2099 0.9533
11.4683 2.5984 -2.2102 0.9533
10.3563 5.5263 -2.2064 0.9533
9.8104 6.4177 -2.2035 0.9534
7.7203 8.7294 -2.1904 0.9537
6.8947 9.3576 -2.1847 0.9538
6.0172 9.9057 -2.1785 0.9539
5.0189 10.2131 -2.1389 0.9547
3.8614 10.0259 -2.0194 0.9572
2.9269 10.2361 -2.0011 0.9576
1.0577 10.5137 -1.9861 0.9579
0.1173 10.5249 -1.9784 0.9581
-0.8167 10.4519 -1.9705 0.9582
-1.7368 10.2963 -1.9626 0.9584
-4.5074 9.7133 -2.0127 0.9574
-5.5250 9.5696 -2.0770 0.9560
-7.7936 7.7072 -2.0602 0.9564
-8.9812 6.1652 -2.0476 0.9566
-9.4685 5.3269 -2.0420 0.9567
-10.2156 3.5472 -2.0326 0.9569
-10.6460 1.6740 -2.0256 0.9571
-10.7394 0.7189 -2.0231 0.9571
-10.5296 -2.1402 -2.0196 0.9572
-9.6029 -4.8525 -2.0223 0.9572
-8.2403 -6.2143 -1.9399 0.9589
-6.8216 -7.3754 -1.8883 0.9599
8.7177 -6.2746 -2.0189 0.9572
11.2799 -3.0899 -2.1983 0.9535
8.9311 5.2899 -2.1942 0.9584
8.4137 6.0559 -2.1913 0.9585
5.7247 8.5418 -2.1736 0.9588
4.0968 9.3697 -2.1616 0.9591
-5.2997 8.3018 -2.0819 0.9605
-5.9981 7.7719 -2.0752 0.9607
-6.6454 7.1849 -2.0688 0.9608
-8.9794 3.5737 -2.0429 0.9613
-9.5604 1.0695 -2.0335 0.9614
-9.6084 0.2141 -2.0315 0.9615
-9.5830 -0.6415 -2.0302 0.9615
-9.3135 -2.3295 -2.0293 0.9615
-9.0715 -3.1499 -2.0298 0.9615
-8.7599 -3.9470 -2.0310 0.9615
-7.9372 -5.4486 -2.0350 0.9614
-7.4090 -6.1237 -2.0318 0.9615
-6.3711 -6.3005 -1.8940 0.9640
4.8726 -8.0215 -1.9839 0.9624
7.4596 -5.8908 -2.0092 0.9619
9.0771 -4.8437 -2.1748 0.9588
9.5030 -4.0296 -2.1819 0.9587
9.8437 -3.1742 -2.1863 0.9586
10.1045 -2.2894 -2.1900 0.9585
10.3075 1.3862 -2.1984 0.9584
9.8980 3.1917 -2.1983 0.9584
9.1628 4.8894 -2.1953 0.9584
8.6812 5.6790 -2.1928 0.9585
6.8363 7.7299 -2.1813 0.9587
3.6696 9.5278 -2.1582 0.9591
1.8740 9.7764 -2.1042 0.9601
0.9791 9.7325 -2.0676 0.9608
-0.7588 9.7103 -2.0588 0.9610
-3.3605 9.3407 -2.0983 0.9602
-4.9328 8.5439 -2.0854 0.9605
-6.9485 6.8715 -2.0657 0.9608
-8.8201 3.9741 -2.0449 0.9612
-9.1211 3.1672 -2.0410 0.9613
-9.3512 2.3389 -2.0375 0.9614
-9.5089 1.4952 -2.0347 0.9614
-9.5936 0.6422 -2.0324 0.9615
-9.6049 -0.2140 -2.0308 0.9615
-9.4079 -1.9122 -2.0293 0.9615
-9.2013 -2.7423 -2.0295 0.9615
-8.5788 -4.3350 -2.0318 0.9615
-6.8695 -6.2131 -1.9579 0.9628
-5.4912 -7.1151 -1.8998 0.9639
-3.4426 -8.3771 -1.9145 0.9636
5.9280 -7.3371 -1.9939 0.9622
9.3038 -4.4441 -2.1795 0.9587
9.9843 -2.7350 -2.1882 0.9586
10.2042 -1.8384 -2.1917 0.9585
9.3081 0.0000 -2.1876 0.9625
8.9848 2.4612 -2.1894 0.9624
8.7274 3.2501 -2.1887 0.9625
8.3983 4.0115 -2.1874 0.9625
8.0008 4.7389 -2.1855 0.9625
7.5384 5.4258 -2.1829 0.9626
7.0153 6.0664 -2.1797 0.9626
6.4366 6.6554 -2.1760 0.9627
4.4207 8.0668 -2.1619 0.9629
2.9050 8.6767 -2.1505 0.9631
2.1151 8.8753 -2.1443 0.9632
-0.3021 9.0349 -2.1246 0.9635
-1.1015 8.9436 -2.1178 0.9637
-1.8871 8.7818 -2.1110 0.9638
-3.3925 8.2553 -2.0976 0.9640
-4.1010 7.8959 -2.0911 0.9641
-4.7731 7.4769 -2.0848 0.9642
-5.4038 7.0019 -2.0787 0.9643
-5.9888 6.4750 -2.0729 0.9644
-6.5241 5.9007 -2.0674 0.9645
-7.0060 5.2835 -2.0623 0.9646
-7.4314 4.6283 -2.0576 0.9647
-7.7976 3.9403 -2.0533 0.9647
-8.3435 2.4866 -2.0461 0.9649
-8.5198 1.7318 -2.0433 0.9649
-8.6304 0.9655 -2.0410 0.9649
-8.6745 0.1933 -2.0392 0.9650
-8.6521 -0.5792 -2.0380 0.9650
-8.1904 -2.8440 -2.0377 0.9650
-7.9087 -3.5635 -2.0387 0.9650
-6.7070 -5.5435 -2.0450 0.9649
-6.1786 -6.1101 -2.0423 0.9649
-4.0671 -7.0444 -1.9117 0.9671
-3.4322 -7.3963 -1.9163 0.9671
-2.7674 -7.6922 -1.9213 0.9670
-0.6424 -8.2206 -1.9379 0.9667
0.0921 -8.2705 -1.9439 0.9666
1.5670 -8.1749 -1.9563 0.9664
2.2957 -8.0288 -1.9626 0.9663
3.7065 -7.5424 -1.9751 0.9661
5.0158 -6.8075 -1.9873 0.9659
5.6181 -6.3525 -1.9931 0.9658
6.1785 -5.8435 -1.9987 0.9657
8.5181 -3.6120 -2.1745 0.9627
8.8216 -2.8446 -2.1784 0.9626
9.0538 -2.0513 -2.1818 0.9626
9.2952 -0.4145 -2.1868 0.9625
9.3019 0.4148 -2.1883 0.9625
9.2320 1.2416 -2.1893 0.9624
8.5716 3.6347 -2.1882 0.9625
7.7774 5.0877 -2.1842 0.9625
7.2841 5.7522 -2.1814 0.9626
5.4756 7.4315 -2.1695 0.9628
4.7815 7.8714 -2.1645 0.9629
4.0519 8.2453 -2.1592 0.9630
1.7151 8.9474 -2.1411 0.9633
0.1009 9.0538 -2.1280 0.9635
-0.7031 8.9982 -2.1212 0.9636
-2.2728 8.6751 -2.1076 0.9638
-3.0262 8.4115 -2.1009 0.9639
-3.7510 8.0833 -2.0943 0.9640
-4.4419 7.6937 -2.0879 0.9642
-5.7023 6.7447 -2.0758 0.9644
-6.2629 6.1935 -2.0701 0.9645
-8.2309 2.8581 -2.0478 0.9648
-8.4398 2.1110 -2.0447 0.9649
-8.6608 0.5798 -2.0400 0.9650
-8.6716 -0.1932 -2.0385 0.9650
-8.4944 -1.7266 -2.0372 0.9650
-8.3078 -2.4760 -2.0374 0.9650
-8.0573 -3.2067 -2.0381 0.9650
-7.3724 -4.5916 -2.0413 0.9649
-6.9426 -5.2357 -2.0436 0.9649
-6.4537 -5.8370 -2.0451 0.9649
-5.7431 -6.2094 -1.9879 0.9658
-4.9536 -6.4186 -1.9055 0.9672
-3.7537 -7.2271 -1.9140 0.9671
-3.1033 -7.5514 -1.9188 0.9670
-2.4253 -7.8185 -1.9239 0.9669
-0.2760 -8.2537 -1.9409 0.9666
0.4612 -8.2712 -1.9469 0.9665
1.1994 -8.2234 -1.9531 0.9664
2.6554 -7.9312 -1.9657 0.9662
4.0451 -7.3814 -1.9782 0.9660
5.9039 -6.1046 -1.9959 0.9657
7.4502 -5.3623 -2.1574 0.9630
8.3405 -3.9839 -2.1724 0.9627
8.6786 -3.2319 -2.1765 0.9627
8.9468 -2.4508 -2.1802 0.9626
8.4207 0.0000 -2.1803 0.9658
8.2937 1.4942 -2.1820 0.9658
7.5978 3.6291 -2.1801 0.9658
6.3487 5.4900 -2.1732 0.9659
5.8259 6.0240 -2.1698 0.9660
5.2573 6.5071 -2.1660 0.9660
4.6482 6.9356 -2.1617 0.9661
2.6323 7.8622 -2.1467 0.9663
1.9171 8.0444 -2.1412 0.9664
1.1902 8.1609 -2.1354 0.9665
-0.2740 8.1961 -2.1233 0.9667
-0.9995 8.1156 -2.1172 0.9668
-3.0812 7.4977 -2.0988 0.9671
-4.9120 6.3646 -2.0816 0.9673
-5.9332 5.3663 -2.0713 0.9675
-6.3729 4.8060 -2.0667 0.9676
-6.7613 4.2110 -2.0624 0.9676
-7.0958 3.5856 -2.0585 0.9677
-7.7564 1.5766 -2.0493 0.9678
-7.6577 -1.9153 -2.0438 0.9679
-7.4583 -2.5898 -2.0442 0.9679
-7.2015 -3.2448 -2.0451 0.9679
-6.5228 -4.4776 -2.0485 0.9678
-6.1056 -5.0464 -2.0509 0.9678
-5.6401 -5.5776 -2.0538 0.9678
-3.6999 -6.4083 -1.9159 0.9699
-3.1216 -6.7269 -1.9201 0.9698
-1.2427 -7.3674 -1.9345 0.9696
-0.5836 -7.4690 -1.9398 0.9695
0.0837 -7.5123 -1.9452 0.9694
1.4225 -7.4211 -1.9564 0.9693
2.0835 -7.2863 -1.9622 0.9692
2.7316 -7.0925 -1.9679 0.9691
3.9685 -6.5330 -1.9791 0.9689
6.5327 -5.1589 -2.1553 0.9662
6.9814 -4.5671 -2.1600 0.9661
7.7105 -3.2695 -2.1684 0.9660
7.9838 -2.5744 -2.1720 0.9659
8.1927 -1.8562 -2.1750 0.9659
8.3351 -1.1210 -2.1775 0.9658
8.4094 -0.3750 -2.1795 0.9658
8.4148 0.3752 -2.1809 0.9658
8.3513 1.1231 -2.1818 0.9658
7.4258 3.9625 -2.1793 0.9658
6.5915 5.2053 -2.1746 0.9659
6.0934 5.7631 -2.1715 0.9659
5.5470 6.2721 -2.1680 0.9660
3.6701 7.4685 -2.1546 0.9662
2.9837 7.7469 -2.1494 0.9663
1.5547 8.1109 -2.1383 0.9665
-1.3581 8.0513 -2.1141 0.9668
-4.0360 6.9906 -2.0900 0.9672
-5.1839 6.1316 -2.0789 0.9674
-7.2421 3.2631 -2.0567 0.9677
-7.6831 1.9217 -2.0506 0.9678
-7.8147 1.2288 -2.0482 0.9678
-7.8962 -0.1760 -2.0450 0.9679
-7.5653 -2.2547 -2.0439 0.9679
-6.3204 -4.7664 -2.0496 0.9678
-5.3870 -5.8244 -2.0542 0.9678
-4.7875 -6.2033 -2.0289 0.9681
-3.4144 -6.5739 -1.9180 0.9699
-2.8221 -6.8673 -1.9223 0.9698
-2.2051 -7.1084 -1.9270 0.9697
-1.5676 -7.2951 -1.9319 0.9696
-0.2507 -7.4981 -1.9425 0.9695
1.7542 -7.3611 -1.9593 0.9692
3.0493 -6.9739 -1.9707 0.9690
3.6683 -6.6939 -1.9764 0.9690
6.7637 -4.8682 -2.1577 0.9662
7.1855 -4.2560 -2.1623 0.9661
7.5504 -3.6065 -2.1665 0.9660
7.8551 -2.9253 -2.1703 0.9660
8.0965 -2.2179 -2.1736 0.9659
7.6800 0.0000 -2.1742 0.9686
7.5636 1.3627 -2.1757 0.9686
7.4122 2.0304 -2.1756 0.9686
7.2002 2.6814 -2.1751 0.9686
6.6025 3.9107 -2.1724 0.9686
6.2222 4.4785 -2.1703 0.9686
4.7976 5.9381 -2.1611 0.9688
4.2425 6.3302 -2.1573 0.9688
3.0404 6.9536 -2.1485 0.9689
2.4040 7.1804 -2.1436 0.9690
1.0875 7.4565 -2.1332 0.9692
0.4184 7.5045 -2.1278 0.9692
-0.2505 7.4924 -2.1222 0.9693
-0.9139 7.4206 -2.1166 0.9694
-1.5666 7.2904 -2.1110 0.9695
-2.8194 6.8607 -2.0998 0.9696
-3.4100 6.5655 -2.0944 0.9697
-5.4352 4.9158 -2.0746 0.9700
-6.1960 3.8589 -2.0664 0.9701
-6.5035 3.2864 -2.0628 0.9702
-6.7597 2.6903 -2.0596 0.9702
-6.9629 2.0752 -2.0568 0.9702
-7.2432 0.1614 -2.0510 0.9703
-7.2252 -0.4837 -2.0500 0.9703
-7.0227 -1.7565 -2.0493 0.9704
-6.8398 -2.3750 -2.0497 0.9703
-6.3170 -3.5539 -2.0519 0.9703
-5.5977 -4.6266 -2.0559 0.9703
-5.1703 -5.1131 -2.0585 0.9702
-3.5826 -6.2053 -2.0284 0.9707
-2.8874 -6.2223 -1.9419 0.9719
-1.7295 -6.6014 -1.9319 0.9720
-0.5342 -6.8367 -1.9413 0.9719
0.0766 -6.8747 -1.9463 0.9718
1.3011 -6.7879 -1.9566 0.9717
2.4973 -6.4841 -1.9670 0.9715
3.0726 -6.2526 -1.9722 0.9715
3.6764 -6.0523 -2.0047 0.9710
5.0033 -5.6573 -2.1380 0.9691
5.5092 -5.2106 -2.1467 0.9690
6.3725 -4.1687 -2.1557 0.9688
7.6744 0.3422 -2.1747 0.9686
7.3137 2.3583 -2.1754 0.9686
7.0720 2.9988 -2.1746 0.9686
6.7728 3.6141 -2.1732 0.9686
6.4188 4.1990 -2.1714 0.9686
6.0130 4.7485 -2.1690 0.9686
5.0616 5.7232 -2.1629 0.9687
4.5244 6.1406 -2.1593 0.9688
3.9524 6.5066 -2.1552 0.9688
3.3508 6.8186 -2.1508 0.9689
2.0793 7.2718 -2.1411 0.9690
1.4204 7.4099 -2.1359 0.9691
0.7533 7.4881 -2.1305 0.9692
-0.5832 7.4639 -2.1194 0.9694
-1.8873 7.2038 -2.1082 0.9695
-2.5143 6.9886 -2.1026 0.9696
-3.1182 6.7195 -2.0971 0.9697
-5.6428 4.6639 -2.0725 0.9700
-6.3561 3.5759 -2.0646 0.9701
-7.0441 1.7619 -2.0556 0.9703
-7.1654 1.1267 -2.0534 0.9703
-5.7950 -4.3702 -2.0547 0.9703
-5.3894 -4.8744 -2.0572 0.9702
-4.9410 -5.3421 -2.0600 0.9702
-3.9165 -6.1350 -2.0605 0.9702
-2.5852 -6.2907 -1.9254 0.9721
-2.0195 -6.5102 -1.9296 0.9721
-1.4354 -6.6798 -1.9342 0.9720
-0.8372 -6.7976 -1.9389 0.9719
-0.2294 -6.8625 -1.9438 0.9719
0.9961 -6.8301 -1.9540 0.9717
1.6044 -6.7322 -1.9592 0.9716
2.2031 -6.5802 -1.9644 0.9716
2.7874 -6.3748 -1.9696 0.9715
4.7341 -5.8595 -2.1325 0.9692
5.7422 -4.9655 -2.1491 0.9689
6.1744 -4.4440 -2.1536 0.9689
6.5581 -3.8844 -2.1578 0.9688
6.8900 -3.2911 -2.1616 0.9688
7.1670 -2.6690 -2.1650 0.9687
7.3863 -2.0233 -2.1680 0.9687
7.5458 -1.3594 -2.1706 0.9686
7.0517 0.0000 -2.1690 0.9709
7.0268 0.6279 -2.1699 0.9709
6.9445 1.2511 -2.1704 0.9709
5.3194 4.5999 -2.1630 0.9710
1.0001 6.8571 -2.1314 0.9714
-0.2305 6.8929 -2.1213 0.9716
-0.8410 6.8284 -2.1161 0.9716
-2.5960 6.3171 -2.1007 0.9718
-4.1439 5.3694 -2.0861 0.9720
-5.0093 4.5306 -2.0775 0.9721
-6.2336 2.4809 -2.0636 0.9723
-6.4216 1.9138 -2.0610 0.9723
-6.6463 0.7435 -2.0570 0.9724
-6.6816 0.1489 -2.0556 0.9724
-6.6652 -0.4462 -2.0547 0.9724
-6.0921 -2.7450 -2.0552 0.9724
-5.8271 -3.2782 -2.0564 0.9724
-5.5165 -3.7869 -2.0581 0.9724
-4.7681 -4.7153 -2.0626 0.9723
-4.3354 -5.1280 -2.0654 0.9723
-2.8329 -6.1048 -2.0700 0.9722
-2.2332 -6.2073 -2.0290 0.9728
-1.6290 -6.2178 -1.9770 0.9735
-1.0505 -6.2276 -1.9425 0.9739
0.0705 -6.3305 -1.9473 0.9739
0.6352 -6.3143 -1.9520 0.9738
1.1976 -6.2480 -1.9567 0.9737
1.7677 -6.1821 -1.9777 0.9735
2.3663 -6.1439 -2.0250 0.9728
2.9945 -6.0936 -2.0884 0.9720
5.0638 -4.7893 -2.1438 0.9713
5.8553 -3.8303 -2.1521 0.9711
6.6900 -2.1572 -2.1620 0.9710
6.9814 -0.9389 -2.1667 0.9710
7.0464 0.3142 -2.1695 0.9709
6.9928 0.9404 -2.1702 0.9709
6.7150 2.1653 -2.1701 0.9709
6.2190 3.3186 -2.1681 0.9709
5.5222 4.3608 -2.1643 0.9710
5.1060 4.8293 -2.1617 0.9710
4.6495 5.2573 -2.1587 0.9711
4.1566 5.6414 -2.1553 0.9711
3.0794 6.2663 -2.1475 0.9712
2.5043 6.5024 -2.1432 0.9713
1.9116 6.6852 -2.1386 0.9713
1.3061 6.8136 -2.1339 0.9714
0.6928 6.8868 -2.1289 0.9714
0.0769 6.9047 -2.1239 0.9715
-1.1429 6.7758 -2.1135 0.9717
-1.7372 6.6309 -2.1084 0.9717
-2.3148 6.4342 -2.1032 0.9718
-2.8714 6.1877 -2.0982 0.9719
-3.4028 5.8937 -2.0932 0.9719
-3.9049 5.5548 -2.0885 0.9720
-4.3742 5.1738 -2.0839 0.9720
-4.8073 4.7540 -2.0795 0.9721
-5.8603 3.2969 -2.0682 0.9723
-6.1211 2.7581 -2.0650 0.9723
-6.3338 2.1993 -2.0622 0.9723
-6.6093 1.0393 -2.0578 0.9724
-6.6799 -0.1489 -2.0551 0.9724
-6.5444 -1.3302 -2.0541 0.9724
-6.4004 -1.9075 -2.0542 0.9724
-6.2070 -2.4703 -2.0548 0.9724
-5.6774 -3.5359 -2.0572 0.9724
-5.3449 -4.0308 -2.0591 0.9724
-4.9704 -4.4954 -2.0613 0.9723
-4.1058 -5.3200 -2.0670 0.9723
-3.6218 -5.6735 -2.0703 0.9722
-2.5482 -6.2008 -2.0620 0.9723
0.3529 -6.3287 -1.9496 0.9738
0.9170 -6.2874 -1.9543 0.9738
3.3120 -6.0436 -2.1197 0.9716
3.8533 -5.7496 -2.1289 0.9714
4.3661 -5.4040 -2.1369 0.9713
4.8403 -5.0048 -2.1415 0.9713
5.2774 -4.5636 -2.1460 0.9712
6.3294 -3.0233 -2.1575 0.9711
6.5829 -2.4515 -2.1606 0.9710
6.7836 -1.8582 -2.1633 0.9710
6.9295 -1.2484 -2.1657 0.9710
6.5116 0.0000 -2.1645 0.9729
6.4883 0.5798 -2.1654 0.9729
6.2839 1.7213 -2.1657 0.9729
6.1044 2.2733 -2.1653 0.9729
5.5987 3.3161 -2.1630 0.9729
5.2770 3.7981 -2.1612 0.9730
4.5100 4.6633 -2.1564 0.9730
4.0715 5.0393 -2.1535 0.9731
3.6013 5.3735 -2.1502 0.9731
3.1035 5.6632 -2.1466 0.9731
2.5825 5.9063 -2.1428 0.9732
0.9247 6.3403 -2.1298 0.9734
-0.7780 6.3171 -2.1157 0.9735
-1.8772 6.0516 -2.1061 0.9736
-2.9075 5.5979 -2.0968 0.9738
-3.3869 5.3055 -2.0923 0.9738
-3.8377 4.9727 -2.0879 0.9739
-4.6406 4.1972 -2.0799 0.9740
-5.5574 2.8083 -2.0698 0.9741
-5.7776 2.2995 -2.0670 0.9741
-6.0807 1.2360 -2.0626 0.9742
-6.1616 0.6893 -2.0609 0.9742
-6.1946 0.1381 -2.0596 0.9742
-6.1797 -0.4137 -2.0588 0.9742
-6.1169 -0.9618 -2.0583 0.9742
-5.8502 -2.0314 -2.0585 0.9742
-5.6482 -2.5449 -2.0593 0.9742
-5.4022 -3.0392 -2.0604 0.9742
-5.1140 -3.5106 -2.0619 0.9742
-4.4195 -4.3705 -2.0661 0.9741
-4.0180 -4.7526 -2.0687 0.9741
-2.6321 -5.6720 -2.0785 0.9740
-1.5868 -6.0567 -2.0812 0.9740
-0.4847 -6.2029 -2.0681 0.9741
0.0691 -6.2039 -2.0623 0.9742
3.3238 -5.4718 -2.1281 0.9734
3.8058 -5.1653 -2.1327 0.9733
4.2592 -4.8159 -2.1371 0.9733
4.6801 -4.4264 -2.1413 0.9732
5.0648 -3.9996 -2.1452 0.9732
5.4100 -3.5391 -2.1489 0.9731
5.7125 -3.0483 -2.1523 0.9731
5.9697 -2.5314 -2.1554 0.9730
6.1791 -1.9925 -2.1581 0.9730
6.3387 -1.4362 -2.1604 0.9730
6.5033 -0.2900 -2.1639 0.9729
6.5066 0.2901 -2.1650 0.9729
6.2004 1.9994 -2.1656 0.9729
5.7428 3.0644 -2.1637 0.9729
5.4433 3.5608 -2.1621 0.9730
5.1001 4.0275 -2.1602 0.9730
3.8401 5.2118 -2.1519 0.9731
2.8456 5.7907 -2.1447 0.9732
1.7671 6.1797 -2.1365 0.9733
1.2075 6.2995 -2.1321 0.9733
0.6407 6.3683 -2.1275 0.9734
0.0711 6.3860 -2.1229 0.9734
-1.6076 6.1361 -2.1085 0.9736
-2.1425 5.9552 -2.1038 0.9737
-2.6581 5.7281 -2.0991 0.9737
-3.1505 5.4569 -2.0945 0.9738
-4.8186 3.9827 -2.0780 0.9740
-5.6731 2.5562 -2.0684 0.9741
-6.1271 0.9634 -2.0617 0.9742
-6.1841 0.4140 -2.0602 0.9742
-6.1931 -0.1380 -2.0591 0.9742
-6.1542 -0.6885 -2.0585 0.9742
-6.0677 -1.2333 -2.0582 0.9742
-5.9342 -1.7686 -2.0583 0.9742
-4.6072 -4.1669 -2.0649 0.9742
-4.2230 -4.5659 -2.0674 0.9741
-3.8050 -4.9303 -2.0702 0.9741
-3.3561 -5.2573 -2.0733 0.9741
-2.8796 -5.5442 -2.0767 0.9740
-1.8544 -5.9779 -2.0805 0.9740
-0.7637 -6.2009 -2.0768 0.9740
-0.2074 -6.2042 -2.0634 0.9742
0.9030 -6.1915 -2.0799 0.9740
2.0161 -6.0217 -2.1109 0.9736
3.5681 -5.3240 -2.1304 0.9733
5.2425 -3.7733 -2.1471 0.9731
5.5668 -3.2972 -2.1507 0.9731
5.9494 1.0718 -2.1618 0.9746
5.6639 2.1093 -2.1613 0.9747
5.4515 2.6039 -2.1605 0.9747
4.8968 3.5245 -2.1576 0.9747
4.5594 3.9427 -2.1555 0.9747
4.1857 4.3280 -2.1531 0.9747
3.7791 4.6775 -2.1504 0.9748
3.3431 4.9882 -2.1474 0.9748
2.8813 5.2578 -2.1441 0.9749
1.8969 5.6657 -2.1367 0.9749
1.3825 5.8012 -2.1326 0.9750
-0.1981 5.9244 -2.1198 0.9751
-1.2401 5.7711 -2.1109 0.9752
-2.7038 5.2058 -2.0978 0.9754
-3.5699 4.6257 -2.0895 0.9755
-3.9602 4.2817 -2.0857 0.9755
-4.3180 3.9054 -2.0820 0.9756
-4.6408 3.4998 -2.0786 0.9756
-5.1728 2.6139 -2.0726 0.9757
-5.3783 2.1405 -2.0700 0.9757
-5.6612 1.1507 -2.0659 0.9758
-5.7369 0.6418 -2.0643 0.9758
-5.5933 -1.3990 -2.0618 0.9758
-5.0299 -2.8298 -2.0639 0.9758
-4.7614 -3.2685 -2.0653 0.9758
-4.4554 -3.6825 -2.0671 0.9757
-3.7401 -4.4238 -2.0716 0.9757
-3.3360 -4.7455 -2.0744 0.9757
0.0654 -5.8676 -2.0984 0.9754
0.5886 -5.8511 -2.1030 0.9753
1.1099 -5.7901 -2.1083 0.9753
2.1288 -5.5273 -2.1182 0.9752
3.0878 -5.0832 -2.1269 0.9751
3.5350 -4.7977 -2.1311 0.9750
3.9555 -4.4726 -2.1352 0.9750
4.3458 -4.1102 -2.1391 0.9749
4.7024 -3.7135 -2.1427 0.9749
5.0223 -3.2855 -2.1462 0.9748
5.3026 -2.8295 -2.1493 0.9748
5.5407 -2.3495 -2.1522 0.9748
5.8822 -1.3327 -2.1569 0.9747
6.0343 -0.2691 -2.1600 0.9747
6.0371 0.2692 -2.1611 0.9747
5.9908 0.8057 -2.1617 0.9746
5.5633 2.3590 -2.1609 0.9747
5.3286 2.8435 -2.1599 0.9747
5.0510 3.3042 -2.1584 0.9747
3.9863 4.5074 -2.1518 0.9748
3.5645 4.8378 -2.1489 0.9748
3.1152 5.1283 -2.1457 0.9748
2.6421 5.3765 -2.1423 0.9749
2.1494 5.5807 -2.1386 0.9749
1.6411 5.7393 -2.1347 0.9750
-0.9829 5.8268 -2.1131 0.9752
-2.9301 5.0751 -2.0956 0.9754
-3.3636 4.7847 -2.0915 0.9755
-4.1433 4.0974 -2.0838 0.9755
-5.0546 2.8437 -2.0740 0.9757
-5.2808 2.3794 -2.0713 0.9757
-5.6068 1.4024 -2.0668 0.9757
-5.7046 0.8970 -2.0651 0.9758
-5.7580 0.3854 -2.0637 0.9758
-5.7305 -0.6411 -2.0621 0.9758
-4.9005 -3.0520 -2.0645 0.9758
-4.2890 -3.8792 -2.0681 0.9757
-3.9311 -4.2502 -2.0704 0.9757
-3.5416 -4.5890 -2.0730 0.9757
-3.1235 -4.8929 -2.0759 0.9756
-2.6797 -5.1594 -2.0790 0.9756
-2.2135 -5.3863 -2.0825 0.9756
-1.2279 -5.7141 -2.0900 0.9755
-0.7155 -5.8092 -2.0931 0.9754
0.3270 -5.8649 -2.1006 0.9754
0.8497 -5.8262 -2.1055 0.9753
1.3686 -5.7427 -2.1111 0.9752
1.8785 -5.6108 -2.1159 0.9752
2.8554 -5.2104 -2.1247 0.9751
3.3145 -4.9456 -2.1290 0.9750
4.8672 -3.5032 -2.1445 0.9748
5.1676 -3.0608 -2.1478 0.9748
5.4271 -2.5923 -2.1508 0.9748
5.8142 -1.5927 -2.1558 0.9747
5.2769 1.9651 -2.1579 0.9762
5.0791 2.4261 -2.1571 0.9762
4.8404 2.8670 -2.1559 0.9762
4.2486 3.6740 -2.1525 0.9762
3.9007 4.0333 -2.1502 0.9763
3.5221 4.3594 -2.1477 0.9763
3.1160 4.6494 -2.1449 0.9763
2.2356 5.1128 -2.1384 0.9764
1.7687 5.2827 -2.1349 0.9764
1.2892 5.4097 -2.1312 0.9765
0.8011 5.4930 -2.1273 0.9765
0.3085 5.5320 -2.1233 0.9765
-0.1848 5.5269 -2.1192 0.9766
-0.6747 5.4778 -2.1150 0.9766
-1.1572 5.3854 -2.1109 0.9767
-2.0856 5.0749 -2.1026 0.9768
-2.5242 4.8599 -2.0986 0.9768
-2.9412 4.6073 -2.0947 0.9769
-4.0331 3.6477 -2.0839 0.9770
-4.6023 2.8664 -2.0778 0.9770
-5.2904 1.0753 -2.0688 0.9771
-5.3613 0.5998 -2.0674 0.9772
-5.3905 0.1201 -2.0663 0.9772
-5.3778 -0.3600 -2.0655 0.9772
-5.3233 -0.8371 -2.0651 0.9772
-5.2275 -1.3075 -2.0650 0.9772
-5.0911 -1.7678 -2.0653 0.9772
-4.9151 -2.2146 -2.0659 0.9772
-4.7007 -2.6446 -2.0669 0.9772
-3.4945 -4.1333 -2.0742 0.9771
-3.1166 -4.4334 -2.0768 0.9771
-1.3819 -5.2747 -2.0896 0.9769
-0.4263 -5.4558 -2.0971 0.9768
1.0362 -5.4058 -2.1093 0.9767
2.8800 -4.7410 -2.1258 0.9765
3.2966 -4.4742 -2.1297 0.9765
4.0517 -3.8321 -2.1371 0.9764
5.4811 -1.2419 -2.1537 0.9762
5.5742 -0.7497 -2.1554 0.9762
5.6222 -0.2507 -2.1567 0.9762
5.6247 0.2508 -2.1576 0.9762
5.5814 0.7506 -2.1582 0.9762
5.3598 1.7283 -2.1581 0.9762
4.9648 2.6493 -2.1565 0.9762
4.4101 3.4826 -2.1535 0.9762
4.0787 3.8576 -2.1514 0.9762
3.7151 4.2007 -2.1490 0.9763
3.3223 4.5090 -2.1463 0.9763
2.9038 4.7802 -2.1434 0.9763
1.5303 5.3517 -2.1330 0.9764
1.0460 5.4568 -2.1292 0.9765
0.0617 5.5350 -2.1212 0.9766
-0.4304 5.5078 -2.1171 0.9766
-0.9171 5.4369 -2.1130 0.9767
-1.8592 5.1678 -2.1047 0.9767
-2.7356 4.7381 -2.0966 0.9768
-3.1407 4.4677 -2.0928 0.9769
-3.5196 4.1630 -2.0891 0.9769
-4.1883 3.4617 -2.0823 0.9770
-4.4732 3.0707 -2.0792 0.9770
-4.7223 2.6567 -2.0764 0.9771
-4.9340 2.2232 -2.0739 0.9771
-5.1067 1.7733 -2.0716 0.9771
-5.2394 1.3104 -2.0697 0.9771
-5.3811 0.3602 -2.0668 0.9772
-5.3558 -0.5991 -2.0652 0.9772
-5.2806 -1.0733 -2.0650 0.9772
-5.0080 -1.9931 -2.0656 0.9772
-4.0078 -3.6248 -2.0709 0.9771
-3.6730 -3.9712 -2.0730 0.9771
-3.3089 -4.2874 -2.0754 0.9771
-0.6683 -5.4264 -2.0952 0.9769
-0.1830 -5.4746 -2.0991 0.9768
0.3055 -5.4796 -2.1032 0.9768
1.2773 -5.3596 -2.1114 0.9767
2.6634 -4.8600 -2.1238 0.9765
3.0912 -4.6123 -2.1278 0.9765
4.2218 -3.6507 -2.1389 0.9764
4.8165 -2.8529 -2.1453 0.9763
5.0579 -2.4160 -2.1481 0.9763
5.6039 -0.5008 -2.1561 0.9762
5.2442 0.4686 -2.1549 0.9775
5.1825 0.9337 -2.1552 0.9775
4.9339 1.8374 -2.1548 0.9775
4.2667 3.0710 -2.1515 0.9775
2.9146 4.3489 -2.1427 0.9776
2.5126 4.5849 -2.1398 0.9777
2.0915 4.7833 -2.1367 0.9777
1.6549 4.9428 -2.1333 0.9777
0.7497 5.1407 -2.1262 0.9778
0.2887 5.1779 -2.1225 0.9778
-0.1730 5.1736 -2.1186 0.9779
-0.6316 5.1283 -2.1148 0.9779
-1.0836 5.0424 -2.1109 0.9780
-1.5253 4.9169 -2.1070 0.9780
-2.7553 4.3160 -2.0957 0.9781
-3.4654 3.7468 -2.0888 0.9782
-3.7793 3.4182 -2.0856 0.9782
-4.0627 3.0639 -2.0826 0.9782
-4.5301 2.2892 -2.0773 0.9783
-4.7108 1.8748 -2.0751 0.9783
-2.1365 0.4343 -0.8923 0.9906
-2.1261 0.2378 -0.8756 0.9908
-2.1302 -0.1426 -0.8738 0.9908
-2.1345 -0.3356 -0.8843 0.9907
-4.4073 -2.4795 -2.0696 0.9784
-3.2756 -3.8744 -2.0765 0.9783
-2.5430 -4.4046 -2.0816 0.9783
-2.1438 -4.6199 -2.0845 0.9782
-1.7267 -4.7995 -2.0876 0.9782
-0.8512 -5.0460 -2.0944 0.9781
-0.3993 -5.1105 -2.0980 0.9781
0.0572 -5.1349 -2.1017 0.9780
0.5149 -5.1187 -2.1055 0.9780
0.9703 -5.0619 -2.1094 0.9780
3.0849 -4.1869 -2.1285 0.9778
3.7907 -3.5852 -2.1354 0.9777
4.1009 -3.2385 -2.1386 0.9777
4.3790 -2.8646 -2.1416 0.9776
5.2123 -0.7010 -2.1525 0.9775
5.2570 -0.2344 -2.1537 0.9775
5.2591 0.2345 -2.1546 0.9775
5.1358 1.1636 -2.1552 0.9775
5.0114 1.6160 -2.1550 0.9775
4.8464 2.0551 -2.1545 0.9775
4.6423 2.4772 -2.1535 0.9775
4.4008 2.8788 -2.1523 0.9775
4.1240 3.2567 -2.1507 0.9775
3.4745 3.9287 -2.1465 0.9776
3.1074 4.2174 -2.1440 0.9776
1.8749 4.8680 -2.1350 0.9777
1.4319 5.0076 -2.1316 0.9777
0.5195 5.1644 -2.1243 0.9778
0.0577 5.1809 -2.1206 0.9779
-0.8586 5.0904 -2.1128 0.9779
-1.3059 4.9846 -2.1089 0.9780
-2.1611 4.6571 -2.1012 0.9781
-3.2977 3.9005 -2.0905 0.9782
-3.9250 3.2441 -2.0841 0.9782
-4.1923 2.8779 -2.0812 0.9783
-4.6250 2.0839 -2.0762 0.9783
-4.7872 1.6623 -2.0741 0.9783
-2.1345 0.3356 -0.8843 0.9907
-2.1302 0.1426 -0.8738 0.9908
-2.1285 -0.0474 -0.8714 0.9908
-2.1365 -0.4343 -0.8923 0.9906
-4.8422 -1.4431 -2.0679 0.9784
-3.4431 -3.7226 -2.0754 0.9783
-3.1015 -4.0187 -2.0776 0.9783
-0.6261 -5.0833 -2.0962 0.9781
0.7431 -5.0954 -2.1075 0.9780
1.1959 -5.0182 -2.1114 0.9780
2.0743 -4.7441 -2.1191 0.9779
2.4928 -4.5488 -2.1229 0.9778
3.9497 -3.4154 -2.1371 0.9777
4.2441 -3.0547 -2.1402 0.9777
4.5052 -2.6684 -2.1430 0.9776
4.7306 -2.2596 -2.1456 0.9776
4.9182 -1.8316 -2.1480 0.9776
5.0665 -1.3879 -2.1500 0.9776
5.1741 -0.9321 -2.1517 0.9775
5.2399 -0.4682 -2.1531 0.9775
4.9185 0.4395 -2.1521 0.9787
4.8606 0.8757 -2.1524 0.9787
4.6275 1.7233 -2.1520 0.9787
4.4543 2.1276 -2.1514 0.9787
3.7270 3.2228 -2.1473 0.9787
2.7346 4.0803 -2.1407 0.9788
1.9626 4.4887 -2.1350 0.9789
1.5531 4.6387 -2.1319 0.9789
0.7038 4.8254 -2.1252 0.9789
-2.9346 3.8024 -2.0933 0.9793
-3.2564 3.5208 -2.0901 0.9793
-3.5517 3.2124 -2.0871 0.9793
-3.8184 2.8796 -2.0843 0.9793
-4.2583 2.1518 -2.0793 0.9794
-1.9300 0.3923 -0.8583 0.9914
-1.9433 0.2174 -0.8522 0.9915
-1.9470 0.0434 -0.8487 0.9915
-1.9397 -0.3050 -0.8557 0.9915
-1.9080 -0.4772 -0.8571 0.9915
-4.1438 -2.3312 -2.0721 0.9795
-3.9220 -2.6923 -2.0733 0.9795
-2.3901 -4.1398 -2.0833 0.9794
-2.0148 -4.3418 -2.0860 0.9793
-0.7997 -4.7409 -2.0954 0.9792
0.4837 -4.8077 -2.1059 0.9791
1.3330 -4.6619 -2.1131 0.9791
3.2389 -3.6623 -2.1307 0.9789
3.5573 -3.3645 -2.1339 0.9789
4.1086 -2.6877 -2.1397 0.9788
4.5304 -1.9211 -2.1446 0.9788
4.6879 -1.5116 -2.1466 0.9787
4.8078 -1.0893 -2.1484 0.9787
4.9307 -0.2199 -2.1510 0.9787
4.8168 1.0914 -2.1525 0.9787
4.7002 1.5156 -2.1523 0.9787
4.5455 1.9274 -2.1517 0.9787
4.1278 2.7003 -2.1497 0.9787
3.8684 3.0548 -2.1482 0.9787
2.9154 3.9568 -2.1420 0.9788
1.7595 4.5683 -2.1335 0.9789
0.9188 4.7931 -2.1270 0.9789
0.4877 4.8480 -2.1235 0.9790
-1.2264 4.6812 -2.1090 0.9791
-1.6354 4.5457 -2.1054 0.9791
-2.0300 4.3746 -2.1018 0.9792
-3.0987 3.6651 -2.0917 0.9793
-3.6888 3.0489 -2.0857 0.9793
-3.9404 2.7049 -2.0830 0.9794
-4.1605 2.3407 -2.0805 0.9794
-4.3476 1.9589 -2.0782 0.9794
-1.8290 0.6351 -0.8438 0.9916
-1.9397 0.3050 -0.8557 0.9915
-1.9470 -0.0434 -0.8487 0.9915
-1.9433 -0.2174 -0.8522 0.9915
-1.8741 -0.5585 -0.8523 0.9915
-2.9154 -3.7776 -2.0796 0.9794
-2.2047 -4.2449 -2.0846 0.9793
-1.8207 -4.4303 -2.0875 0.9793
-1.0093 -4.6969 -2.0937 0.9793
-0.5882 -4.7757 -2.0970 0.9792
0.2688 -4.8203 -2.1041 0.9792
0.6979 -4.7855 -2.1077 0.9791
1.1231 -4.7125 -2.1113 0.9791
1.5407 -4.6018 -2.1150 0.9790
2.3402 -4.2703 -2.1222 0.9790
3.0702 -3.8000 -2.1291 0.9789
3.9823 -2.8663 -2.1383 0.9788
4.2269 -2.5036 -2.1410 0.9788
4.4380 -2.1198 -2.1435 0.9788
4.6138 -1.7182 -2.1457 0.9787
4.9148 -0.4392 -2.1505 0.9787
4.6427 0.0000 -2.1490 0.9797
4.5711 0.8235 -2.1499 0.9797
4.3519 1.6207 -2.1496 0.9797
3.9926 2.3648 -2.1480 0.9798
3.7641 2.7092 -2.1467 0.9798
3.5054 3.0313 -2.1452 0.9798
2.2180 4.0474 -2.1364 0.9799
1.8466 4.2233 -2.1336 0.9799
0.6623 4.5414 -2.1244 0.9800
0.2551 4.5752 -2.1211 0.9800
-0.5583 4.5333 -2.1143 0.9801
-0.9581 4.4584 -2.1108 0.9801
-1.7277 4.2042 -2.1040 0.9802
-2.0918 4.0274 -2.1007 0.9802
-2.7643 3.5818 -2.0943 0.9803
-3.0677 3.3168 -2.0913 0.9803
-3.3462 3.0265 -2.0885 0.9803
-3.5977 2.7132 -2.0858 0.9803
-3.8204 2.3794 -2.0834 0.9804
-4.0128 2.0277 -2.0811 0.9804
-1.6675 0.1865 -0.7767 0.9926
-1.6716 0.0373 -0.7739 0.9927
-1.6521 -0.2598 -0.7741 0.9927
-4.0841 -1.8402 -2.0735 0.9804
-3.9056 -2.1973 -2.0743 0.9804
-3.6965 -2.5375 -2.0754 0.9804
-3.1927 -3.1573 -2.0785 0.9804
-2.5873 -3.6805 -2.0825 0.9804
-2.2521 -3.9007 -2.0849 0.9803
-1.8983 -4.0907 -2.0875 0.9803
-1.5287 -4.2490 -2.0902 0.9803
0.0506 -4.5424 -2.1028 0.9802
0.8580 -4.4759 -2.1096 0.9801
1.6433 -4.2667 -2.1164 0.9800
2.0198 -4.1102 -2.1198 0.9800
2.7250 -3.6984 -2.1264 0.9800
3.0478 -3.4462 -2.1295 0.9799
3.3471 -3.1657 -2.1325 0.9799
3.6204 -2.8590 -2.1354 0.9799
4.2615 -1.8070 -2.1426 0.9798
4.5219 -1.0245 -2.1462 0.9798
4.5981 -0.6184 -2.1475 0.9798
4.5299 1.0263 -2.1500 0.9797
4.2748 1.8127 -2.1493 0.9797
3.8822 2.5396 -2.1474 0.9798
3.6384 2.8732 -2.1460 0.9798
3.0661 3.4669 -2.1423 0.9798
2.7425 3.7222 -2.1401 0.9798
2.3976 3.9470 -2.1377 0.9799
2.0342 4.1396 -2.1350 0.9799
1.6555 4.2985 -2.1322 0.9799
1.2646 4.4225 -2.1292 0.9799
0.8647 4.5108 -2.1260 0.9800
-1.1548 4.4077 -2.1091 0.9801
-1.5400 4.2805 -2.1057 0.9801
-1.9118 4.1198 -2.1023 0.9802
-2.2673 3.9272 -2.0990 0.9802
-3.4755 2.8725 -2.0871 0.9803
-3.7128 2.5487 -2.0846 0.9803
-1.6165 0.4043 -0.7713 0.9927
-1.6521 0.2598 -0.7741 0.9927
-1.6716 -0.0373 -0.7739 0.9927
-1.6373 -0.3328 -0.7734 0.9927
-1.5257 -0.6072 -0.7601 0.9928
-3.8048 -2.3697 -2.0748 0.9804
-3.5809 -2.7005 -2.0761 0.9804
-3.3288 -3.0107 -2.0776 0.9804
-2.4222 -3.7942 -2.0837 0.9804
-2.0773 -3.9995 -2.0861 0.9803
-1.7153 -4.1739 -2.0888 0.9803
-1.3388 -4.3159 -2.0917 0.9803
0.2531 -4.5393 -2.1044 0.9802
1.0574 -4.4369 -2.1113 0.9801
2.2026 -4.0193 -2.1215 0.9800
2.8892 -3.5760 -2.1280 0.9799
3.2006 -3.3094 -2.1311 0.9799
4.1747 -1.9941 -2.1415 0.9798
4.4701 -1.2245 -2.1454 0.9798
4.6223 -0.4130 -2.1481 0.9798
4.3604 0.3896 -2.1474 0.9807
4.1024 1.5278 -2.1473 0.9807
3.9490 1.8863 -2.1467 0.9807
3.3049 2.8579 -2.1432 0.9807
3.0350 3.1381 -2.1415 0.9807
2.7411 3.3927 -2.1395 0.9808
2.4258 3.6195 -2.1373 0.9808
1.7415 3.9829 -2.1323 0.9808
-1.2730 4.1037 -2.1076 0.9810
-1.6307 3.9680 -2.1044 0.9811
-1.9744 3.8015 -2.1012 0.9811
-2.6097 3.3815 -2.0952 0.9811
-2.8964 3.1315 -2.0924 0.9812
-3.1595 2.8577 -2.0897 0.9812
-3.7896 1.9150 -2.0828 0.9813
-1.3200 0.3934 -0.6756 0.9939
-1.3047 0.2652 -0.6531 0.9941
-1.3419 0.1501 -0.6624 0.9940
-1.3536 0.0302 -0.6641 0.9940
-1.3257 -0.2085 -0.6583 0.9940
-1.3171 -0.4573 -0.6839 0.9938
-3.4915 -2.3968 -2.0774 0.9813
-3.2664 -2.6997 -2.0787 0.9813
-3.0154 -2.9820 -2.0802 0.9813
-2.7404 -3.2413 -2.0820 0.9813
-2.4434 -3.4758 -2.0841 0.9812
-2.1266 -3.6834 -2.0863 0.9812
-1.7924 -3.8626 -2.0888 0.9812
-1.4433 -4.0118 -2.0914 0.9812
-1.0820 -4.1298 -2.0941 0.9812
-0.7111 -4.2156 -2.0971 0.9811
-0.3335 -4.2683 -2.1001 0.9811
0.0478 -4.2874 -2.1032 0.9811
3.4142 -2.6961 -2.1339 0.9808
4.0179 -1.7037 -2.1408 0.9807
4.3714 -0.1949 -2.1464 0.9807
4.3729 0.1950 -2.1472 0.9807
4.3391 0.5836 -2.1476 0.9807
4.2702 0.9675 -2.1477 0.9807
4.0298 1.7088 -2.1471 0.9807
3.8603 2.0599 -2.1463 0.9807
3.4301 2.7088 -2.1439 0.9807
3.1731 3.0011 -2.1423 0.9807
2.5859 3.5097 -2.1384 0.9808
1.9184 3.9038 -2.1336 0.9808
0.8156 4.2549 -2.1251 0.9809
0.0481 4.3194 -2.1189 0.9809
-0.3360 4.3000 -2.1157 0.9810
-1.8045 3.8886 -2.1028 0.9811
-2.1402 3.7070 -2.0997 0.9811
-2.7558 3.2596 -2.0938 0.9812
-3.0310 2.9974 -2.0910 0.9812
-3.2817 2.7124 -2.0884 0.9812
-3.7024 2.0829 -2.0838 0.9813
-1.2865 0.5797 -0.6922 0.9937
-1.3171 0.4573 -0.6839 0.9938
-1.3149 0.3289 -0.6649 0.9940
-1.3257 0.2084 -0.6583 0.9940
-1.3513 0.0905 -0.6643 0.9940
-1.3419 -0.1501 -0.6624 0.9940
-1.3047 -0.2652 -0.6531 0.9941
-3.7771 -1.9087 -2.0759 0.9813
-3.3823 -2.5507 -2.0780 0.9813
-3.1440 -2.8436 -2.0794 0.9813
-2.8808 -3.1146 -2.0811 0.9813
-2.5945 -3.3618 -2.0830 0.9813
-1.2640 -4.0748 -2.0927 0.9812
-0.8975 -4.1768 -2.0956 0.9811
-0.5230 -4.2461 -2.0986 0.9811
0.6202 -4.2524 -2.1080 0.9810
0.9978 -4.1868 -2.1112 0.9810
1.3686 -4.0877 -2.1145 0.9810
3.0186 -3.1212 -2.1299 0.9808
3.5330 -2.5429 -2.1352 0.9808
3.7494 -2.2208 -2.1376 0.9808
3.9362 -1.8802 -2.1398 0.9808
4.2143 -1.1544 -2.1434 0.9807
4.3575 -0.3894 -2.1460 0.9807
4.1344 0.0000 -2.1448 0.9815
4.1190 0.3681 -2.1454 0.9815
3.8753 1.4432 -2.1453 0.9815
3.3523 2.4129 -2.1428 0.9816
2.8674 2.9648 -2.1398 0.9816
2.5899 3.2055 -2.1379 0.9816
0.9499 3.9860 -2.1258 0.9817
0.5906 4.0493 -2.1229 0.9817
0.2275 4.0801 -2.1199 0.9818
-0.1364 4.0783 -2.1169 0.9818
-0.8548 3.9780 -2.1108 0.9818
-1.5421 3.7525 -2.1047 0.9819
-2.4685 3.1985 -2.0960 0.9820
-3.4136 2.1260 -2.0863 0.9820
-1.0665 0.5390 -0.6199 0.9946
-1.1333 0.2303 -0.5999 0.9948
-1.1649 0.1303 -0.6081 0.9947
-1.1739 -0.0786 -0.6103 0.9947
-1.1517 -0.1811 -0.6048 0.9948
-1.1275 -0.2820 -0.6029 0.9948
-3.3042 -2.2682 -2.0792 0.9821
-3.0910 -2.5548 -2.0804 0.9821
-2.0121 -3.4850 -2.0876 0.9820
-1.6958 -3.6542 -2.0899 0.9820
-1.3654 -3.7952 -2.0924 0.9820
-1.0235 -3.9065 -2.0950 0.9820
-0.6726 -3.9874 -2.0978 0.9819
-0.3155 -4.0369 -2.1007 0.9819
0.0452 -4.0547 -2.1036 0.9819
0.4065 -4.0403 -2.1066 0.9819
0.7656 -3.9939 -2.1097 0.9818
1.1196 -3.9156 -2.1127 0.9818
1.8013 -3.6656 -2.1188 0.9818
2.1234 -3.4956 -2.1218 0.9817
2.4294 -3.2972 -2.1247 0.9817
2.9832 -2.8215 -2.1302 0.9817
3.4440 -2.2529 -2.1350 0.9816
3.6345 -1.9394 -2.1372 0.9816
4.0274 -0.9125 -2.1423 0.9816
4.0949 -0.5507 -2.1435 0.9816
3.9361 1.2692 -2.1455 0.9815
3.8067 1.6142 -2.1451 0.9815
3.4574 2.2618 -2.1434 0.9816
3.2405 2.5590 -2.1421 0.9816
2.9978 2.8353 -2.1406 0.9816
2.4433 3.3162 -2.1369 0.9816
2.1363 3.5169 -2.1347 0.9816
1.4755 3.8311 -2.1298 0.9817
1.1273 3.9423 -2.1271 0.9817
0.7709 4.0217 -2.1243 0.9817
0.0455 4.0833 -2.1184 0.9818
-0.3177 4.0653 -2.1154 0.9818
-0.6773 4.0150 -2.1123 0.9818
-1.0304 3.9331 -2.1093 0.9818
-1.3744 3.8203 -2.1062 0.9819
-1.7065 3.6775 -2.1032 0.9819
-2.0242 3.5061 -2.1003 0.9819
-2.3251 3.3075 -2.0974 0.9819
-2.6069 3.0834 -2.0947 0.9820
-2.8674 2.8356 -2.0921 0.9820
-3.1047 2.5661 -2.0896 0.9820
-3.3172 2.2771 -2.0873 0.9820
-1.0898 0.4910 -0.6201 0.9946
-1.1198 0.3889 -0.6150 0.9947
-1.1275 0.2820 -0.6029 0.9948
-1.1517 0.1811 -0.6048 0.9948
-1.1739 0.0786 -0.6103 0.9947
-1.1785 -0.0263 -0.6115 0.9947
-1.1266 -0.3358 -0.6099 0.9947
-1.1070 -0.4406 -0.6181 0.9946
-1.0665 -0.5389 -0.6199 0.9946
-3.4011 -2.1182 -2.0786 0.9821
-3.2008 -2.4138 -2.0797 0.9821
-2.9752 -2.6909 -2.0811 0.9821
-2.7259 -2.9473 -2.0827 0.9821
-2.4549 -3.1809 -2.0845 0.9821
-1.5322 -3.7283 -2.0911 0.9820
-1.1957 -3.8546 -2.0937 0.9820
-0.4946 -4.0161 -2.0992 0.9819
-0.1354 -4.0498 -2.1021 0.9819
0.5865 -4.0211 -2.1081 0.9819
1.6351 -3.7395 -2.1173 0.9818
2.2786 -3.3999 -2.1233 0.9817
2.5756 -3.1878 -2.1261 0.9817
3.3384 -2.4029 -2.1339 0.9816
3.5427 -2.0984 -2.1361 0.9816
3.9814 -1.0906 -2.1416 0.9816
2.0429 0.0000 -1.1189 0.9907
2.0036 0.3610 -1.1150 0.9908
3.5305 1.6864 -2.1429 0.9823
3.3651 1.9931 -2.1421 0.9823
3.1727 2.2836 -2.1410 0.9823
2.7140 2.8063 -2.1382 0.9824
2.4514 3.0342 -2.1364 0.9824
1.8710 3.4142 -2.1323 0.9824
1.5580 3.5633 -2.1300 0.9824
1.2332 3.6835 -2.1275 0.9824
0.5592 3.8342 -2.1222 0.9825
0.2154 3.8637 -2.1195 0.9825
-0.4717 3.8303 -2.1137 0.9826
-0.8097 3.7679 -2.1108 0.9826
-1.1403 3.6758 -2.1079 0.9826
-1.7691 3.4062 -2.1022 0.9826
-2.0626 3.2310 -2.0995 0.9827
-2.3390 3.0307 -2.0968 0.9827
-3.2353 2.0150 -2.0875 0.9828
-0.9364 0.4732 -0.5746 0.9952
-0.9638 0.3836 -0.5681 0.9953
-0.9825 0.2928 -0.5615 0.9953
-1.0415 0.0232 -0.5706 0.9953
-0.9756 -0.3388 -0.5656 0.9953
-0.9240 -0.5198 -0.5806 0.9952
-3.1322 -2.1501 -2.0808 0.9828
-2.9300 -2.4217 -2.0820 0.9828
-2.1912 -3.1170 -2.0868 0.9828
-1.9069 -3.3028 -2.0888 0.9828
-1.2939 -3.5964 -2.0934 0.9827
-0.9698 -3.7017 -2.0958 0.9827
0.7252 -3.7831 -2.1097 0.9826
1.0604 -3.7086 -2.1126 0.9826
1.3882 -3.6045 -2.1155 0.9825
1.7058 -3.4713 -2.1184 0.9825
2.3003 -3.1220 -2.1240 0.9825
3.0542 -2.4119 -2.1315 0.9824
3.2601 -2.1327 -2.1337 0.9824
2.0041 -0.4541 -1.1255 0.9907
2.0226 -0.2720 -1.1178 0.9907
2.0434 -0.0911 -1.1203 0.9907
2.0042 0.4541 -1.1255 0.9907
1.9895 0.6415 -1.1449 0.9905
1.9407 0.8229 -1.1546 0.9904
3.2722 2.1406 -2.1416 0.9823
3.0670 2.4220 -2.1404 0.9823
2.5852 2.9232 -2.1373 0.9824
1.3969 3.6271 -2.1288 0.9824
1.0673 3.7325 -2.1263 0.9825
0.3876 3.8528 -2.1209 0.9825
0.0431 3.8669 -2.1180 0.9825
-0.9760 3.7255 -2.1093 0.9826
-1.3020 3.6189 -2.1065 0.9826
-2.7172 2.6871 -2.0930 0.9827
-0.9472 0.4268 -0.5690 0.9953
-0.9847 0.2463 -0.5559 0.9954
-1.0415 -0.0232 -0.5706 0.9953
-1.0000 -0.2033 -0.5589 0.9954
-0.9638 -0.3836 -0.5681 0.9953
-3.2241 -2.0080 -2.0803 0.9828
-2.8201 -2.5507 -2.0826 0.9828
-2.0511 -3.2130 -2.0878 0.9828
-1.7588 -3.3862 -2.0899 0.9827
-1.4520 -3.5332 -2.0922 0.9827
-0.8044 -3.7435 -2.0971 0.9827
0.8936 -3.7496 -2.1112 0.9826
1.2254 -3.6602 -2.1141 0.9826
1.8600 -3.3941 -2.1198 0.9825
2.4386 -3.0183 -2.1253 0.9825
2.7009 -2.7927 -2.1279 0.9824
2.9421 -2.5441 -2.1303 0.9824
2.0036 -0.3610 -1.1150 0.9908
2.0356 -0.1819 -1.1193 0.9907
1.8754 0.0000 -1.0828 0.9914
1.8426 0.3320 -1.0810 0.9914
1.7194 0.8213 -1.1001 0.9912
3.1898 1.8893 -2.1405 0.9830
2.8014 2.4224 -2.1382 0.9830
2.0570 3.0693 -2.1332 0.9831
1.7740 3.2371 -2.1312 0.9831
1.4773 3.3787 -2.1290 0.9831
1.1694 3.4929 -2.1267 0.9831
-0.4475 3.6333 -2.1136 0.9832
-1.0818 3.4873 -2.1080 0.9833
-1.3861 3.3728 -2.1053 0.9833
-1.6786 3.2319 -2.1026 0.9833
-2.2196 2.8761 -2.0975 0.9834
-2.4640 2.6640 -2.0951 0.9834
-2.6884 2.4315 -2.0928 0.9834
-0.8760 0.4426 -0.5667 0.9955
-0.8932 0.3555 -0.5550 0.9956
-0.9012 0.2686 -0.5429 0.9957
-0.9120 0.1854 -0.5373 0.9957
-0.9237 0.1033 -0.5366 0.9957
-0.9306 0.0207 -0.5374 0.9957
-0.9274 -0.0621 -0.5366 0.9957
-0.9189 -0.1445 -0.5370 0.9957
-0.8984 -0.3119 -0.5490 0.9956
-0.8858 -0.3991 -0.5609 0.9955
-2.9735 -2.0412 -2.0823 0.9835
-2.7815 -2.2990 -2.0834 0.9835
-2.5675 -2.5390 -2.0848 0.9835
-2.3330 -2.7595 -2.0863 0.9834
-2.0799 -2.9587 -2.0880 0.9834
-1.5252 -3.2868 -2.0920 0.9834
-1.2280 -3.4132 -2.0942 0.9834
-0.9203 -3.5129 -2.0966 0.9834
-0.2836 -3.6291 -2.1017 0.9833
0.0406 -3.6445 -2.1043 0.9833
0.6879 -3.5889 -2.1098 0.9833
1.0059 -3.5180 -2.1125 0.9832
1.3168 -3.4190 -2.1153 0.9832
1.6179 -3.2924 -2.1180 0.9832
2.1815 -2.9607 -2.1233 0.9832
2.4392 -2.7581 -2.1258 0.9831
2.6780 -2.5329 -2.1282 0.9831
2.8959 -2.2869 -2.1304 0.9831
3.0910 -2.0220 -2.1325 0.9831
1.8108 -0.5839 -1.0985 0.9913
1.8316 -0.4150 -1.0843 0.9914
1.8592 -0.2500 -1.0831 0.9914
1.8755 0.0836 -1.0839 0.9914
1.8592 0.2500 -1.0831 0.9914
1.8108 0.5839 -1.0985 0.9913
2.9074 2.2959 -2.1389 0.9830
1.9174 3.1564 -2.1322 0.9831
1.3246 3.4393 -2.1279 0.9831
1.0121 3.5395 -2.1255 0.9831
0.6922 3.6113 -2.1229 0.9832
0.3676 3.6541 -2.1203 0.9832
0.0409 3.6677 -2.1177 0.9832
-0.2854 3.6520 -2.1149 0.9832
-0.6085 3.6074 -2.1122 0.9832
-1.5340 3.3056 -2.1040 0.9833
-2.0906 2.9739 -2.0988 0.9834
-2.3442 2.7727 -2.0963 0.9834
-2.5788 2.5502 -2.0939 0.9834
-2.9840 2.0484 -2.0897 0.9834
-0.8984 0.3119 -0.5490 0.9956
-0.9030 0.2259 -0.5374 0.9957
-0.9306 -0.0207 -0.5374 0.9957
-0.9237 -0.1033 -0.5366 0.9957
-0.9120 -0.1854 -0.5373 0.9957
-0.9012 -0.2686 -0.5429 0.9957
-0.8932 -0.3555 -0.5550 0.9956
-0.8760 -0.4426 -0.5666 0.9955
-2.4527 -2.6518 -2.0855 0.9835
-2.2087 -2.8618 -2.0871 0.9834
-1.9469 -3.0497 -2.0890 0.9834
-1.3780 -3.3533 -2.0931 0.9834
-0.7634 -3.5525 -2.0978 0.9834
-0.4447 -3.6106 -2.1004 0.9833
-0.1217 -3.6404 -2.1030 0.9833
0.2030 -3.6415 -2.1057 0.9833
0.5270 -3.6136 -2.1084 0.9833
1.1624 -3.4720 -2.1139 0.9832
1.4687 -3.3591 -2.1166 0.9832
1.7641 -3.2191 -2.1193 0.9832
2.0462 -3.0531 -2.1220 0.9832
2.3126 -2.8623 -2.1245 0.9831
2.7897 -2.4123 -2.1293 0.9831
2.9964 -2.1567 -2.1315 0.9831
3.1795 -1.8832 -2.1335 0.9831
1.7869 -0.6655 -1.1009 0.9912
1.8426 -0.3320 -1.0810 0.9914
1.8700 -0.1671 -1.0839 0.9914
