ply
format ascii 1.0
element vertex 1337
property float32 x
property float32 y
property float32 z
property float32 I
end_header
-15.4971 11.6869 -1.8634 0.9250
-16.4031 10.2160 -1.8552 0.9253
-17.9880 -6.2461 -1.8281 0.9263
-17.2725 9.7173 -1.9027 0.9235
19.0872 0.0000 -2.2673 0.9260
18.7920 3.3856 -2.2682 0.9260
18.4046 5.0416 -2.2667 0.9260
17.1701 8.2015 -2.2603 0.9262
16.3359 9.6758 -2.2553 0.9264
15.3685 11.0616 -2.2493 0.9266
14.2778 12.3465 -2.2422 0.9268
12.7859 13.2206 -2.1847 0.9286
10.9276 13.5252 -2.0655 0.9324
-11.8036 10.6758 -1.8905 0.9379
-15.1390 7.6501 -2.0149 0.9340
-15.7156 6.2547 -2.0092 0.9341
-16.1714 4.8196 -2.0044 0.9343
-16.7127 1.8696 -1.9976 0.9345
-16.7537 -1.1215 -1.9946 0.9346
-16.5865 -2.6081 -1.9945 0.9346
-14.2476 -6.4197 -1.8563 0.9390
-13.6448 -7.6764 -1.8597 0.9389
17.2183 -3.9012 -2.0971 0.9314
18.9262 2.5453 -2.2684 0.9260
17.5343 7.4352 -2.2623 0.9262
14.8379 11.7174 -2.2458 0.9267
13.6898 12.9477 -2.2383 0.9269
10.2922 13.9687 -2.0610 0.9325
-11.3403 11.2147 -1.8945 0.9378
-14.8063 8.3299 -2.0180 0.9339
-16.3533 4.0902 -2.0024 0.9344
-16.6241 2.6140 -1.9990 0.9345
-16.7700 1.1226 -1.9965 0.9345
-16.7905 -0.3742 -1.9950 0.9346
-13.9595 -7.0541 -1.8579 0.9389
-13.3037 -8.2856 -1.8617 0.9388
17.0089 -4.6592 -2.0948 0.9314
17.3917 -3.1333 -2.0992 0.9313
15.7707 1.4093 -2.2434 0.9380
15.5816 2.8072 -2.2433 0.9380
15.2620 4.1807 -2.2421 0.9381
14.8151 5.5172 -2.2400 0.9381
13.5583 8.0306 -2.2328 0.9383
12.7612 9.1849 -2.2278 0.9385
11.8619 10.2574 -2.2219 0.9386
10.8693 11.2388 -2.2153 0.9388
8.0235 11.9719 -2.0420 0.9434
6.8991 12.5893 -2.0341 0.9437
-7.3115 11.4533 -1.9253 0.9466
-10.6951 9.6731 -2.0432 0.9434
-11.5138 8.6830 -2.0433 0.9434
-12.2037 7.6005 -2.0371 0.9436
-12.7969 6.4665 -2.0315 0.9437
-13.2899 5.2893 -2.0267 0.9439
-14.1458 1.5825 -2.0168 0.9441
-14.2184 0.3169 -2.0151 0.9442
-14.1838 -0.9495 -2.0142 0.9442
-13.4437 -4.6681 -2.0164 0.9441
-11.5438 -6.4944 -1.8767 0.9479
-10.9411 -7.5107 -1.8803 0.9478
14.9396 -3.3849 -2.1704 0.9400
15.8060 -0.7048 -2.2418 0.9381
15.8157 0.7053 -2.2431 0.9380
15.6926 2.1105 -2.2435 0.9380
15.4380 3.4978 -2.2428 0.9381
13.9160 7.4258 -2.2349 0.9383
13.1730 8.6174 -2.2304 0.9384
11.3767 10.7600 -2.2187 0.9387
10.3233 11.6728 -2.2079 0.9390
8.5647 11.6241 -2.0458 0.9433
7.4679 12.2938 -2.0381 0.9435
-9.8261 9.7172 -1.9581 0.9457
-11.1339 9.2024 -2.0466 0.9433
-11.8706 8.1487 -2.0401 0.9435
-12.5126 7.0394 -2.0342 0.9436
-13.4982 4.6871 -2.0246 0.9439
-14.2145 -0.3168 -2.0145 0.9442
-14.1265 -1.5803 -2.0141 0.9442
-13.9320 -2.8318 -2.0144 0.9442
-13.6324 -4.0629 -2.0155 0.9442
-13.2294 -5.2652 -2.0175 0.9441
-12.2907 -6.2108 -1.9512 0.9459
14.1151 -3.8665 -2.0736 0.9426
15.5270 -2.7973 -2.2354 0.9383
15.7515 -1.4076 -2.2407 0.9381
13.2957 2.3954 -2.2256 0.9467
13.0240 3.5677 -2.2246 0.9467
12.6444 4.7088 -2.2228 0.9468
12.1605 5.8086 -2.2201 0.9468
11.5772 6.8572 -2.2167 0.9469
7.2207 10.7741 -2.1367 0.9488
5.9070 10.7789 -2.0249 0.9514
4.9067 11.2220 -2.0177 0.9516
3.8740 11.5710 -2.0102 0.9517
2.8178 11.8239 -2.0024 0.9519
-1.4618 11.8687 -1.9700 0.9527
-7.4929 9.7088 -2.0204 0.9515
-8.5174 9.2090 -2.0665 0.9504
-9.2741 8.3879 -2.0600 0.9506
-9.9549 7.5073 -2.0540 0.9507
-10.5557 6.5741 -2.0486 0.9508
-11.8444 3.5300 -2.0360 0.9511
-12.2520 1.3706 -2.0310 0.9513
-12.3163 0.2745 -2.0295 0.9513
-12.2871 -0.8225 -2.0287 0.9513
-11.6442 -4.0433 -2.0306 0.9513
-9.4707 -6.5013 -1.8924 0.9545
-8.8721 -7.3330 -1.8962 0.9544
10.3761 -6.7878 -2.0426 0.9510
10.9677 -5.8525 -2.0480 0.9509
13.3694 -1.7980 -2.2223 0.9468
13.4955 0.6018 -2.2255 0.9467
13.1735 2.9847 -2.2252 0.9467
12.8474 4.1428 -2.2238 0.9467
5.4115 11.0121 -2.0213 0.9515
-4.0072 11.1382 -1.9500 0.9531
-5.8730 10.1723 -1.9350 0.9535
-9.6242 7.9546 -2.0569 0.9506
-10.2655 7.0469 -2.0512 0.9508
-11.9809 2.9966 -2.0345 0.9512
-12.2958 0.8231 -2.0301 0.9513
-11.4578 -4.5601 -2.0315 0.9512
-11.0194 -5.5683 -2.0339 0.9512
-8.5461 -7.7295 -1.8983 0.9544
10.6825 -6.3273 -2.0454 0.9509
13.2682 -2.3904 -2.2210 0.9468
13.4429 -1.2012 -2.2234 0.9468
11.7673 0.0000 -2.2118 0.9532
11.7240 1.0477 -2.2124 0.9532
11.5837 2.0869 -2.2123 0.9532
10.5980 5.0622 -2.2076 0.9533
10.0916 5.9773 -2.2046 0.9534
8.8399 7.6442 -2.1966 0.9535
6.4582 9.6363 -2.1804 0.9539
5.5474 10.1227 -2.1696 0.9541
3.3869 10.1161 -2.0052 0.9575
2.4647 10.3422 -1.9984 0.9577
0.5877 10.5408 -1.9843 0.9579
-0.3515 10.5132 -1.9772 0.9581
-2.1941 10.2103 -1.9629 0.9584
-3.0831 9.9389 -1.9559 0.9585
-6.7591 8.7580 -2.0794 0.9560
-7.4896 8.0977 -2.0733 0.9561
-9.7495 4.9267 -2.0532 0.9565
-10.4336 3.1095 -2.0464 0.9567
-10.6557 2.1659 -2.0438 0.9567
-10.7959 1.2077 -2.0419 0.9567
-10.8535 0.2419 -2.0405 0.9568
-10.8282 -0.7249 -2.0398 0.9568
-10.7204 -1.6857 -2.0398 0.9568
-9.4859 -5.3367 -2.0458 0.9567
-8.9578 -6.1492 -2.0423 0.9567
-7.8122 -6.4570 -1.9050 0.9596
-6.5718 -7.7731 -1.9132 0.9594
7.8182 -7.3944 -2.0227 0.9571
8.4686 -6.6876 -2.0282 0.9570
10.7540 -4.5601 -2.1955 0.9536
11.1594 -3.5984 -2.2039 0.9534
11.6501 -1.5668 -2.2095 0.9533
11.7525 -0.5241 -2.2112 0.9532
11.6659 1.5689 -2.2125 0.9532
11.4774 2.6004 -2.2120 0.9532
10.3553 5.5258 -2.2062 0.9534
9.1810 7.2501 -2.1989 0.9535
8.4815 8.0217 -2.1943 0.9536
7.7156 8.7242 -2.1891 0.9537
5.0187 10.2129 -2.1389 0.9547
3.8613 10.0258 -2.0194 0.9572
1.9981 10.4237 -1.9949 0.9577
0.1174 10.5375 -1.9808 0.9580
-2.6420 10.0843 -1.9594 0.9585
-5.5423 9.5996 -2.0835 0.9559
-9.0348 6.2020 -2.0598 0.9564
-9.5300 5.3615 -2.0553 0.9565
-9.9500 4.4832 -2.0513 0.9566
-10.2923 3.5739 -2.0479 0.9566
-10.5548 2.6399 -2.0450 0.9567
-10.6357 -2.1618 -2.0400 0.9568
-10.4056 -3.1012 -2.0409 0.9568
-10.0957 -4.0180 -2.0424 0.9567
-9.2447 -5.7576 -2.0471 0.9566
-7.5242 -6.8052 -1.9069 0.9595
-6.2266 -8.0680 -1.9156 0.9594
8.1513 -7.0487 -2.0255 0.9571
8.7694 -6.3119 -2.0309 0.9570
9.3188 -5.5195 -2.0358 0.9569
11.3171 -3.1001 -2.2055 0.9534
11.5628 -2.0831 -2.2083 0.9533
11.7134 -1.0467 -2.2104 0.9533
10.4151 0.0000 -2.2015 0.9583
10.3764 0.9272 -2.2021 0.9583
10.2523 1.8470 -2.2020 0.9583
10.0438 2.7513 -2.2013 0.9583
9.3822 4.4815 -2.1978 0.9584
8.4164 6.0578 -2.1920 0.9585
6.4786 8.0187 -2.1791 0.9587
4.9296 8.9953 -2.1682 0.9589
4.0981 9.3726 -2.1623 0.9590
3.2331 9.6568 -2.1526 0.9592
0.5420 9.7197 -2.0577 0.9610
-1.1957 9.7086 -2.0677 0.9608
-2.0848 9.7018 -2.0976 0.9602
-3.7806 9.1995 -2.1024 0.9602
-4.5705 8.7998 -2.0960 0.9603
-5.3200 8.3337 -2.0899 0.9604
-6.6770 7.2191 -2.0786 0.9606
-7.2751 6.5799 -2.0735 0.9607
-8.2903 5.1633 -2.0645 0.9609
-9.0431 3.5991 -2.0573 0.9610
-9.3147 2.7761 -2.0545 0.9610
-9.5142 1.9339 -2.0522 0.9611
-9.6404 1.0785 -2.0505 0.9611
-9.5741 -1.5055 -2.0486 0.9612
-9.1625 -3.1816 -2.0502 0.9611
-8.4689 -4.7645 -2.0540 0.9611
-7.4854 -6.1868 -2.0528 0.9611
-4.5613 -7.9005 -1.9284 0.9634
4.9122 -8.0866 -2.0000 0.9621
5.6288 -7.6396 -2.0058 0.9619
6.9315 -6.5558 -2.0167 0.9617
7.5058 -5.9273 -2.0216 0.9617
9.8811 -3.1862 -2.1946 0.9584
10.3126 -1.3869 -2.1995 0.9584
10.4023 -0.4639 -2.2010 0.9583
10.4065 0.4640 -2.2019 0.9583
9.9084 3.1951 -2.2006 0.9583
9.1680 4.8922 -2.1966 0.9584
8.6846 5.6812 -2.1936 0.9585
5.3324 8.7783 -2.1711 0.9589
4.5178 9.1935 -2.1653 0.9590
2.7920 9.7643 -2.1467 0.9593
0.9791 9.7328 -2.0677 0.9608
-0.7588 9.7108 -2.0589 0.9610
-1.6371 9.7056 -2.0806 0.9606
-3.3691 9.3647 -2.1037 0.9601
-4.9507 8.5748 -2.0929 0.9603
-6.3570 7.5192 -2.0813 0.9605
-6.9832 6.9058 -2.0760 0.9606
-8.5040 4.7843 -2.0625 0.9609
-9.1878 3.1904 -2.0559 0.9610
-9.5866 1.5074 -2.0513 0.9611
-9.6907 -0.2160 -2.0489 0.9611
-9.2924 -2.7694 -2.0496 0.9611
-8.6679 -4.3801 -2.0529 0.9611
-7.7677 -5.8579 -2.0565 0.9610
-6.8739 -6.2171 -1.9592 0.9628
-4.2103 -8.1062 -1.9308 0.9633
6.6241 -6.8492 -2.0141 0.9618
7.2257 -6.2483 -2.0192 0.9617
7.7713 -5.5935 -2.0240 0.9616
8.8344 -5.2327 -2.1704 0.9589
9.7223 -3.6206 -2.1930 0.9585
10.0199 -2.7447 -2.1960 0.9584
10.2359 -1.8441 -2.1985 0.9584
10.3681 -0.9265 -2.2003 0.9583
9.3325 0.0000 -2.1933 0.9624
9.2975 0.8308 -2.1938 0.9624
9.1863 1.6550 -2.1938 0.9624
8.9998 2.4653 -2.1931 0.9624
8.7397 3.2547 -2.1918 0.9624
8.4084 4.0163 -2.1900 0.9624
7.0207 6.0711 -2.1814 0.9626
6.4411 6.6601 -2.1775 0.9626
4.4241 8.0729 -2.1635 0.9629
3.6789 8.4138 -2.1582 0.9630
-0.3026 9.0520 -2.1286 0.9635
-1.8918 8.8039 -2.1163 0.9637
-2.6603 8.5760 -2.1103 0.9638
-3.4035 8.2820 -2.1044 0.9639
-4.1159 7.9245 -2.0987 0.9640
-6.5585 5.9318 -2.0783 0.9643
-7.0459 5.3136 -2.0741 0.9644
-7.4769 4.6567 -2.0702 0.9645
-7.8486 3.9661 -2.0667 0.9645
-8.1586 3.2470 -2.0637 0.9646
-8.4048 2.5049 -2.0612 0.9646
-8.7003 0.9733 -2.0575 0.9647
-8.7479 0.1949 -2.0565 0.9647
-8.7281 -0.5843 -2.0559 0.9647
-7.9865 -3.5985 -2.0587 0.9646
-7.2374 -4.9682 -2.0632 0.9646
-6.7761 -5.6005 -2.0661 0.9645
-4.7184 -6.7120 -1.9283 0.9668
-4.1113 -7.1209 -1.9325 0.9668
-3.4693 -7.4761 -1.9370 0.9667
-2.7970 -7.7745 -1.9418 0.9666
-2.0994 -8.0135 -1.9469 0.9665
-1.3816 -8.1907 -1.9522 0.9664
-0.6489 -8.3042 -1.9576 0.9664
0.8385 -8.3353 -1.9689 0.9662
1.5817 -8.2515 -1.9746 0.9661
3.0370 -7.8855 -1.9860 0.9659
3.7373 -7.6051 -1.9915 0.9658
4.4113 -7.2620 -1.9970 0.9657
5.6579 -6.3975 -2.0072 0.9655
8.1859 -4.3681 -2.1806 0.9626
8.5558 -3.6280 -2.1841 0.9625
9.0862 -2.0587 -2.1896 0.9624
9.2415 -1.2429 -2.1915 0.9624
9.3212 -0.4156 -2.1929 0.9624
8.8788 2.8631 -2.1925 0.9624
8.2169 4.3847 -2.1889 0.9625
7.7847 5.0925 -2.1863 0.9625
7.2901 5.7569 -2.1831 0.9626
6.1321 6.9337 -2.1755 0.9627
4.7850 7.8771 -2.1661 0.9628
4.0551 8.2519 -2.1609 0.9629
3.2962 8.5584 -2.1554 0.9630
2.5147 8.7945 -2.1497 0.9631
1.7172 8.9588 -2.1438 0.9632
0.9105 9.0505 -2.1378 0.9633
0.1010 9.0696 -2.1317 0.9634
-4.4589 7.7230 -2.0959 0.9640
-5.7287 6.7760 -2.0854 0.9642
-6.2946 6.2249 -2.0806 0.9643
-6.8091 5.6279 -2.0761 0.9644
-7.2687 4.9897 -2.0721 0.9644
-7.6703 4.3153 -2.0684 0.9645
-8.0114 3.6098 -2.0652 0.9645
-8.2897 2.8785 -2.0624 0.9646
-8.5035 2.1269 -2.0601 0.9646
-8.6514 1.3604 -2.0583 0.9647
-8.7325 0.5846 -2.0569 0.9647
-8.6930 -0.9725 -2.0558 0.9647
-5.7467 -6.2132 -1.9891 0.9658
-5.0075 -6.4885 -1.9263 0.9669
-4.4195 -6.9230 -1.9303 0.9668
-3.7943 -7.3054 -1.9347 0.9667
-1.7427 -8.1099 -1.9495 0.9665
-1.0168 -8.2555 -1.9549 0.9664
1.9505 -8.1847 -1.9775 0.9660
4.0779 -7.4413 -1.9943 0.9657
5.9444 -6.1464 -2.0096 0.9655
6.5757 -5.6862 -2.0431 0.9649
7.4894 -5.3905 -2.1687 0.9628
7.9761 -4.7243 -2.1787 0.9626
8.3792 -4.0024 -2.1824 0.9626
8.9806 -2.4601 -2.1884 0.9625
8.3128 1.4976 -2.1870 0.9657
8.1443 2.2310 -2.1864 0.9657
7.6101 3.6350 -2.1836 0.9658
7.2492 4.2938 -2.1815 0.9658
6.3566 5.4967 -2.1758 0.9659
5.8327 6.0310 -2.1724 0.9659
4.6536 6.9437 -2.1643 0.9661
4.0087 7.3149 -2.1597 0.9661
2.6361 7.8735 -2.1498 0.9663
1.9201 8.0571 -2.1446 0.9664
1.1923 8.1754 -2.1391 0.9664
0.4588 8.2278 -2.1336 0.9665
-1.0020 8.1360 -2.1225 0.9667
-1.7177 7.9935 -2.1169 0.9668
-2.4161 7.7887 -2.1114 0.9669
-3.0919 7.5236 -2.1061 0.9669
-4.3556 6.8229 -2.0958 0.9671
-4.9343 6.3935 -2.0911 0.9672
-5.9647 5.3948 -2.0823 0.9673
-6.4092 4.8334 -2.0784 0.9674
-7.6496 2.2798 -2.0667 0.9676
-7.8150 1.5885 -2.0648 0.9676
-7.9198 0.8860 -2.0634 0.9676
-7.9634 0.1775 -2.0624 0.9676
-7.5274 -2.6138 -2.0631 0.9676
-6.5865 -4.5214 -2.0685 0.9675
-5.1659 -6.1103 -2.0717 0.9675
-3.7384 -6.4752 -1.9359 0.9696
-1.9078 -7.2819 -1.9490 0.9694
-1.2552 -7.4411 -1.9538 0.9693
-0.5894 -7.5423 -1.9588 0.9692
0.0845 -7.5844 -1.9639 0.9691
2.1017 -7.3502 -1.9794 0.9689
3.9992 -6.5836 -1.9945 0.9687
5.2066 -5.8872 -2.0349 0.9680
7.4117 -3.9550 -2.1751 0.9659
7.7455 -3.2844 -2.1783 0.9658
8.0170 -2.5852 -2.1810 0.9658
8.3635 -1.1248 -2.1850 0.9657
8.4352 -0.3761 -2.1862 0.9657
8.3717 1.1259 -2.1871 0.9657
8.0350 2.5909 -2.1859 0.9657
7.0468 4.6098 -2.1802 0.9658
6.1006 5.7700 -2.1741 0.9659
4.3352 7.1367 -2.1620 0.9661
3.6748 7.4779 -2.1573 0.9662
2.9877 7.7575 -2.1524 0.9662
2.2799 7.9734 -2.1472 0.9663
0.8259 8.2098 -2.1364 0.9665
-0.6395 8.1833 -2.1253 0.9667
-2.0694 7.8988 -2.1142 0.9668
-3.4197 7.3692 -2.1034 0.9670
-4.0521 7.0185 -2.0983 0.9671
-4.6498 6.6145 -2.0934 0.9671
-5.7241 5.6607 -2.0844 0.9673
-6.1932 5.1188 -2.0803 0.9673
-6.9789 3.9263 -2.0733 0.9675
-7.2903 3.2848 -2.0703 0.9675
-7.7398 1.9358 -2.0657 0.9676
-7.8750 1.2383 -2.0640 0.9676
-7.9493 0.5321 -2.0628 0.9676
-7.9622 -0.1775 -2.0621 0.9676
-7.9137 -0.8853 -2.0618 0.9676
-7.6345 -2.2753 -2.0626 0.9676
-7.4057 -2.9474 -2.0637 0.9676
-5.9370 -5.3697 -2.0727 0.9675
-4.0191 -6.2958 -1.9339 0.9696
-3.4499 -6.6423 -1.9379 0.9695
-2.8513 -6.9382 -1.9422 0.9695
-0.9236 -7.4990 -1.9563 0.9693
-0.2531 -7.5708 -1.9613 0.9692
0.4228 -7.5830 -1.9664 0.9691
1.0990 -7.5351 -1.9716 0.9690
3.0745 -7.0316 -1.9870 0.9688
4.8581 -6.0129 -2.0015 0.9686
5.6266 -5.8179 -2.0956 0.9671
6.3160 -5.4616 -2.1619 0.9661
7.2224 -4.2778 -2.1734 0.9659
8.1286 -2.2266 -2.1822 0.9658
8.3020 -1.4957 -2.1842 0.9657
8.4080 -0.7513 -2.1856 0.9657
7.5833 1.3662 -2.1813 0.9685
7.4297 2.0352 -2.1808 0.9685
7.2157 2.6872 -2.1798 0.9685
6.9432 3.3165 -2.1783 0.9685
6.6145 3.9178 -2.1763 0.9685
5.8013 5.0166 -2.1712 0.9686
3.0455 6.9653 -2.1521 0.9689
1.7546 7.3626 -2.1427 0.9690
1.0898 7.4723 -2.1377 0.9691
0.4194 7.5218 -2.1327 0.9692
-0.2511 7.5113 -2.1276 0.9692
-0.9165 7.4412 -2.1225 0.9693
-1.5714 7.3126 -2.1174 0.9694
-2.2108 7.1268 -2.1124 0.9695
-3.4236 6.5915 -2.1027 0.9696
-4.5186 5.8550 -2.0937 0.9697
-5.4642 4.9421 -2.0857 0.9698
-5.8723 4.4285 -2.0821 0.9699
-6.2335 3.8822 -2.0789 0.9699
-6.8053 2.7084 -2.0735 0.9700
-7.2608 0.8122 -2.0683 0.9701
-7.3011 0.1627 -2.0674 0.9701
-7.2849 -0.4877 -2.0669 0.9701
-7.0842 -1.7719 -2.0673 0.9701
-6.6644 -3.0028 -2.0693 0.9701
-6.0372 -4.1443 -2.0730 0.9700
-5.6510 -4.6707 -2.0755 0.9700
-5.2199 -5.1621 -2.0783 0.9699
-4.2266 -6.0125 -2.0806 0.9699
-3.5847 -6.2089 -2.0296 0.9706
0.0773 -6.9386 -1.9644 0.9716
0.6962 -6.9208 -1.9691 0.9715
1.9215 -6.7198 -1.9786 0.9714
2.5179 -6.5376 -1.9833 0.9713
5.0341 -5.6922 -2.1512 0.9689
5.5429 -5.2424 -2.1598 0.9688
5.9983 -4.7368 -2.1637 0.9687
6.4067 -4.1911 -2.1673 0.9687
6.7645 -3.6096 -2.1706 0.9686
7.0682 -2.9972 -2.1734 0.9686
7.3152 -2.3588 -2.1759 0.9686
7.6302 -1.0262 -2.1795 0.9685
6.7857 3.6209 -2.1774 0.9685
6.0230 4.7563 -2.1726 0.9686
5.5681 5.2663 -2.1696 0.9686
5.0695 5.7321 -2.1663 0.9687
4.5314 6.1501 -2.1626 0.9687
3.9587 6.5169 -2.1586 0.9688
2.7293 7.0865 -2.1498 0.9689
2.0832 7.2853 -2.1451 0.9690
0.7550 7.5046 -2.1352 0.9691
-0.5848 7.4837 -2.1250 0.9693
-1.2456 7.3842 -2.1199 0.9693
-1.8933 7.2267 -2.1149 0.9694
-3.1300 6.7451 -2.1051 0.9696
-4.2577 6.0567 -2.0959 0.9697
-5.6740 4.6896 -2.0839 0.9699
-6.0589 4.1592 -2.0805 0.9699
-6.3956 3.5981 -2.0774 0.9700
-6.6818 3.0107 -2.0747 0.9700
-7.2195 1.1352 -2.0689 0.9701
-7.2557 -0.8117 -2.0668 0.9701
-6.9994 -2.0861 -2.0676 0.9701
-6.7893 -2.7021 -2.0686 0.9701
-6.2126 -3.8692 -2.0719 0.9700
-5.8499 -4.4116 -2.0742 0.9700
-3.2295 -6.2179 -1.9835 0.9713
-2.6110 -6.3534 -1.9446 0.9718
0.3868 -6.9366 -1.9667 0.9715
1.0050 -6.8912 -1.9715 0.9715
1.6183 -6.7907 -1.9762 0.9714
2.2216 -6.6355 -1.9809 0.9713
3.3785 -6.1649 -1.9901 0.9712
4.0318 -6.0159 -2.0502 0.9703
4.7641 -5.8966 -2.1460 0.9690
5.2956 -5.4756 -2.1564 0.9688
6.2087 -4.4687 -2.1656 0.9687
6.5922 -3.9045 -2.1690 0.9687
7.1990 -2.6809 -2.1747 0.9686
7.5743 -1.3646 -2.1788 0.9685
7.6705 -0.6854 -2.1801 0.9685
7.0754 0.0000 -2.1762 0.9708
7.0485 0.6298 -2.1766 0.9708
6.9643 1.2547 -2.1765 0.9708
6.3771 3.0461 -2.1737 0.9709
6.0757 3.5987 -2.1720 0.9709
3.9052 5.8270 -2.1576 0.9711
2.8000 6.4037 -2.1497 0.9712
1.6137 6.7714 -2.1410 0.9713
0.3859 6.9204 -2.1319 0.9714
-0.2311 6.9121 -2.1272 0.9715
-0.8435 6.8489 -2.1225 0.9715
-2.6059 6.3411 -2.1087 0.9717
-3.1534 6.0713 -2.1043 0.9718
-4.1634 5.3947 -2.0960 0.9719
-5.0362 4.5549 -2.0886 0.9720
-5.4130 4.0822 -2.0853 0.9720
-5.7466 3.5790 -2.0823 0.9721
-6.0346 3.0494 -2.0796 0.9721
-6.4663 1.9272 -2.0753 0.9722
-6.3647 -2.2101 -2.0723 0.9722
-5.8796 -3.3078 -2.0750 0.9722
-5.5669 -3.8215 -2.0769 0.9721
-5.2104 -4.3065 -2.0791 0.9721
-4.3759 -5.1758 -2.0847 0.9720
-2.8580 -6.1588 -2.0883 0.9720
-2.2344 -6.2107 -2.0301 0.9728
-0.4966 -6.3549 -1.9606 0.9737
1.2079 -6.3017 -1.9736 0.9735
1.7698 -6.1892 -1.9800 0.9734
2.9958 -6.0963 -2.0893 0.9720
3.6096 -5.9422 -2.1385 0.9713
4.6371 -5.2433 -2.1529 0.9711
6.7194 -2.1667 -2.1715 0.9709
6.8915 -1.5614 -2.1734 0.9709
7.0672 -0.3151 -2.1759 0.9708
6.9008 1.5635 -2.1763 0.9708
6.7320 2.1708 -2.1756 0.9708
5.9065 3.8639 -2.1709 0.9709
5.5332 4.3695 -2.1686 0.9709
5.1158 4.8385 -2.1658 0.9710
4.6583 5.2672 -2.1627 0.9710
4.1644 5.6520 -2.1594 0.9710
0.6945 6.9039 -2.1342 0.9714
0.0771 6.9231 -2.1295 0.9714
-2.3233 6.4578 -2.1109 0.9717
-2.8828 6.2122 -2.1064 0.9717
-3.4172 5.9188 -2.1021 0.9718
-4.3956 5.1991 -2.0940 0.9719
-4.8323 4.7788 -2.0904 0.9720
-5.8965 3.3173 -2.0809 0.9721
-6.1609 2.7760 -2.0784 0.9721
-6.3769 2.2143 -2.0763 0.9721
-6.5431 1.6365 -2.0745 0.9722
-6.7216 0.4500 -2.0721 0.9722
-6.7329 -0.1501 -2.0714 0.9722
-6.6921 -0.7486 -2.0712 0.9722
-6.5994 -1.3414 -2.0713 0.9722
-6.4555 -1.9240 -2.0719 0.9722
-6.0188 -3.0414 -2.0742 0.9722
-5.7289 -3.5680 -2.0759 0.9722
-5.3940 -4.0678 -2.0780 0.9721
-5.0164 -4.5370 -2.0804 0.9721
-4.5988 -4.9721 -2.0832 0.9721
-2.5496 -6.2042 -2.0631 0.9723
-1.9283 -6.2163 -2.0019 0.9731
0.3560 -6.3853 -1.9670 0.9736
0.9250 -6.3422 -1.9714 0.9735
1.4891 -6.2485 -1.9757 0.9735
2.0657 -6.1699 -2.0013 0.9731
2.6769 -6.1223 -2.0552 0.9724
4.8705 -5.0361 -2.1549 0.9711
5.3086 -4.5905 -2.1586 0.9711
6.3603 -3.0381 -2.1680 0.9709
6.8123 -1.8661 -2.1725 0.9709
7.0447 -0.6295 -2.1754 0.9708
6.5097 0.5817 -2.1725 0.9728
6.4319 1.1587 -2.1724 0.9728
6.3019 1.7263 -2.1720 0.9728
6.1208 2.2794 -2.1711 0.9728
5.8902 2.8135 -2.1698 0.9729
5.2891 3.8069 -2.1662 0.9729
4.9240 4.2579 -2.1638 0.9729
4.5198 4.6735 -2.1612 0.9730
4.0803 5.0502 -2.1582 0.9730
3.6091 5.3852 -2.1549 0.9730
3.1104 5.6758 -2.1514 0.9731
2.0475 6.1155 -2.1437 0.9732
1.4922 6.2616 -2.1397 0.9732
0.3569 6.4014 -2.1312 0.9733
-0.2138 6.3948 -2.1268 0.9734
-0.7805 6.3374 -2.1225 0.9734
-2.9197 5.6215 -2.1056 0.9737
-3.4021 5.3293 -2.1017 0.9737
-3.8561 4.9965 -2.0980 0.9737
-4.2783 4.6256 -2.0944 0.9738
-4.6656 4.2198 -2.0911 0.9738
-5.0153 3.7822 -2.0880 0.9739
-5.8157 2.3146 -2.0806 0.9740
-6.1241 1.2448 -2.0773 0.9740
-6.2420 0.1391 -2.0754 0.9740
-6.2284 -0.4169 -2.0750 0.9740
-6.1665 -0.9696 -2.0750 0.9740
-4.4594 -4.4100 -2.0847 0.9739
-4.0544 -4.7956 -2.0875 0.9739
-1.0460 -6.2013 -2.0905 0.9738
-0.4849 -6.2060 -2.0692 0.9741
0.0691 -6.2070 -2.0634 0.9742
0.6237 -6.1994 -2.0711 0.9741
1.7558 -6.1406 -2.1230 0.9734
2.8350 -5.7692 -2.1367 0.9733
3.8311 -5.1996 -2.1469 0.9731
5.0938 -4.0226 -2.1575 0.9730
5.4393 -3.5582 -2.1606 0.9730
5.9983 -2.5435 -2.1657 0.9729
6.2069 -2.0015 -2.1678 0.9729
6.3654 -1.4422 -2.1695 0.9729
6.4725 -0.8705 -2.1709 0.9728
6.5271 -0.2910 -2.1718 0.9728
6.4774 0.8711 -2.1725 0.9728
6.3734 1.4440 -2.1722 0.9728
5.7570 3.0720 -2.1691 0.9729
5.4561 3.5692 -2.1672 0.9729
4.7265 4.4703 -2.1625 0.9729
4.3043 4.8669 -2.1597 0.9730
2.8520 5.8037 -2.1495 0.9731
1.7713 6.1948 -2.1417 0.9732
1.2106 6.3156 -2.1376 0.9733
0.6424 6.3856 -2.1333 0.9733
0.0713 6.4045 -2.1290 0.9734
-0.4979 6.3724 -2.1247 0.9734
-1.0610 6.2899 -2.1203 0.9735
-1.6133 6.1580 -2.1160 0.9735
-2.6690 5.7515 -2.1076 0.9736
-3.1643 5.4807 -2.1036 0.9737
-4.0713 4.8156 -2.0962 0.9738
-4.4765 4.4269 -2.0927 0.9738
-5.1753 3.5527 -2.0866 0.9739
-5.9103 2.0523 -2.0797 0.9740
-6.1175 -1.2434 -2.0751 0.9740
-5.8040 -2.3099 -2.0765 0.9740
-5.5787 -2.8191 -2.0777 0.9740
-5.3097 -3.3069 -2.0793 0.9740
-4.9990 -3.7699 -2.0812 0.9740
-4.2612 -4.6072 -2.0861 0.9739
-3.8395 -4.9750 -2.0889 0.9739
-3.3865 -5.3049 -2.0920 0.9738
-2.9056 -5.5943 -2.0954 0.9738
-2.3986 -5.8366 -2.0976 0.9738
-1.8701 -6.0286 -2.0982 0.9737
-1.3270 -6.1755 -2.0996 0.9737
-0.2075 -6.2073 -2.0645 0.9742
0.3459 -6.2035 -2.0653 0.9742
1.4708 -6.1718 -2.1090 0.9736
2.0307 -6.0655 -2.1262 0.9734
3.0948 -5.6473 -2.1406 0.9732
3.5924 -5.3602 -2.1449 0.9732
4.0625 -5.0282 -2.1488 0.9731
4.5016 -4.6546 -2.1524 0.9731
5.2718 -3.7944 -2.1591 0.9730
6.1087 -2.2749 -2.1668 0.9729
6.2925 -1.7237 -2.1687 0.9729
6.0641 0.0000 -2.1686 0.9746
5.2088 3.0852 -2.1649 0.9746
4.5707 3.9524 -2.1609 0.9747
3.3512 5.0003 -2.1526 0.9748
1.9019 5.6806 -2.1422 0.9749
1.3863 5.8170 -2.1384 0.9749
0.8614 5.9065 -2.1346 0.9750
-0.7255 5.8908 -2.1225 0.9751
-1.2446 5.7918 -2.1185 0.9751
-1.7519 5.6474 -2.1145 0.9752
-2.2434 5.4590 -2.1106 0.9752
-3.1646 4.9572 -2.1032 0.9753
-3.5873 4.6482 -2.0997 0.9754
-5.2051 2.6303 -2.0856 0.9755
-5.7787 0.6464 -2.0794 0.9756
-5.8112 0.1295 -2.0787 0.9756
-5.7986 -0.3882 -2.0783 0.9756
-5.4925 -1.9072 -2.0792 0.9756
-5.3035 -2.3896 -2.0802 0.9756
-4.8026 -3.2968 -2.0832 0.9756
-3.7731 -4.4629 -2.0899 0.9755
-2.9302 -5.0752 -2.0957 0.9754
-2.4707 -5.3242 -2.0990 0.9754
-1.9903 -5.5320 -2.1024 0.9753
-1.4925 -5.6970 -2.1060 0.9753
0.5931 -5.8959 -2.1191 0.9751
1.6372 -5.7255 -2.1295 0.9750
2.1445 -5.5680 -2.1337 0.9750
2.6364 -5.3649 -2.1377 0.9749
4.3719 -4.1350 -2.1519 0.9748
4.7294 -3.7347 -2.1550 0.9747
5.3299 -2.8441 -2.1604 0.9747
5.5676 -2.3609 -2.1626 0.9746
5.7608 -1.8576 -2.1646 0.9746
5.9076 -1.3385 -2.1661 0.9746
6.0572 -0.2701 -2.1683 0.9746
6.0587 0.2702 -2.1688 0.9746
5.9145 1.3400 -2.1687 0.9746
5.5790 2.3657 -2.1671 0.9746
5.0641 3.3128 -2.1640 0.9746
3.9960 4.5183 -2.1570 0.9747
3.5732 4.8495 -2.1541 0.9747
3.1228 5.1408 -2.1510 0.9748
2.1549 5.5950 -2.1441 0.9749
1.6455 5.7546 -2.1404 0.9749
0.5969 5.9335 -2.1326 0.9750
-1.9998 5.5586 -2.1125 0.9752
-3.7877 4.4802 -2.0980 0.9754
-4.8163 3.3062 -2.0891 0.9755
-5.0855 2.8611 -2.0867 0.9755
-5.5016 1.9104 -2.0826 0.9756
-5.6456 1.4121 -2.0811 0.9756
-5.7455 0.9034 -2.0799 0.9756
-5.8106 -0.1295 -2.0784 0.9756
-5.7754 -0.6461 -2.0782 0.9756
-5.6954 -1.1576 -2.0784 0.9756
-5.5710 -1.6603 -2.0788 0.9756
-5.4033 -2.1505 -2.0797 0.9756
-5.1933 -2.6243 -2.0808 0.9756
-3.9657 -4.2877 -2.0886 0.9755
-3.5729 -4.6295 -2.0913 0.9755
-3.1511 -4.9360 -2.0942 0.9754
-2.2329 -5.4334 -2.1007 0.9754
-0.7212 -5.8559 -2.1099 0.9752
-0.1974 -5.9055 -2.1130 0.9752
1.3786 -5.7850 -2.1267 0.9751
1.8925 -5.6527 -2.1317 0.9750
2.3926 -5.4720 -2.1357 0.9749
2.8753 -5.2468 -2.1396 0.9749
3.7729 -4.6698 -2.1469 0.9748
4.1802 -4.3223 -2.1503 0.9748
4.5551 -3.9390 -2.1535 0.9747
4.8943 -3.5227 -2.1565 0.9747
5.1949 -3.0769 -2.1591 0.9747
5.8401 -1.5998 -2.1654 0.9746
5.9632 -1.0743 -2.1668 0.9746
6.0381 -0.5396 -2.1679 0.9746
5.5617 1.0020 -2.1657 0.9761
4.2601 3.6839 -2.1583 0.9762
3.5314 4.3709 -2.1534 0.9762
3.1243 4.6617 -2.1506 0.9762
2.6931 4.9144 -2.1475 0.9763
1.7737 5.2976 -2.1409 0.9764
0.8036 5.5097 -2.1337 0.9764
0.3094 5.5497 -2.1300 0.9765
-0.1854 5.5454 -2.1263 0.9765
-0.6770 5.4971 -2.1225 0.9766
-1.6352 5.2714 -2.1150 0.9766
-2.0943 5.0961 -2.1114 0.9767
-3.3499 4.3407 -2.1012 0.9768
-4.3597 3.2878 -2.0926 0.9769
-4.8629 2.4573 -2.0880 0.9769
-5.2129 1.5536 -2.0845 0.9770
-5.3998 0.6041 -2.0822 0.9770
-5.4187 -0.3627 -2.0812 0.9770
-5.3648 -0.8436 -2.0811 0.9770
-5.1324 -1.7822 -2.0820 0.9770
-4.9557 -2.2329 -2.0830 0.9770
-4.4872 -3.0803 -2.0857 0.9770
-4.1989 -3.4705 -2.0876 0.9769
-3.5246 -4.1689 -2.0920 0.9769
-2.7367 -4.7401 -2.0975 0.9768
-2.3073 -4.9720 -2.1005 0.9768
-1.8584 -5.1656 -2.1038 0.9768
-0.4298 -5.5004 -2.1143 0.9766
0.5542 -5.5088 -2.1217 0.9766
1.5275 -5.3422 -2.1293 0.9765
2.4590 -5.0040 -2.1366 0.9764
2.8995 -4.7732 -2.1402 0.9764
3.3181 -4.5033 -2.1436 0.9763
3.7114 -4.1965 -2.1469 0.9763
4.4088 -3.4816 -2.1528 0.9762
4.7069 -3.0791 -2.1554 0.9762
4.9678 -2.6509 -2.1578 0.9762
5.3687 -1.7312 -2.1617 0.9761
5.5052 -1.2473 -2.1632 0.9761
5.5974 -0.7528 -2.1643 0.9761
5.6443 -0.2517 -2.1652 0.9761
5.6455 0.2517 -2.1656 0.9761
5.5112 1.2487 -2.1655 0.9761
5.1989 2.2045 -2.1640 0.9761
4.7195 3.0873 -2.1612 0.9761
4.4221 3.4921 -2.1593 0.9762
3.3311 4.5209 -2.1520 0.9762
2.9115 4.7929 -2.1491 0.9763
2.4697 5.0257 -2.1459 0.9763
1.5346 5.3670 -2.1392 0.9764
1.0491 5.4731 -2.1356 0.9764
0.0619 5.5531 -2.1282 0.9765
-1.4000 5.3436 -2.1169 0.9766
-2.3172 4.9935 -2.1096 0.9767
-2.7480 4.7596 -2.1061 0.9767
-3.5373 4.1840 -2.0996 0.9768
-4.4992 3.0885 -2.0913 0.9769
-5.4204 0.3629 -2.0818 0.9770
-5.3970 -0.6037 -2.0811 0.9770
-5.0490 -2.0095 -2.0825 0.9770
-4.8526 -2.4521 -2.0836 0.9770
-4.3474 -3.2785 -2.0866 0.9769
-3.7046 -4.0054 -2.0908 0.9769
-3.3374 -4.3244 -2.0933 0.9769
-1.6278 -5.2474 -2.1054 0.9767
-1.1562 -5.3803 -2.1089 0.9767
-0.6738 -5.4711 -2.1125 0.9767
-0.1845 -5.5189 -2.1161 0.9766
1.7656 -5.2734 -2.1311 0.9765
2.2318 -5.1042 -2.1348 0.9764
2.6817 -4.8935 -2.1384 0.9764
3.1117 -4.6430 -2.1419 0.9763
3.8975 -4.0299 -2.1484 0.9763
4.2465 -3.6721 -2.1514 0.9762
4.5624 -3.2838 -2.1542 0.9762
4.8421 -2.8680 -2.1567 0.9762
5.4425 -1.4908 -2.1625 0.9761
5.5569 -1.0011 -2.1638 0.9761
5.6265 -0.5028 -2.1648 0.9761
5.2841 0.0000 -2.1627 0.9774
5.2638 0.4704 -2.1629 0.9774
4.9500 1.8434 -2.1618 0.9774
4.5398 2.6889 -2.1595 0.9775
3.9846 3.4456 -2.1560 0.9775
2.9229 4.3613 -2.1488 0.9776
2.0976 4.7973 -2.1429 0.9776
1.6598 4.9576 -2.1397 0.9777
1.2101 5.0778 -2.1364 0.9777
-1.0877 5.0619 -2.1190 0.9779
-1.9616 4.7733 -2.1121 0.9779
-2.7683 4.3364 -2.1056 0.9780
-3.1387 4.0669 -2.1025 0.9780
-3.4834 3.7662 -2.0996 0.9781
-4.3392 2.7025 -2.0922 0.9781
-4.7410 1.8869 -2.0884 0.9782
-2.1365 0.4342 -0.8923 0.9906
-2.1285 0.0474 -0.8714 0.9908
-2.1302 -0.1426 -0.8738 0.9908
-2.1345 -0.3356 -0.8843 0.9907
-4.4434 -2.4998 -2.0866 0.9782
-3.6340 -3.5937 -2.0917 0.9782
-3.3032 -3.9071 -2.0940 0.9781
-2.5644 -4.4416 -2.0991 0.9781
-2.1618 -4.6586 -2.1019 0.9780
-1.7411 -4.8395 -2.1049 0.9780
-0.4025 -5.1515 -2.1148 0.9779
0.5189 -5.1582 -2.1218 0.9778
1.8725 -4.8619 -2.1323 0.9777
2.3015 -4.6834 -2.1357 0.9777
2.7134 -4.4669 -2.1391 0.9777
3.1049 -4.2140 -2.1423 0.9776
4.1244 -3.2570 -2.1509 0.9775
4.4029 -2.8802 -2.1533 0.9775
4.6466 -2.4795 -2.1555 0.9775
5.0210 -1.6191 -2.1592 0.9775
5.2793 0.2354 -2.1628 0.9774
5.1537 1.1677 -2.1627 0.9774
5.0281 1.6213 -2.1622 0.9774
4.4139 2.8874 -2.1587 0.9775
3.8253 3.6179 -2.1549 0.9775
3.4844 3.9399 -2.1526 0.9775
3.1162 4.2294 -2.1501 0.9776
2.3109 4.7025 -2.1444 0.9776
1.8804 4.8824 -2.1413 0.9776
0.5212 5.1814 -2.1313 0.9777
-0.4043 5.1746 -2.1243 0.9778
-0.8619 5.1095 -2.1208 0.9779
-2.9565 4.2057 -2.1040 0.9780
-3.3144 3.9203 -2.1011 0.9781
-3.6454 3.6049 -2.0983 0.9781
-3.9468 3.2621 -2.0957 0.9781
-4.2167 2.8946 -2.0933 0.9781
-4.4530 2.5052 -2.0911 0.9782
-2.1365 -0.4343 -0.8923 0.9906
-4.7332 -1.8838 -2.0850 0.9782
-4.5490 -2.2987 -2.0860 0.9782
-4.0750 -3.0731 -2.0889 0.9782
-3.4721 -3.7540 -2.0928 0.9781
-2.7579 -4.3202 -2.0977 0.9781
-1.0830 -5.0398 -2.1098 0.9780
1.2048 -5.0556 -2.1271 0.9778
2.0889 -4.7775 -2.1340 0.9777
2.5098 -4.5798 -2.1374 0.9777
2.9119 -4.3449 -2.1407 0.9776
3.2919 -4.0744 -2.1438 0.9776
3.9728 -3.4354 -2.1496 0.9776
4.2679 -3.0718 -2.1521 0.9775
4.5292 -2.6827 -2.1545 0.9775
5.1967 -0.9362 -2.1611 0.9774
5.2617 -0.4702 -2.1620 0.9774
4.9375 0.4412 -2.1604 0.9786
4.7802 1.3094 -2.1600 0.9786
4.6433 1.7292 -2.1594 0.9786
4.2588 2.5225 -2.1572 0.9786
4.0146 2.8895 -2.1557 0.9786
3.4326 3.5492 -2.1519 0.9787
2.3648 4.3151 -2.1445 0.9788
1.9687 4.5025 -2.1417 0.9788
1.5580 4.6534 -2.1387 0.9788
1.1360 4.7667 -2.1356 0.9788
0.7061 4.8416 -2.1324 0.9789
0.2720 4.8778 -2.1291 0.9789
-1.0216 4.7541 -2.1192 0.9790
-1.4385 4.6371 -2.1159 0.9790
-2.2312 4.2958 -2.1096 0.9791
-2.9492 3.8214 -2.1037 0.9792
-3.2734 3.5392 -2.1010 0.9792
-3.8401 2.8960 -2.0961 0.9792
-4.0785 2.5401 -2.0940 0.9793
-4.4566 1.7737 -2.0904 0.9793
-1.8741 0.5585 -0.8523 0.9915
-1.9300 0.3923 -0.8583 0.9914
-1.9433 0.2174 -0.8522 0.9915
-1.9479 -0.1304 -0.8508 0.9915
-1.9080 -0.4772 -0.8571 0.9915
-4.3674 -1.9679 -2.0877 0.9793
-4.1771 -2.3500 -2.0888 0.9793
-3.6995 -3.0577 -2.0917 0.9793
-2.7685 -3.9382 -2.0980 0.9792
-2.4098 -4.1740 -2.1005 0.9792
-2.0314 -4.3774 -2.1032 0.9792
-1.2264 -4.6812 -2.1090 0.9791
-0.3781 -4.8389 -2.1153 0.9790
0.0542 -4.8608 -2.1185 0.9790
0.4873 -4.8442 -2.1218 0.9790
0.9180 -4.7891 -2.1252 0.9789
1.3427 -4.6956 -2.1285 0.9789
1.7580 -4.5645 -2.1317 0.9789
2.1605 -4.3965 -2.1349 0.9789
2.5470 -4.1929 -2.1380 0.9788
2.9141 -3.9551 -2.1411 0.9788
3.5785 -3.3845 -2.1466 0.9787
3.8700 -3.0561 -2.1491 0.9787
4.1311 -2.7025 -2.1514 0.9787
4.5531 -1.9307 -2.1553 0.9787
4.7103 -1.5189 -2.1569 0.9786
4.8297 -1.0943 -2.1582 0.9786
4.9102 -0.6604 -2.1592 0.9786
4.9130 0.6607 -2.1604 0.9786
4.8343 1.0953 -2.1602 0.9786
4.5607 1.9339 -2.1589 0.9786
3.8803 3.0643 -2.1548 0.9787
2.9241 3.9687 -2.1484 0.9787
2.5562 4.2082 -2.1458 0.9787
1.3482 4.7148 -2.1371 0.9788
0.0544 4.8813 -2.1275 0.9789
-0.8094 4.7986 -2.1209 0.9790
-2.7780 3.9517 -2.1052 0.9791
-3.1145 3.6838 -2.1024 0.9792
-4.1856 2.3548 -2.0930 0.9793
-4.3749 1.9712 -2.0912 0.9793
-1.8290 0.6351 -0.8438 0.9916
-1.9479 0.1304 -0.8508 0.9915
-1.9300 -0.3923 -0.8583 0.9914
-1.8741 -0.5585 -0.8523 0.9915
-4.4498 -1.7710 -2.0872 0.9793
-4.0695 -2.5345 -2.0894 0.9793
-3.2634 -3.5284 -2.0946 0.9792
-2.9395 -3.8088 -2.0968 0.9792
-1.8356 -4.4666 -2.1046 0.9791
-1.4327 -4.6186 -2.1075 0.9791
-1.0174 -4.7346 -2.1105 0.9791
-0.5928 -4.8136 -2.1137 0.9791
0.7032 -4.8214 -2.1235 0.9790
2.7332 -4.0782 -2.1396 0.9788
3.0895 -3.8239 -2.1425 0.9788
4.0045 -2.8823 -2.1503 0.9787
4.4607 -2.1307 -2.1545 0.9787
4.6363 -1.7266 -2.1562 0.9786
4.8748 -0.8782 -2.1587 0.9786
4.6619 0.0000 -2.1579 0.9797
4.5885 0.8267 -2.1581 0.9797
4.4960 1.2316 -2.1578 0.9797
4.3673 1.6264 -2.1572 0.9797
4.0059 2.3727 -2.1551 0.9797
3.7764 2.7181 -2.1537 0.9797
3.2292 3.3390 -2.1501 0.9797
2.9163 3.6096 -2.1480 0.9798
2.5807 3.8507 -2.1457 0.9798
2.2251 4.0603 -2.1432 0.9798
1.4662 4.3794 -2.1377 0.9798
0.2560 4.5917 -2.1288 0.9799
-0.1535 4.5896 -2.1256 0.9800
-1.3546 4.3668 -2.1163 0.9800
-2.1014 4.0460 -2.1104 0.9801
-3.6182 2.7286 -2.0977 0.9802
-4.0373 2.0402 -2.0939 0.9803
-1.6738 -0.1121 -0.7765 0.9926
-1.6521 -0.2598 -0.7741 0.9927
-3.9365 -2.2146 -2.0907 0.9803
-3.7260 -2.5578 -2.0920 0.9803
-3.2185 -3.1829 -2.0953 0.9802
-2.9252 -3.4600 -2.0972 0.9802
-2.6083 -3.7104 -2.0994 0.9802
-1.9136 -4.1237 -2.1043 0.9802
-1.5409 -4.2831 -2.1070 0.9801
0.0510 -4.5770 -2.1188 0.9800
0.4588 -4.5610 -2.1219 0.9800
1.6548 -4.2965 -2.1312 0.9799
2.7423 -3.7219 -2.1400 0.9798
3.3670 -3.1845 -2.1452 0.9798
3.8865 -2.5424 -2.1497 0.9797
4.6576 0.2077 -2.1581 0.9797
3.8950 2.5480 -2.1545 0.9797
3.3763 3.1933 -2.1511 0.9797
1.2688 4.4373 -2.1363 0.9799
-0.3575 4.5749 -2.1241 0.9800
-1.9204 4.1385 -2.1118 0.9801
-2.2781 3.9457 -2.1089 0.9801
-2.9340 3.4703 -2.1035 0.9802
-3.2274 3.1917 -2.1011 0.9802
-3.4949 2.8886 -2.0988 0.9802
-3.7343 2.5635 -2.0966 0.9802
-3.9441 2.2189 -2.0947 0.9803
-4.1226 1.8575 -2.0930 0.9803
-1.5621 0.5424 -0.7654 0.9927
-1.6165 0.4043 -0.7713 0.9927
-1.6716 -0.0373 -0.7739 0.9927
-1.6675 -0.1866 -0.7767 0.9926
-1.5924 -0.4746 -0.7692 0.9927
-1.5257 -0.6072 -0.7601 0.9928
-4.0302 -2.0365 -2.0902 0.9803
-3.8351 -2.3885 -2.0913 0.9803
-3.6097 -2.7222 -2.0927 0.9803
-3.3557 -3.0350 -2.0944 0.9803
-0.9582 -4.4592 -2.1112 0.9801
-0.5583 -4.5332 -2.1142 0.9801
-0.1528 -4.5714 -2.1172 0.9800
0.2550 -4.5736 -2.1203 0.9800
1.0650 -4.4690 -2.1266 0.9800
1.4607 -4.3628 -2.1297 0.9799
1.8458 -4.2215 -2.1327 0.9799
2.2173 -4.0461 -2.1357 0.9799
2.5721 -3.8379 -2.1386 0.9798
2.9073 -3.5984 -2.1413 0.9798
3.5075 -3.0330 -2.1464 0.9798
3.7675 -2.7117 -2.1487 0.9797
4.3612 -1.6241 -2.1542 0.9797
4.6423 -0.4148 -2.1574 0.9797
4.3951 0.0000 -2.1559 0.9806
3.5606 2.5628 -2.1519 0.9806
3.0451 3.1486 -2.1486 0.9807
2.7502 3.4039 -2.1466 0.9807
2.4338 3.6315 -2.1444 0.9807
2.0986 3.8295 -2.1420 0.9807
1.3830 4.1309 -2.1369 0.9808
0.6271 4.2995 -2.1313 0.9808
0.2416 4.3323 -2.1284 0.9809
-1.6380 3.9859 -2.1138 0.9810
-2.9116 3.1480 -2.1034 0.9811
-3.1769 2.8733 -2.1012 0.9811
-3.4166 2.5766 -2.0991 0.9811
-3.6291 2.2602 -2.0972 0.9811
-3.8127 1.9267 -2.0955 0.9811
-1.3200 0.3934 -0.6756 0.9939
-1.3513 -0.0905 -0.6643 0.9940
-1.3257 -0.2085 -0.6583 0.9940
-1.3149 -0.3289 -0.6649 0.9940
-1.3171 -0.4573 -0.6839 0.9938
-1.2865 -0.5797 -0.6922 0.9937
-3.7178 -2.0916 -2.0925 0.9812
-3.5190 -2.4156 -2.0937 0.9812
-3.2922 -2.7211 -2.0951 0.9812
-2.7623 -3.2672 -2.0987 0.9811
-1.4547 -4.0434 -2.1079 0.9810
-1.0904 -4.1621 -2.1105 0.9810
0.4330 -4.3041 -2.1219 0.9809
1.1926 -4.1707 -2.1278 0.9809
1.5612 -4.0535 -2.1307 0.9808
1.9183 -3.9037 -2.1335 0.9808
2.2611 -3.7222 -2.1363 0.9808
2.8922 -3.2703 -2.1415 0.9807
3.4336 -2.7115 -2.1461 0.9807
3.6648 -2.3974 -2.1482 0.9807
4.3911 0.1958 -2.1561 0.9806
4.1823 1.3486 -2.1555 0.9806
4.0443 1.7150 -2.1548 0.9806
3.1837 3.0111 -2.1495 0.9807
2.9005 3.2796 -2.1476 0.9807
2.5945 3.5213 -2.1455 0.9807
2.2684 3.7343 -2.1432 0.9807
1.9248 3.9169 -2.1408 0.9807
1.5667 4.0678 -2.1382 0.9808
0.8185 4.2701 -2.1327 0.9808
0.4346 4.3202 -2.1299 0.9808
0.0483 4.3358 -2.1269 0.9809
-0.3373 4.3169 -2.1240 0.9809
-1.4598 4.0576 -2.1153 0.9810
-1.8128 3.9064 -2.1124 0.9810
-2.1505 3.7247 -2.1097 0.9810
-2.4704 3.5142 -2.1071 0.9810
-2.7701 3.2765 -2.1046 0.9811
-3.3000 2.7275 -2.1001 0.9811
-3.7246 2.0954 -2.0963 0.9811
-1.3171 0.4573 -0.6839 0.9938
-1.3149 0.3289 -0.6649 0.9940
-1.3513 0.0905 -0.6643 0.9940
-1.3536 -0.0302 -0.6641 0.9940
-1.3419 -0.1501 -0.6624 0.9940
-1.3047 -0.2652 -0.6531 0.9941
-1.3059 -0.5197 -0.6895 0.9938
-3.8064 -1.9235 -2.0920 0.9812
-3.1690 -2.8662 -2.0959 0.9811
-2.9037 -3.1395 -2.0977 0.9811
-2.3056 -3.6116 -2.1018 0.9811
-1.2739 -4.1068 -2.1092 0.9810
-0.9045 -4.2092 -2.1119 0.9810
-0.5270 -4.2787 -2.1147 0.9810
-0.1443 -4.3145 -2.1175 0.9810
1.3781 -4.1162 -2.1293 0.9808
1.7414 -3.9826 -2.1321 0.9808
2.4262 -3.6201 -2.1377 0.9808
2.7421 -3.3939 -2.1403 0.9807
3.5528 -2.5571 -2.1472 0.9807
3.7697 -2.2328 -2.1491 0.9807
3.9566 -1.8899 -2.1509 0.9807
4.3230 -0.7788 -2.1546 0.9806
4.3767 -0.3911 -2.1554 0.9806
4.1522 0.0000 -2.1541 0.9815
4.1361 0.3696 -2.1543 0.9815
3.8899 1.4486 -2.1534 0.9815
3.7442 1.7884 -2.1526 0.9815
3.3642 2.4214 -2.1503 0.9815
2.5988 3.2165 -2.1453 0.9815
1.9833 3.6191 -2.1410 0.9816
0.9534 4.0005 -2.1335 0.9816
0.5928 4.0644 -2.1308 0.9817
0.2284 4.0957 -2.1281 0.9817
-0.8584 3.9948 -2.1198 0.9818
-1.5492 3.7696 -2.1143 0.9818
-2.1876 3.4269 -2.1092 0.9818
-3.0055 2.7183 -2.1023 0.9819
-3.4336 2.1385 -2.0985 0.9819
-1.0665 0.5389 -0.6199 0.9946
-1.1266 0.3358 -0.6099 0.9947
-1.1649 0.1303 -0.6081 0.9947
-1.1739 -0.0786 -0.6103 0.9947
-1.1517 -0.1811 -0.6048 0.9948
-1.1275 -0.2820 -0.6029 0.9948
-3.5181 -1.9792 -2.0941 0.9820
-3.3298 -2.2857 -2.0953 0.9820
-2.3301 -3.3146 -2.1019 0.9819
-2.0278 -3.5123 -2.1040 0.9819
-1.0313 -3.9366 -2.1112 0.9818
0.0455 -4.0847 -2.1192 0.9818
0.4094 -4.0698 -2.1220 0.9817
0.7710 -4.0224 -2.1247 0.9817
1.1275 -3.9430 -2.1275 0.9817
1.4758 -3.8319 -2.1303 0.9817
1.8133 -3.6900 -2.1330 0.9816
2.4447 -3.3180 -2.1381 0.9816
2.7334 -3.0907 -2.1405 0.9816
3.0008 -2.8381 -2.1427 0.9816
3.2447 -2.5623 -2.1448 0.9815
3.4630 -2.2654 -2.1468 0.9815
3.8155 -1.6179 -2.1500 0.9815
3.9468 -1.2727 -2.1513 0.9815
4.1136 -0.5532 -2.1533 0.9815
4.1477 -0.1850 -2.1539 0.9815
4.0497 0.9175 -2.1541 0.9815
3.8209 1.6202 -2.1530 0.9815
3.4698 2.2698 -2.1510 0.9815
3.2519 2.5680 -2.1496 0.9815
3.0082 2.8451 -2.1480 0.9815
2.7407 3.0990 -2.1462 0.9815
2.4518 3.3275 -2.1442 0.9815
2.1437 3.5290 -2.1421 0.9816
1.8191 3.7018 -2.1398 0.9816
1.4807 3.8447 -2.1374 0.9816
1.1313 3.9565 -2.1348 0.9816
0.7737 4.0365 -2.1322 0.9816
0.4109 4.0841 -2.1295 0.9817
-0.6801 4.0318 -2.1211 0.9817
-1.0349 3.9501 -2.1184 0.9818
-1.3806 3.8373 -2.1157 0.9818
-1.7145 3.6946 -2.1130 0.9818
-1.1275 0.2820 -0.6029 0.9948
-1.1517 0.1811 -0.6048 0.9948
-1.1739 0.0786 -0.6103 0.9947
-1.1649 -0.1303 -0.6081 0.9947
-1.1332 -0.2304 -0.5999 0.9948
-1.1266 -0.3358 -0.6099 0.9947
-1.1070 -0.4406 -0.6181 0.9946
-2.9984 -2.7119 -2.0974 0.9819
-2.7473 -2.9704 -2.0990 0.9819
-1.8703 -3.6010 -2.1051 0.9819
-0.4984 -4.0465 -2.1151 0.9818
-0.1364 -4.0800 -2.1178 0.9818
1.6461 -3.7648 -2.1316 0.9817
3.1258 -2.7030 -2.1438 0.9816
3.5619 -2.1097 -2.1477 0.9815
3.8851 -1.4468 -2.1507 0.9815
2.0429 0.0000 -1.1189 0.9907
2.0356 0.1819 -1.1193 0.9907
2.0036 0.3610 -1.1150 0.9908
3.5438 1.6927 -2.1510 0.9822
3.3775 2.0005 -2.1500 0.9823
2.9657 2.5646 -2.1474 0.9823
2.4601 3.0450 -2.1440 0.9823
1.2378 3.6971 -2.1354 0.9824
0.9028 3.7882 -2.1329 0.9824
0.2163 3.8789 -2.1278 0.9824
-0.4737 3.8463 -2.1225 0.9825
-0.8132 3.7841 -2.1199 0.9825
-1.1453 3.6922 -2.1173 0.9825
-1.4676 3.5713 -2.1147 0.9825
-2.0728 3.2470 -2.1099 0.9826
-2.6101 2.8220 -2.1054 0.9826
-3.0634 2.3103 -2.1015 0.9827
-3.2543 2.0268 -2.0998 0.9827
-0.9825 0.2928 -0.5615 0.9953
-1.0293 0.1152 -0.5673 0.9953
-1.0415 0.0232 -0.5706 0.9953
-1.0166 -0.1599 -0.5637 0.9953
-0.9472 -0.4268 -0.5690 0.9953
-0.9240 -0.5198 -0.5806 0.9952
-2.7255 -2.6953 -2.0995 0.9827
-2.2081 -3.1411 -2.1030 0.9826
-1.9216 -3.3284 -2.1050 0.9826
-1.3038 -3.6239 -2.1094 0.9826
-0.9772 -3.7298 -2.1118 0.9826
-0.6421 -3.8064 -2.1142 0.9825
0.3878 -3.8549 -2.1220 0.9825
0.7303 -3.8098 -2.1246 0.9825
1.0678 -3.7343 -2.1273 0.9824
1.3976 -3.6289 -2.1299 0.9824
1.7171 -3.4942 -2.1324 0.9824
2.0237 -3.3314 -2.1349 0.9824
2.3147 -3.1416 -2.1373 0.9824
2.8409 -2.6869 -2.1417 0.9823
3.4586 -1.8456 -2.1471 0.9823
2.0041 -0.4541 -1.1255 0.9907
2.0434 -0.0911 -1.1203 0.9907
2.0434 0.0911 -1.1203 0.9907
2.0042 0.4541 -1.1255 0.9907
1.9895 0.6415 -1.1449 0.9905
1.9407 0.8229 -1.1546 0.9904
3.4641 1.8485 -2.1506 0.9823
3.2842 2.1484 -2.1495 0.9823
2.8475 2.6932 -2.1467 0.9823
2.0295 3.3410 -2.1410 0.9823
1.7223 3.5048 -2.1389 0.9823
1.0713 3.7464 -2.1342 0.9824
0.7327 3.8224 -2.1317 0.9824
-0.6442 3.8190 -2.1212 0.9825
-1.3079 3.6353 -2.1160 0.9825
-2.9588 2.4455 -2.1024 0.9826
-0.9240 0.5198 -0.5806 0.9952
-0.9472 0.4268 -0.5690 0.9953
-0.9847 0.2463 -0.5559 0.9954
-1.0293 -0.1152 -0.5673 0.9953
-0.9825 -0.2928 -0.5615 0.9953
-3.2486 -2.0232 -2.0961 0.9827
-3.0573 -2.3056 -2.0973 0.9827
-2.8419 -2.5703 -2.0987 0.9827
-2.3448 -3.0383 -2.1020 0.9826
-1.4631 -3.5603 -2.1082 0.9826
-0.4721 -3.8335 -2.1155 0.9825
-0.1292 -3.8650 -2.1181 0.9825
0.8998 -3.7758 -2.1259 0.9825
2.4537 -3.0370 -2.1384 0.9824
2.7170 -2.8094 -2.1406 0.9823
3.3717 -1.9971 -2.1463 0.9823
3.5386 -1.6903 -2.1479 0.9823
1.9714 -0.7342 -1.1522 0.9905
2.0036 -0.3610 -1.1150 0.9908
2.0356 -0.1819 -1.1193 0.9907
1.8754 -0.0000 -1.0828 0.9914
1.8700 0.1671 -1.0839 0.9914
1.7869 0.6654 -1.1009 0.9912
1.7194 0.8213 -1.1001 0.9912
2.8118 2.4314 -2.1461 0.9830
2.0646 3.0806 -2.1411 0.9830
0.8562 3.5928 -2.1324 0.9831
0.5324 3.6506 -2.1300 0.9831
0.2052 3.6793 -2.1275 0.9831
-0.4494 3.6488 -2.1225 0.9832
-0.7715 3.5901 -2.1200 0.9832
-1.0867 3.5031 -2.1176 0.9832
-2.2311 2.8909 -2.1083 0.9833
-2.7032 2.4449 -2.1043 0.9833
-0.8760 0.4426 -0.5667 0.9955
-0.8932 0.3555 -0.5550 0.9956
-0.9120 0.1854 -0.5373 0.9957
-0.9306 0.0207 -0.5374 0.9957
-0.8983 -0.3119 -0.5490 0.9956
-0.8858 -0.3991 -0.5609 0.9955
-0.8638 -0.4859 -0.5722 0.9954
-2.9959 -2.0566 -2.0980 0.9834
-2.8026 -2.3164 -2.0992 0.9833
-2.3508 -2.7806 -2.1022 0.9833
-1.8237 -3.1588 -2.1059 0.9833
-1.2372 -3.4389 -2.1101 0.9833
-0.9272 -3.5392 -2.1123 0.9832
0.0409 -3.6709 -2.1195 0.9832
0.6927 -3.6140 -2.1245 0.9831
1.3256 -3.4419 -2.1295 0.9831
1.9192 -3.1594 -2.1342 0.9831
2.9124 -2.2999 -2.1426 0.9830
3.1081 -2.0332 -2.1443 0.9830
1.7564 -0.7448 -1.1014 0.9912
1.8108 -0.5839 -1.0985 0.9913
1.8755 -0.0836 -1.0839 0.9914
1.8755 0.0836 -1.0839 0.9914
1.8592 0.2500 -1.0831 0.9914
1.8108 0.5839 -1.0985 0.9913
3.1135 2.0368 -2.1481 0.9830
2.6997 2.5534 -2.1454 0.9830
2.4599 2.7815 -2.1438 0.9830
2.2007 2.9869 -2.1420 0.9830
1.9244 3.1680 -2.1401 0.9830
1.3296 3.4522 -2.1358 0.9831
-0.6111 3.6230 -2.1213 0.9832
-0.9301 3.5501 -2.1188 0.9832
-1.2409 3.4492 -2.1164 0.9832
-1.5412 3.3213 -2.1140 0.9832
-2.1012 2.9890 -2.1094 0.9833
-2.3565 2.7873 -2.1073 0.9833
-2.8082 2.3211 -2.1034 0.9833
-0.8638 0.4859 -0.5722 0.9954
-0.8858 0.3991 -0.5609 0.9955
-0.9030 0.2259 -0.5374 0.9957
-0.9237 -0.1033 -0.5366 0.9957
-0.9120 -0.1854 -0.5373 0.9957
-0.9012 -0.2686 -0.5429 0.9957
-0.8760 -0.4426 -0.5667 0.9955
-2.6975 -2.4397 -2.0999 0.9833
-1.3885 -3.3787 -2.1090 0.9833
-1.0834 -3.4925 -2.1112 0.9833
-0.1226 -3.6669 -2.1183 0.9832
0.5308 -3.6391 -2.1233 0.9832
1.1703 -3.4955 -2.1283 0.9831
1.4785 -3.3814 -2.1307 0.9831
2.3268 -2.8799 -2.1376 0.9830
2.8059 -2.4263 -2.1416 0.9830
3.0132 -2.1688 -2.1434 0.9830
1.7194 -0.8213 -1.1001 0.9912
1.8267 -0.5004 -1.0935 0.9913
1.8426 -0.3320 -1.0810 0.9914
