ply
format ascii 1.0
element vertex 1312
property float32 x
property float32 y
property float32 z
property float32 I
end_header
-16.0257 9.9809 -1.8125 0.9269
-17.1270 -7.7170 -1.8035 0.9273
-17.2585 9.7095 -1.9011 0.9235
-17.4420 -6.9417 -1.8023 0.9273
17.7845 0.0000 -2.1126 0.9309
17.4984 3.1525 -2.1120 0.9309
16.6378 6.1960 -2.1089 0.9310
15.2353 9.0239 -2.1034 0.9312
12.2137 12.6288 -2.0869 0.9317
10.2084 12.6351 -1.9295 0.9367
9.0195 13.4581 -1.9244 0.9368
-10.5027 11.3555 -1.8374 0.9396
-11.4442 10.3507 -1.8329 0.9397
-12.8760 9.7102 -1.9157 0.9371
-14.1003 8.7817 -1.9732 0.9353
-16.1913 3.2910 -1.9626 0.9356
-15.6122 -5.4212 -1.9631 0.9356
-13.9530 -6.2869 -1.8179 0.9402
-13.3554 -7.5136 -1.8203 0.9401
17.3657 -2.3355 -2.0814 0.9319
17.7646 -0.7921 -2.1123 0.9309
17.7678 0.7923 -2.1127 0.9309
17.3362 3.9279 -2.1115 0.9309
15.6342 8.3426 -2.1050 0.9311
14.8059 9.6856 -2.1016 0.9312
12.8032 12.1092 -2.0933 0.9315
9.6230 13.0604 -1.9270 0.9367
-10.9847 10.8630 -1.8351 0.9397
-11.8806 9.8195 -1.8309 0.9398
-15.1071 6.8070 -1.9683 0.9354
-15.6319 5.4280 -1.9656 0.9355
-16.4020 -1.8348 -1.9605 0.9357
-16.1789 -3.2885 -1.9611 0.9357
-15.8318 -4.7183 -1.9623 0.9356
-15.3182 -6.0965 -1.9584 0.9357
-13.0171 -8.1071 -1.8216 0.9401
15.8368 -4.3381 -1.9505 0.9360
17.7080 -1.5824 -2.1118 0.9309
14.8169 0.0000 -2.0994 0.9419
14.5791 2.6266 -2.0990 0.9419
14.2805 3.9118 -2.0979 0.9419
13.8654 5.1635 -2.0964 0.9420
13.3377 6.3709 -2.0943 0.9420
12.7023 7.5236 -2.0918 0.9421
11.9649 8.6119 -2.0888 0.9422
10.2126 10.5598 -2.0815 0.9424
-6.0416 11.6322 -1.8572 0.9484
-7.0357 11.0213 -1.8527 0.9485
-7.9701 10.3272 -1.8484 0.9487
-8.9907 9.7206 -1.8761 0.9479
-11.1911 8.4396 -1.9860 0.9449
-11.8782 7.3978 -1.9827 0.9450
-12.9665 5.1606 -1.9774 0.9452
-13.8362 1.5478 -1.9727 0.9453
-13.9145 0.3101 -1.9720 0.9453
-13.7500 -2.1621 -1.9722 0.9453
-12.7144 -5.7288 -1.9759 0.9452
-11.2555 -6.3322 -1.8298 0.9492
13.0179 -4.1977 -1.9380 0.9462
14.6771 -1.9739 -2.0983 0.9419
14.8005 -0.6600 -2.0992 0.9419
14.6838 1.9748 -2.0993 0.9419
13.6154 5.7734 -2.0954 0.9420
13.0331 6.9547 -2.0931 0.9421
12.3460 8.0763 -2.0903 0.9421
11.5602 9.1290 -2.0871 0.9422
10.6830 10.1039 -2.0834 0.9423
8.1745 11.0945 -1.9526 0.9458
7.0173 11.5520 -1.9151 0.9469
5.9469 12.1015 -1.9105 0.9470
-6.5457 11.3375 -1.8549 0.9485
-7.5108 10.6843 -1.8505 0.9486
-8.4129 9.9509 -1.8463 0.9487
-12.1867 6.8561 -1.9812 0.9451
-12.7313 5.7365 -1.9786 0.9451
-13.5190 3.3813 -1.9745 0.9453
-13.7569 2.1632 -1.9732 0.9453
-13.8887 0.9297 -1.9723 0.9453
-13.8312 -1.5472 -1.9720 0.9453
-13.3483 -3.9782 -1.9735 0.9453
-12.2758 -6.2032 -1.9488 0.9459
-10.9692 -6.8317 -1.8310 0.9491
-10.3322 -7.7919 -1.8336 0.9491
14.5702 -2.6249 -2.0977 0.9419
12.6363 1.1292 -2.0900 0.9499
12.4831 2.2489 -2.0896 0.9499
12.2283 3.3497 -2.0887 0.9499
11.8742 4.4220 -2.0874 0.9499
7.9006 9.7787 -2.0710 0.9503
5.6851 10.3740 -1.9488 0.9532
4.6310 10.5914 -1.9043 0.9542
3.6618 10.9372 -1.9001 0.9543
1.6569 11.3604 -1.8913 0.9545
-1.3933 11.3129 -1.8778 0.9548
-3.3612 10.8354 -1.8689 0.9551
-4.3024 10.4693 -1.8647 0.9552
-7.4070 9.5975 -1.9972 0.9520
-8.2402 8.9092 -1.9992 0.9520
-8.9847 8.1262 -1.9957 0.9521
-9.6569 7.2827 -1.9926 0.9521
-10.2521 6.3851 -1.9897 0.9522
-11.1956 4.4558 -1.9851 0.9523
-11.5375 3.4386 -1.9833 0.9524
-11.9504 1.3369 -1.9810 0.9524
-12.0186 0.2678 -1.9804 0.9524
-11.9938 -0.8029 -1.9803 0.9524
-11.6671 -2.9181 -1.9812 0.9524
-11.3673 -3.9471 -1.9823 0.9524
-9.2031 -6.3176 -1.8390 0.9558
-8.6156 -7.1210 -1.8414 0.9557
11.0660 -4.6924 -1.9801 0.9524
12.0526 -3.8865 -2.0862 0.9500
11.6608 4.9446 -2.0866 0.9499
8.3358 9.4254 -2.0729 0.9503
6.4013 10.5380 -2.0312 0.9512
4.1500 10.7753 -1.9022 0.9543
2.1638 11.2886 -1.8935 0.9545
-0.8890 11.3773 -1.8800 0.9548
-1.8936 11.2262 -1.8755 0.9549
-3.8361 10.6626 -1.8668 0.9551
-4.7592 10.2558 -1.8626 0.9552
-7.8408 9.2742 -2.0007 0.9520
-9.3302 7.7116 -1.9941 0.9521
-9.9644 6.8402 -1.9911 0.9522
-10.9917 4.9526 -1.9861 0.9523
-11.3777 3.9508 -1.9841 0.9523
-11.6750 2.9201 -1.9826 0.9524
-11.8816 1.8683 -1.9814 0.9524
-11.9961 0.8030 -1.9806 0.9524
-11.9467 -1.3364 -1.9804 0.9524
-11.7831 -2.3950 -1.9808 0.9524
-11.1841 -4.4511 -1.9830 0.9524
-10.7526 -5.4335 -1.9847 0.9523
-9.9675 -6.2078 -1.9345 0.9535
-8.2958 -7.5031 -1.8427 0.9557
11.8223 -4.4026 -2.0783 0.9501
12.4766 -2.2478 -2.0885 0.9499
12.6330 -1.1289 -2.0894 0.9499
11.0811 -0.0000 -2.0828 0.9559
10.9039 1.9644 -2.0825 0.9559
10.6819 2.9261 -2.0817 0.9559
9.9810 4.7675 -2.0791 0.9560
8.9597 6.4488 -2.0749 0.9561
7.6542 7.9144 -2.0695 0.9562
6.9089 8.5512 -2.0663 0.9562
6.1102 9.1171 -2.0629 0.9563
-0.3346 10.0079 -1.8821 0.9601
-3.0147 9.7186 -1.9126 0.9594
-3.9890 9.7067 -1.9725 0.9582
-5.7549 9.0149 -2.0103 0.9574
-6.5229 8.4520 -2.0067 0.9575
-8.4851 6.3989 -1.9975 0.9577
-9.8415 3.9168 -1.9909 0.9578
-10.1432 3.0230 -1.9894 0.9578
-10.3657 2.1069 -1.9882 0.9579
-10.5679 0.2355 -1.9868 0.9579
-10.5463 -0.7060 -1.9867 0.9579
-9.9941 -3.4703 -1.9885 0.9579
-9.6519 -4.3489 -1.9898 0.9578
-8.7263 -5.9903 -1.9895 0.9578
-6.3590 -7.5214 -1.8513 0.9607
7.3920 -6.9913 -1.9124 0.9594
7.9968 -6.3150 -1.9152 0.9594
8.5386 -5.5857 -1.9178 0.9593
10.5300 -3.3955 -2.0796 0.9560
10.7977 -2.4464 -2.0810 0.9559
10.9780 -1.4764 -2.0820 0.9559
11.0705 0.4937 -2.0829 0.9559
10.8038 2.4478 -2.0822 0.9559
10.5382 3.3982 -2.0812 0.9559
10.1874 4.3198 -2.0799 0.9560
9.2433 6.0467 -2.0761 0.9560
8.6583 6.8374 -2.0737 0.9561
8.0049 7.5709 -2.0710 0.9561
7.2886 8.2414 -2.0679 0.9562
5.6931 9.3721 -2.0611 0.9564
2.8256 9.8818 -1.9318 0.9590
1.8950 9.8860 -1.8920 0.9599
1.0055 9.9947 -1.8881 0.9599
-0.7793 9.9726 -1.8802 0.9601
-2.5474 9.7232 -1.8893 0.9599
-3.4945 9.7131 -1.9402 0.9589
-4.4980 9.6929 -2.0085 0.9574
-5.3516 9.2693 -2.0118 0.9574
-6.1453 8.7417 -2.0085 0.9574
-9.2453 5.2013 -1.9939 0.9577
-10.0021 3.4731 -1.9901 0.9578
-10.2644 2.5673 -1.9887 0.9579
-10.5673 -0.2355 -1.9867 0.9579
-10.5047 -1.1751 -1.9868 0.9579
-8.9979 -5.6039 -1.9924 0.9578
-8.2328 -6.2086 -1.9381 0.9589
-6.0223 -7.8033 -1.8527 0.9607
6.3784 -7.8947 -1.9077 0.9595
7.7019 -6.6601 -1.9139 0.9594
8.2759 -5.9566 -1.9166 0.9593
9.9501 -4.7528 -2.0726 0.9561
10.3640 -3.8596 -2.0787 0.9560
10.6746 -2.9241 -2.0803 0.9560
9.8271 -0.0000 -2.0773 0.9606
9.6701 1.7421 -2.0770 0.9606
8.8533 4.2288 -2.0739 0.9607
7.9492 5.7215 -2.0703 0.9607
7.4002 6.3992 -2.0680 0.9608
6.1325 7.5903 -2.0627 0.9609
4.6754 8.5315 -2.0564 0.9610
3.0782 9.1942 -2.0495 0.9611
0.5353 9.6004 -2.0325 0.9615
-0.3207 9.5921 -2.0287 0.9615
-2.0126 9.3660 -2.0250 0.9616
-5.1238 8.0263 -2.0128 0.9618
-5.8087 7.5266 -2.0097 0.9619
-7.0312 6.3594 -2.0040 0.9620
-8.0283 5.0001 -1.9992 0.9621
-8.4332 4.2615 -1.9973 0.9621
-8.7716 3.4910 -1.9956 0.9621
-9.2402 1.8782 -1.9931 0.9622
-9.4211 0.2099 -1.9919 0.9622
-9.1448 -2.2873 -1.9926 0.9622
-8.9087 -3.0934 -1.9934 0.9622
-8.6031 -3.8764 -1.9946 0.9622
-8.2300 -4.6301 -1.9961 0.9621
-7.7922 -5.3490 -1.9978 0.9621
-7.2766 -6.0142 -1.9955 0.9621
-5.6645 -6.7000 -1.8546 0.9648
-5.0527 -7.1876 -1.8572 0.9647
-3.7098 -7.9944 -1.8629 0.9646
-2.9885 -8.3067 -1.8661 0.9646
4.6670 -7.6829 -1.9002 0.9639
8.6435 -4.6123 -2.0709 0.9607
9.3400 -3.0118 -2.0744 0.9607
9.5767 -2.1698 -2.0756 0.9606
9.7361 -1.3094 -2.0765 0.9606
9.8167 -0.4377 -2.0771 0.9606
9.8177 0.4378 -2.0773 0.9606
9.5815 2.1709 -2.0767 0.9606
7.1036 6.7185 -2.0668 0.9608
6.4690 7.3146 -2.0641 0.9609
5.7841 7.8503 -2.0612 0.9609
4.2872 8.7241 -2.0547 0.9610
0.1070 9.6049 -2.0304 0.9615
-2.4277 9.2663 -2.0248 0.9616
-4.7651 8.2533 -2.0145 0.9618
-6.1337 7.2549 -2.0082 0.9619
-7.3028 6.0360 -2.0027 0.9620
-7.8018 5.3557 -2.0003 0.9620
-8.6108 3.8798 -1.9964 0.9621
-9.3127 1.4644 -1.9927 0.9622
-9.4032 0.6295 -1.9921 0.9622
-9.0356 -2.6929 -1.9930 0.9622
-8.0190 -4.9943 -1.9969 0.9621
-4.7310 -7.4110 -1.8585 0.9647
-4.0589 -7.8148 -1.8614 0.9646
3.5920 -8.2152 -1.8953 0.9640
8.4168 -4.9853 -2.0678 0.9608
8.8446 -4.2247 -2.0719 0.9607
9.4679 -2.5935 -2.0751 0.9607
9.7863 -0.8745 -2.0769 0.9606
8.8195 0.0000 -2.0728 0.9644
8.7846 0.7850 -2.0728 0.9644
8.2580 3.0753 -2.0710 0.9644
7.5719 4.4849 -2.0683 0.9645
6.6445 5.7457 -2.0645 0.9645
6.1000 6.3073 -2.0622 0.9646
5.5077 6.8169 -2.0597 0.9646
4.8727 7.2705 -2.0570 0.9647
4.2003 7.6646 -2.0541 0.9647
1.2535 8.5944 -2.0413 0.9649
0.4827 8.6574 -2.0379 0.9650
-0.2893 8.6515 -2.0344 0.9651
-1.8125 8.4348 -2.0276 0.9652
-2.5519 8.2264 -2.0243 0.9652
-4.6131 7.2263 -2.0149 0.9654
-5.2306 6.7775 -2.0121 0.9654
-6.8102 5.1358 -2.0047 0.9656
-7.2330 4.5048 -2.0026 0.9656
-7.5985 3.8397 -2.0009 0.9656
-7.9041 3.1457 -1.9994 0.9656
-8.1476 2.4283 -1.9981 0.9657
-8.4420 0.9444 -1.9964 0.9657
-8.4909 0.1892 -1.9961 0.9657
-8.3903 -1.3193 -1.9961 0.9657
-8.2416 -2.0614 -1.9966 0.9657
-8.0285 -2.7878 -1.9974 0.9657
-7.7526 -3.4931 -1.9985 0.9657
-6.5700 -5.4302 -2.0032 0.9656
-5.2552 -6.2158 -1.9130 0.9671
-3.9615 -6.8615 -1.8621 0.9680
-3.3398 -7.1972 -1.8648 0.9679
-0.6221 -7.9606 -1.8766 0.9677
1.5108 -7.8817 -1.8861 0.9676
2.2100 -7.7288 -1.8892 0.9675
2.8938 -7.5137 -1.8923 0.9675
4.1932 -6.9030 -1.8982 0.9674
4.7980 -6.5119 -1.9010 0.9673
5.3659 -6.0674 -1.9036 0.9673
6.0889 -5.7588 -1.9697 0.9661
8.1041 -3.4364 -2.0688 0.9645
8.5955 -1.9475 -2.0713 0.9644
8.5993 1.9484 -2.0723 0.9644
8.1105 3.4392 -2.0705 0.9644
7.7672 4.1447 -2.0691 0.9645
7.3616 4.8157 -2.0675 0.9645
5.1952 7.0510 -2.0584 0.9647
4.5408 7.4752 -2.0556 0.9647
3.1342 8.1377 -2.0495 0.9648
2.3937 8.3711 -2.0463 0.9649
1.6364 8.5371 -2.0429 0.9649
-1.4362 8.5142 -2.0293 0.9651
-3.6169 7.7943 -2.0195 0.9653
-4.2898 7.4301 -2.0164 0.9654
-5.5236 6.5333 -2.0107 0.9655
-6.0754 6.0081 -2.0081 0.9655
-7.7589 3.4960 -2.0001 0.9656
-8.0337 2.7896 -1.9987 0.9657
-8.2455 2.0623 -1.9976 0.9657
-8.3929 1.3197 -1.9968 0.9657
-8.4747 0.5673 -1.9962 0.9657
-8.4905 -0.1892 -1.9960 0.9657
-8.4402 -0.9442 -1.9960 0.9657
-7.5917 -3.8362 -1.9991 0.9657
-6.8021 -5.1297 -2.0023 0.9656
-6.3248 -5.7204 -2.0043 0.9656
-5.7363 -6.2020 -1.9855 0.9659
-4.8310 -6.2597 -1.8584 0.9680
-3.6545 -7.0361 -1.8634 0.9679
-3.0182 -7.3443 -1.8661 0.9679
-2.3561 -7.5955 -1.8690 0.9679
-0.9753 -7.9184 -1.8751 0.9677
-0.2670 -7.9871 -1.8782 0.9677
3.2282 -7.3832 -1.8938 0.9674
6.5579 -5.6709 -2.0376 0.9650
7.1273 -5.1299 -2.0639 0.9646
8.6756 -1.5630 -2.0718 0.9644
8.7830 -0.7849 -2.0724 0.9644
7.9914 -0.0000 -2.0691 0.9675
7.7046 2.1105 -2.0683 0.9675
7.2016 3.4399 -2.0664 0.9676
6.4683 4.6556 -2.0635 0.9676
6.0229 5.2082 -2.0616 0.9676
5.5299 5.7178 -2.0595 0.9677
4.4183 6.5926 -2.0548 0.9677
3.1711 7.2525 -2.0494 0.9678
2.5095 7.4954 -2.0466 0.9679
-0.9590 7.7863 -2.0313 0.9681
-2.9687 7.2240 -2.0222 0.9682
-4.1910 6.5650 -2.0166 0.9683
-5.2754 5.7037 -2.0116 0.9684
-5.7557 5.2057 -2.0094 0.9684
-6.1899 4.6680 -2.0073 0.9685
-6.5747 4.0948 -2.0055 0.9685
-6.9075 3.4905 -2.0039 0.9685
-7.4076 2.2077 -2.0013 0.9686
-7.7205 0.1720 -1.9995 0.9686
-7.2996 -2.5347 -2.0007 0.9686
-7.0484 -3.1759 -2.0017 0.9686
-3.0341 -6.5382 -1.8663 0.9707
-2.4434 -6.7917 -1.8688 0.9706
-1.8319 -6.9921 -1.8715 0.9706
-1.2040 -7.1379 -1.8742 0.9705
-0.5648 -7.2276 -1.8771 0.9705
0.0809 -7.2602 -1.8799 0.9704
0.7279 -7.2352 -1.8828 0.9704
1.3710 -7.1526 -1.8857 0.9704
3.8031 -6.2607 -1.8967 0.9702
6.2446 -4.9313 -2.0602 0.9677
7.0329 -3.7529 -2.0640 0.9676
7.3445 -3.1143 -2.0655 0.9676
7.9179 -1.0649 -2.0685 0.9675
7.9837 0.3560 -2.0692 0.9675
7.7921 1.7654 -2.0686 0.9675
7.3498 3.1166 -2.0670 0.9676
6.6720 4.3646 -2.0643 0.9676
6.2518 4.9370 -2.0626 0.9676
2.1715 7.5942 -2.0451 0.9679
0.7883 7.8356 -2.0390 0.9680
-0.6116 7.8273 -2.0328 0.9681
-1.9837 7.5719 -2.0267 0.9682
-2.6459 7.3544 -2.0237 0.9682
-5.0191 5.9366 -2.0128 0.9684
-6.7478 3.7962 -2.0046 0.9685
-7.3039 2.5362 -2.0019 0.9686
-7.4969 1.8751 -2.0009 0.9686
-7.6311 1.1999 -2.0001 0.9686
-7.7202 -0.1720 -1.9994 0.9686
-7.5687 -1.5384 -1.9997 0.9686
-7.4038 -2.2066 -2.0003 0.9686
-5.7487 -5.1994 -2.0069 0.9685
-4.7307 -6.1298 -2.0048 0.9685
-3.9691 -6.2175 -1.9099 0.9700
-3.3201 -6.3924 -1.8650 0.9707
0.4045 -7.2549 -1.8813 0.9704
1.0503 -7.2011 -1.8842 0.9704
1.6896 -7.0898 -1.8871 0.9703
2.3174 -6.9216 -1.8899 0.9703
2.9285 -6.6977 -1.8927 0.9702
3.5180 -6.4195 -1.8954 0.9702
4.0809 -6.0892 -1.8979 0.9702
4.7903 -5.9290 -1.9736 0.9690
6.4613 -4.6506 -2.0612 0.9676
7.1959 -3.4372 -2.0648 0.9676
7.9585 -0.7112 -2.0688 0.9675
7.2981 0.0000 -2.0660 0.9701
7.2692 0.6496 -2.0661 0.9701
6.8344 2.5452 -2.0646 0.9701
6.5776 3.1419 -2.0636 0.9702
6.2681 3.7126 -2.0623 0.9702
5.9085 4.2527 -2.0609 0.9702
4.0374 6.0242 -2.0530 0.9703
2.8984 6.6287 -2.0481 0.9704
0.4006 7.1849 -2.0371 0.9705
-0.2401 7.1820 -2.0343 0.9706
-0.8772 7.1221 -2.0315 0.9706
-1.5055 7.0061 -2.0286 0.9706
-2.1202 6.8349 -2.0259 0.9707
-2.7165 6.6103 -2.0232 0.9707
-3.2898 6.3341 -2.0206 0.9708
-3.8358 6.0087 -2.0181 0.9708
-4.8294 5.2215 -2.0135 0.9709
-5.6675 4.2741 -2.0095 0.9709
-6.3255 3.1964 -2.0064 0.9710
-6.7842 2.0219 -2.0041 0.9710
-6.9345 1.4095 -2.0032 0.9710
-7.0304 0.7865 -2.0027 0.9710
-7.0713 0.1576 -2.0023 0.9710
-6.9875 -1.0987 -2.0024 0.9710
-6.6855 -2.3214 -2.0035 0.9710
-6.4552 -2.9086 -2.0043 0.9710
-6.1741 -3.4735 -2.0055 0.9710
-5.8443 -4.0119 -2.0068 0.9710
-5.4683 -4.5196 -2.0083 0.9709
-5.0487 -4.9928 -2.0101 0.9709
-4.5887 -5.4275 -2.0120 0.9709
-3.5496 -6.1481 -2.0097 0.9709
-2.8832 -6.2130 -1.9390 0.9719
-1.1016 -6.5304 -1.8748 0.9728
0.6657 -6.6169 -1.8827 0.9727
1.2537 -6.5405 -1.8853 0.9727
2.4001 -6.2316 -1.8904 0.9726
3.0021 -6.1090 -1.9270 0.9721
5.2762 -4.9902 -2.0559 0.9703
6.0887 -3.9831 -2.0597 0.9702
6.4241 -3.4280 -2.0614 0.9702
6.7083 -2.8446 -2.0628 0.9702
6.9388 -2.2375 -2.0639 0.9701
7.2910 0.3251 -2.0661 0.9701
7.1162 1.6123 -2.0656 0.9701
4.8120 5.4411 -2.0563 0.9703
3.7629 6.1945 -2.0518 0.9703
3.1928 6.4971 -2.0494 0.9704
2.5985 6.7470 -2.0468 0.9704
1.9851 6.9424 -2.0441 0.9704
1.3575 7.0820 -2.0414 0.9705
0.0801 7.1906 -2.0357 0.9705
-1.1927 7.0711 -2.0300 0.9706
-3.0063 6.4785 -2.0219 0.9707
-4.5945 5.4344 -2.0146 0.9708
-5.0545 4.9986 -2.0124 0.9709
-5.4740 4.5244 -2.0105 0.9709
-5.8498 4.0156 -2.0087 0.9709
-6.1791 3.4763 -2.0071 0.9710
-6.4595 2.9105 -2.0057 0.9710
-6.6891 2.3227 -2.0045 0.9710
-6.8661 1.7173 -2.0036 0.9710
-7.0578 0.4725 -2.0025 0.9710
-7.0711 -0.1576 -2.0023 0.9710
-6.3209 -3.1941 -2.0049 0.9710
-6.0152 -3.7463 -2.0061 0.9710
-5.6619 -4.2698 -2.0075 0.9709
-4.3446 -5.6294 -2.0131 0.9709
-3.8229 -5.9884 -2.0113 0.9709
-3.2229 -6.2053 -1.9795 0.9713
2.6834 -6.1371 -1.8962 0.9725
3.3298 -6.0761 -1.9615 0.9716
4.0169 -5.9936 -2.0426 0.9705
5.0460 -5.2176 -2.0548 0.9703
5.9027 -4.2485 -2.0588 0.9702
6.2627 -3.7094 -2.0606 0.9702
6.5728 -3.1395 -2.0621 0.9702
6.8304 -2.5436 -2.0634 0.9702
7.1796 -1.2935 -2.0652 0.9701
6.7086 -0.0000 -2.0634 0.9723
6.6017 1.1894 -2.0632 0.9723
6.4682 1.7718 -2.0628 0.9723
6.0469 2.8883 -2.0612 0.9723
5.4324 3.9100 -2.0587 0.9724
5.0590 4.3747 -2.0571 0.9724
3.7132 5.5405 -2.0514 0.9725
3.2019 5.8427 -2.0492 0.9725
2.6661 6.0976 -2.0469 0.9725
2.1103 6.3033 -2.0445 0.9726
1.5391 6.4582 -2.0420 0.9726
0.9569 6.5613 -2.0395 0.9726
-0.2210 6.6101 -2.0342 0.9727
-0.8074 6.5557 -2.0316 0.9727
-1.3859 6.4496 -2.0290 0.9728
-1.9520 6.2927 -2.0265 0.9728
-3.0295 5.8328 -2.0216 0.9729
-3.5326 5.5337 -2.0193 0.9729
-4.0068 5.1917 -2.0171 0.9729
-5.5467 3.4545 -2.0099 0.9730
-5.8282 2.9451 -2.0085 0.9730
-6.0637 2.4133 -2.0073 0.9731
-6.2514 1.8631 -2.0064 0.9731
-6.5164 0.1452 -2.0048 0.9731
-6.4391 -1.0125 -2.0049 0.9731
-6.1606 -2.1392 -2.0058 0.9731
-5.9481 -2.6801 -2.0067 0.9731
-5.6889 -3.2005 -2.0077 0.9731
-5.3847 -3.6964 -2.0089 0.9730
-5.0380 -4.1640 -2.0103 0.9730
-4.6511 -4.5995 -2.0120 0.9730
-2.2181 -6.1654 -2.0153 0.9730
-1.6263 -6.2077 -1.9738 0.9735
0.0693 -6.2195 -1.9131 0.9743
1.7642 -6.1698 -1.9738 0.9735
4.8520 -4.5890 -2.0541 0.9724
5.5983 -3.6623 -2.0576 0.9724
5.9063 -3.1517 -2.0591 0.9724
6.6472 -0.8940 -2.0629 0.9723
6.7021 0.2989 -2.0635 0.9723
6.5415 1.4821 -2.0630 0.9723
5.9107 3.1540 -2.0606 0.9724
5.2509 4.1466 -2.0579 0.9724
4.8571 4.5938 -2.0563 0.9724
2.9368 5.9762 -2.0481 0.9725
1.2491 6.5162 -2.0407 0.9726
0.6633 6.5932 -2.0382 0.9726
0.0737 6.6176 -2.0356 0.9727
-1.0979 6.5091 -2.0303 0.9728
-1.6708 6.3774 -2.0278 0.9728
-3.2844 5.6888 -2.0204 0.9729
-3.7735 5.3679 -2.0182 0.9729
-6.1636 2.1402 -2.0068 0.9731
-6.3269 1.5825 -2.0060 0.9731
-6.5039 0.4354 -2.0049 0.9731
-6.5162 -0.1452 -2.0047 0.9731
-5.8242 -2.9431 -2.0071 0.9731
-5.2165 -3.9340 -2.0096 0.9730
-4.8493 -4.3860 -2.0111 0.9730
-4.4435 -4.8042 -2.0128 0.9730
-4.0020 -5.1855 -2.0147 0.9730
-3.5281 -5.5266 -2.0167 0.9729
-3.0236 -5.8215 -2.0177 0.9729
-1.9242 -6.2030 -1.9976 0.9732
-1.3348 -6.2115 -1.9542 0.9738
-0.2080 -6.2199 -1.9142 0.9743
0.3466 -6.2159 -1.9148 0.9743
0.9052 -6.2067 -1.9292 0.9741
2.6533 -6.0683 -2.0371 0.9727
3.1922 -5.8250 -2.0430 0.9726
4.1907 -5.1869 -2.0510 0.9725
5.4275 -3.9065 -2.0568 0.9724
5.7581 -3.4105 -2.0584 0.9724
6.4656 -1.7711 -2.0619 0.9723
6.1762 0.5519 -2.0612 0.9742
6.1020 1.0993 -2.0610 0.9742
5.8074 2.1627 -2.0599 0.9742
5.0220 3.6146 -2.0568 0.9743
3.4336 5.1233 -2.0501 0.9743
2.9610 5.4032 -2.0481 0.9744
2.4658 5.6394 -2.0459 0.9744
1.9519 5.8301 -2.0437 0.9744
1.4237 5.9740 -2.0414 0.9744
0.8853 6.0700 -2.0390 0.9745
0.3411 6.1174 -2.0366 0.9745
-0.2045 6.1162 -2.0342 0.9745
-1.2826 5.9689 -2.0294 0.9746
-3.7098 4.8069 -2.0183 0.9747
-4.8353 3.6465 -2.0131 0.9748
-5.1369 3.1993 -2.0116 0.9748
-5.3979 2.7277 -2.0104 0.9748
-5.6162 2.2352 -2.0093 0.9748
-5.7903 1.7257 -2.0084 0.9749
-5.9189 1.2031 -2.0077 0.9749
-6.0239 -0.4032 -2.0069 0.9749
-5.9645 -0.9379 -2.0070 0.9749
-5.8584 -1.4653 -2.0073 0.9749
-5.7063 -1.9814 -2.0079 0.9749
-5.5093 -2.4824 -2.0086 0.9749
-4.3071 -4.2594 -2.0136 0.9748
-3.9141 -4.6296 -2.0152 0.9748
-2.5593 -5.5151 -2.0210 0.9747
-1.5425 -5.8876 -2.0231 0.9747
-0.4745 -6.0724 -2.0247 0.9747
0.0679 -6.0965 -2.0266 0.9746
1.1512 -6.0059 -2.0327 0.9746
1.6845 -5.8911 -2.0367 0.9745
2.2072 -5.7309 -2.0414 0.9744
2.7125 -5.5198 -2.0444 0.9744
3.1965 -5.2622 -2.0466 0.9744
4.4862 -4.2430 -2.0526 0.9743
4.8501 -3.8301 -2.0543 0.9743
5.4601 -2.9136 -2.0572 0.9743
5.7010 -2.4174 -2.0584 0.9742
6.1943 -0.2762 -2.0611 0.9742
6.1453 0.8265 -2.0611 0.9742
5.1797 3.3884 -2.0574 0.9742
4.8544 3.8335 -2.0561 0.9743
4.0914 4.6262 -2.0529 0.9743
3.6602 4.9676 -2.0511 0.9743
3.2004 5.2686 -2.0491 0.9744
2.7160 5.5269 -2.0470 0.9744
1.1555 6.0280 -2.0402 0.9745
0.6136 6.0998 -2.0378 0.9745
-2.0632 5.7347 -2.0259 0.9746
-6.0244 0.4033 -2.0070 0.9749
-6.0359 -0.1345 -2.0069 0.9749
-6.0001 -0.6712 -2.0069 0.9749
-5.3945 -2.7259 -2.0091 0.9748
-4.8312 -3.6434 -2.0114 0.9748
-4.4909 -4.0618 -2.0128 0.9748
-4.1148 -4.4488 -2.0144 0.9748
-3.7056 -4.8015 -2.0161 0.9748
-3.2666 -5.1170 -2.0180 0.9747
-2.3123 -5.6266 -2.0221 0.9747
-1.8033 -5.8133 -2.0232 0.9747
-1.2787 -5.9507 -2.0232 0.9747
3.4295 -5.1172 -2.0477 0.9744
4.2908 -4.4367 -2.0517 0.9743
4.6727 -4.0407 -2.0534 0.9743
5.3232 -3.1529 -2.0565 0.9743
5.5861 -2.6683 -2.0578 0.9742
5.9764 -1.6371 -2.0598 0.9742
6.1004 -1.0990 -2.0605 0.9742
6.1754 -0.5518 -2.0609 0.9742
5.7583 -0.0000 -2.0592 0.9758
5.5522 1.5209 -2.0587 0.9758
5.3933 2.0085 -2.0581 0.9758
2.7510 5.0200 -2.0471 0.9760
2.2910 5.2398 -2.0451 0.9760
1.8137 5.4174 -2.0430 0.9760
1.3230 5.5515 -2.0408 0.9760
-0.1901 5.6851 -2.0342 0.9761
-0.6946 5.6394 -2.0319 0.9762
-1.1924 5.5491 -2.0297 0.9762
-1.6798 5.4151 -2.0275 0.9762
-3.0414 4.7643 -2.0213 0.9763
-5.0215 2.5375 -2.0120 0.9764
-5.5832 0.6246 -2.0091 0.9764
-5.6159 0.1251 -2.0088 0.9764
-5.4505 -1.3632 -2.0092 0.9764
-4.9018 -2.7577 -2.0113 0.9764
-4.6393 -3.1847 -2.0123 0.9764
-4.0064 -3.9620 -2.0150 0.9763
-3.2456 -4.6169 -2.0182 0.9763
-1.9159 -5.3254 -2.0239 0.9762
-1.4358 -5.4805 -2.0260 0.9762
-0.4423 -5.6604 -2.0304 0.9762
2.0518 -5.3273 -2.0415 0.9760
2.9699 -4.8891 -2.0457 0.9760
4.1673 -3.9414 -2.0512 0.9759
5.2947 -2.2452 -2.0566 0.9759
5.4760 -1.7658 -2.0575 0.9759
5.6150 1.2722 -2.0589 0.9758
5.4782 1.7665 -2.0584 0.9758
5.2975 2.2463 -2.0577 0.9759
4.1711 3.9450 -2.0531 0.9759
2.9733 4.8947 -2.0480 0.9760
0.5703 5.6691 -2.0375 0.9761
0.0634 5.6911 -2.0353 0.9761
-0.4429 5.6678 -2.0330 0.9761
-0.9446 5.5998 -2.0308 0.9762
-1.9183 5.3320 -2.0264 0.9762
-3.2491 4.6219 -2.0203 0.9763
-3.6443 4.3105 -2.0185 0.9763
-4.3437 3.5902 -2.0152 0.9763
-5.1283 2.3107 -2.0115 0.9764
-5.5504 0.8728 -2.0093 0.9764
-5.6157 -0.1251 -2.0087 0.9764
-5.5824 -0.6245 -2.0088 0.9764
-5.2223 -2.0784 -2.0100 0.9764
-4.7753 -2.9741 -2.0118 0.9764
-3.4466 -4.4659 -2.0173 0.9763
-3.0380 -4.7590 -2.0191 0.9763
-2.6048 -5.0151 -2.0209 0.9763
-2.1502 -5.2322 -2.0229 0.9763
-1.1909 -5.5419 -2.0271 0.9762
0.8217 -5.6337 -2.0360 0.9761
1.8115 -5.4106 -2.0404 0.9761
2.7478 -5.0141 -2.0447 0.9760
3.1863 -4.7543 -2.0467 0.9760
3.9859 -4.1214 -2.0504 0.9759
4.3405 -3.7534 -2.0520 0.9759
4.6608 -3.3546 -2.0536 0.9759
4.9441 -2.9284 -2.0549 0.9759
5.1881 -2.4781 -2.0561 0.9759
5.3907 -2.0075 -2.0571 0.9759
5.5502 -1.5204 -2.0579 0.9758
5.6653 -1.0206 -2.0586 0.9758
5.7348 -0.5125 -2.0590 0.9758
5.3477 0.4779 -2.0575 0.9773
5.2835 0.9519 -2.0573 0.9773
5.1769 1.4181 -2.0570 0.9773
5.0288 1.8727 -2.0564 0.9773
4.8404 2.3121 -2.0557 0.9773
3.7208 3.8473 -2.0511 0.9773
1.6920 5.0538 -2.0424 0.9774
1.2343 5.1793 -2.0404 0.9775
0.7676 5.2633 -2.0383 0.9775
-0.1774 5.3051 -2.0341 0.9775
-2.4344 4.6870 -2.0240 0.9776
-2.8393 4.4477 -2.0221 0.9777
-3.2211 4.1737 -2.0204 0.9777
-4.1998 3.1672 -2.0158 0.9777
-4.4622 2.7791 -2.0145 0.9777
-4.6893 2.3696 -2.0134 0.9777
-5.1428 1.0453 -2.0111 0.9778
-5.2143 0.5833 -2.0107 0.9778
-5.2343 -0.3504 -2.0104 0.9778
-4.7866 -2.1568 -2.0119 0.9778
-4.3323 -2.9740 -2.0138 0.9777
-3.7409 -3.6995 -2.0162 0.9777
-1.7885 -4.9711 -2.0246 0.9776
-0.8805 -5.2197 -2.0285 0.9776
-0.4128 -5.2827 -2.0306 0.9776
0.0591 -5.3039 -2.0327 0.9775
0.5315 -5.2830 -2.0348 0.9775
1.9142 -4.9700 -2.0410 0.9774
2.3512 -4.7846 -2.0430 0.9774
3.1681 -4.2997 -2.0467 0.9774
3.5412 -4.0041 -2.0484 0.9774
3.8866 -3.6759 -2.0500 0.9773
4.7289 -2.5234 -2.0540 0.9773
4.9371 -2.0935 -2.0551 0.9773
5.1060 -1.6465 -2.0559 0.9773
5.3201 -0.7155 -2.0571 0.9773
5.3209 0.7156 -2.0574 0.9773
4.7316 2.5249 -2.0553 0.9773
4.4859 2.9346 -2.0543 0.9773
3.8899 3.6790 -2.0518 0.9773
3.1712 4.3040 -2.0488 0.9774
1.4645 5.1217 -2.0414 0.9774
1.0018 5.2265 -2.0393 0.9775
-0.8815 5.2260 -2.0310 0.9776
-1.3418 5.1216 -2.0289 0.9776
-1.7905 4.9769 -2.0269 0.9776
-2.2242 4.7931 -2.0249 0.9776
-2.6395 4.5718 -2.0230 0.9776
-3.0333 4.3149 -2.0212 0.9777
-3.4024 4.0244 -2.0195 0.9777
-3.7441 3.7027 -2.0179 0.9777
-4.3353 2.9760 -2.0151 0.9777
-4.5803 2.5768 -2.0140 0.9777
-4.9599 1.7223 -2.0121 0.9778
-5.0918 1.2736 -2.0114 0.9778
-5.2347 0.3504 -2.0105 0.9778
-5.2447 -0.1169 -2.0104 0.9778
-5.2136 -0.5832 -2.0104 0.9778
-4.8771 -1.9410 -2.0116 0.9778
-4.6867 -2.3683 -2.0123 0.9778
-4.1967 -3.1649 -2.0143 0.9777
-3.9007 -3.5280 -2.0155 0.9777
-3.2180 -4.1696 -2.0184 0.9777
-2.4317 -4.6819 -2.0218 0.9777
-2.0072 -4.8842 -2.0236 0.9776
-1.5660 -5.0483 -2.0255 0.9776
-1.1115 -5.1727 -2.0275 0.9776
-0.6474 -5.2564 -2.0296 0.9776
1.2328 -5.1730 -2.0379 0.9775
1.6900 -5.0479 -2.0400 0.9775
2.5632 -4.6773 -2.0439 0.9774
3.3579 -4.1561 -2.0476 0.9774
4.6105 -2.7308 -2.0535 0.9773
4.8378 -2.3108 -2.0546 0.9773
5.1752 -1.4176 -2.0563 0.9773
5.0035 0.4471 -2.0560 0.9785
4.9435 0.8906 -2.0558 0.9785
4.8438 1.3269 -2.0555 0.9785
4.7053 1.7523 -2.0550 0.9785
4.0701 2.9295 -2.0524 0.9786
3.4821 3.6004 -2.0500 0.9786
3.1456 3.8933 -2.0485 0.9786
2.4017 4.3826 -2.0454 0.9786
2.0004 4.5751 -2.0436 0.9787
1.5839 4.7308 -2.0418 0.9787
1.1555 4.8485 -2.0399 0.9787
-0.1661 4.9672 -2.0341 0.9787
-0.6069 4.9280 -2.0321 0.9788
-1.4683 4.7333 -2.0283 0.9788
-3.0173 3.9096 -2.0212 0.9789
-3.3507 3.6228 -2.0197 0.9789
-4.1806 2.6037 -2.0157 0.9789
-4.5717 1.8195 -2.0138 0.9790
-4.7138 1.4049 -2.0131 0.9790
-2.1365 0.4343 -0.8923 0.9906
-2.1285 0.0474 -0.8714 0.9908
-2.1308 -0.5329 -0.8989 0.9906
-4.6456 -1.6131 -2.0127 0.9790
-4.4849 -2.0208 -2.0133 0.9790
-4.0590 -2.7863 -2.0150 0.9789
-3.7969 -3.1382 -2.0161 0.9789
-2.4699 -4.2779 -2.0217 0.9789
-1.6751 -4.6560 -2.0251 0.9788
-1.2552 -4.7909 -2.0270 0.9788
0.4976 -4.9465 -2.0347 0.9787
0.9368 -4.8873 -2.0367 0.9787
2.2009 -4.4787 -2.0424 0.9787
2.5930 -4.2687 -2.0442 0.9786
3.3142 -3.7474 -2.0475 0.9786
3.9317 -3.1048 -2.0504 0.9786
4.1950 -2.7442 -2.0516 0.9786
4.4250 -2.3612 -2.0527 0.9786
4.6197 -1.9589 -2.0537 0.9785
4.7776 -1.5406 -2.0545 0.9785
4.8973 -1.1096 -2.0551 0.9785
5.0182 -0.2238 -2.0559 0.9785
4.9785 0.6695 -2.0559 0.9785
4.6218 1.9598 -2.0546 0.9785
4.4274 2.3625 -2.0539 0.9785
4.1976 2.7460 -2.0529 0.9786
3.9345 3.1071 -2.0519 0.9786
2.9679 4.0281 -2.0478 0.9786
1.7938 4.6576 -2.0427 0.9787
1.3709 4.7944 -2.0409 0.9787
0.0554 4.9721 -2.0351 0.9787
-0.8255 4.8937 -2.0312 0.9788
-2.4723 4.2822 -2.0237 0.9789
-3.7997 3.1405 -2.0176 0.9789
-4.0616 2.7882 -2.0163 0.9789
-4.2913 2.4143 -2.0152 0.9789
-4.6473 1.6137 -2.0134 0.9790
-2.1345 0.3356 -0.8843 0.9907
-2.1302 0.1426 -0.8738 0.9908
-2.1261 -0.2378 -0.8756 0.9908
-2.1365 -0.4343 -0.8923 0.9906
-4.3913 -2.2190 -2.0137 0.9790
-3.3479 -3.6197 -2.0180 0.9789
-3.0145 -3.9060 -2.0194 0.9789
-2.6569 -4.1620 -2.0209 0.9789
-2.2778 -4.3855 -2.0225 0.9789
-1.4667 -4.7281 -2.0260 0.9788
-0.1659 -4.9615 -2.0318 0.9788
0.2766 -4.9614 -2.0337 0.9788
0.7178 -4.9218 -2.0357 0.9787
1.9983 -4.5702 -2.0415 0.9787
2.7818 -4.1507 -2.0450 0.9786
3.4791 -3.5974 -2.0483 0.9786
4.0673 -2.9275 -2.0510 0.9786
4.5269 -2.1623 -2.0532 0.9786
4.7034 -1.7516 -2.0541 0.9785
4.9424 -0.8904 -2.0554 0.9785
4.7143 -0.0000 -2.0546 0.9796
4.6956 0.4196 -2.0546 0.9796
4.6393 0.8358 -2.0544 0.9796
4.5458 1.2452 -2.0541 0.9796
4.0515 2.3997 -2.0522 0.9797
2.9527 3.6546 -2.0476 0.9797
2.6139 3.9002 -2.0462 0.9797
1.8780 4.2951 -2.0430 0.9798
1.4870 4.4416 -2.0413 0.9798
1.0849 4.5524 -2.0396 0.9798
0.6748 4.6268 -2.0378 0.9798
-0.5700 4.6281 -2.0322 0.9799
-0.9788 4.5549 -2.0304 0.9799
-1.3791 4.4457 -2.0286 0.9799
-1.7678 4.3016 -2.0268 0.9799
-2.1418 4.1237 -2.0251 0.9799
-2.4983 3.9136 -2.0235 0.9799
-3.6968 2.7879 -2.0179 0.9800
-4.1283 2.0861 -2.0158 0.9800
-1.8741 0.5585 -0.8523 0.9915
-1.9433 0.2174 -0.8522 0.9915
-1.9479 -0.1304 -0.8508 0.9915
-2.9918 -3.5387 -2.0196 0.9800
-2.3203 -4.0188 -2.0224 0.9800
-1.9549 -4.2127 -2.0240 0.9799
-1.5735 -4.3735 -2.0257 0.9799
-1.1790 -4.5000 -2.0274 0.9799
-0.7744 -4.5911 -2.0292 0.9799
-0.3630 -4.6460 -2.0310 0.9799
0.0520 -4.6640 -2.0328 0.9799
0.4673 -4.6451 -2.0346 0.9798
0.8797 -4.5892 -2.0365 0.9798
1.2858 -4.4968 -2.0383 0.9798
2.0663 -4.2048 -2.0418 0.9798
2.4344 -4.0075 -2.0435 0.9797
2.7836 -3.7779 -2.0451 0.9797
3.9374 -2.5757 -2.0505 0.9797
4.7097 0.2100 -2.0546 0.9796
2.7860 3.7812 -2.0469 0.9797
2.4366 4.0112 -2.0454 0.9797
2.0683 4.2089 -2.0438 0.9797
1.6841 4.3727 -2.0422 0.9798
0.4678 4.6502 -2.0368 0.9798
0.0520 4.6691 -2.0350 0.9798
-0.3634 4.6510 -2.0332 0.9798
-1.1802 4.5047 -2.0295 0.9799
-2.3224 4.0226 -2.0243 0.9799
-2.6692 3.7969 -2.0227 0.9800
-3.2953 3.2588 -2.0198 0.9800
-3.8163 2.6197 -2.0174 0.9800
-4.0322 2.2685 -2.0163 0.9800
-4.2162 1.8997 -2.0154 0.9800
-1.8290 0.6351 -0.8438 0.9916
-1.9397 0.3050 -0.8557 0.9915
-1.9470 -0.0434 -0.8487 0.9915
-1.9433 -0.2174 -0.8522 0.9915
-1.9300 -0.3923 -0.8583 0.9914
-4.2941 -1.7090 -2.0142 0.9800
-3.9259 -2.4451 -2.0157 0.9800
-3.6944 -2.7861 -2.0166 0.9800
-3.1455 -3.4009 -2.0189 0.9800
-1.7660 -4.2973 -2.0248 0.9799
-1.3777 -4.4411 -2.0265 0.9799
-0.9777 -4.5500 -2.0283 0.9799
-0.5694 -4.6231 -2.0301 0.9799
0.2598 -4.6592 -2.0337 0.9798
0.6741 -4.6218 -2.0356 0.9798
1.0837 -4.5475 -2.0374 0.9798
1.4855 -4.4370 -2.0392 0.9798
1.8761 -4.2909 -2.0410 0.9798
2.2525 -4.1103 -2.0427 0.9798
2.6115 -3.8966 -2.0443 0.9797
2.9502 -3.6515 -2.0459 0.9797
3.2658 -3.3769 -2.0474 0.9797
3.5558 -3.0748 -2.0487 0.9797
3.8177 -2.7478 -2.0500 0.9797
4.5445 -1.2449 -2.0535 0.9797
4.6384 -0.8356 -2.0540 0.9796
4.4360 -0.0000 -2.0533 0.9806
4.3654 0.7865 -2.0532 0.9806
4.2775 1.1717 -2.0529 0.9806
3.9999 1.9106 -2.0519 0.9807
3.0759 3.1805 -2.0481 0.9807
2.4601 3.6708 -2.0454 0.9807
2.1221 3.8724 -2.0440 0.9807
1.7677 4.0429 -2.0425 0.9807
1.0213 4.2854 -2.0392 0.9808
0.6353 4.3557 -2.0375 0.9808
-0.1468 4.3918 -2.0341 0.9808
-0.9216 4.2889 -2.0306 0.9808
-1.6647 4.0509 -2.0272 0.9809
-2.0171 3.8835 -2.0256 0.9809
-2.3529 3.6858 -2.0241 0.9809
-2.6697 3.4593 -2.0226 0.9809
-2.9650 3.2057 -2.0213 0.9809
-3.4822 2.6261 -2.0188 0.9810
-3.7002 2.3045 -2.0178 0.9810
-3.8889 1.9651 -2.0169 0.9810
-1.5257 0.6072 -0.7601 0.9928
-1.6165 -0.4043 -0.7713 0.9927
-1.5621 -0.5424 -0.7654 0.9927
-3.5927 -2.4663 -2.0172 0.9810
-3.3606 -2.7776 -2.0181 0.9810
-3.1017 -3.0673 -2.0192 0.9810
-1.8411 -3.9674 -2.0246 0.9809
-1.4818 -4.1187 -2.0261 0.9809
-1.1102 -4.2377 -2.0277 0.9809
-0.7292 -4.3232 -2.0294 0.9809
0.4400 -4.3734 -2.0346 0.9808
0.8282 -4.3205 -2.0363 0.9808
1.2105 -4.2333 -2.0380 0.9808
1.5837 -4.1121 -2.0397 0.9808
1.9450 -3.9580 -2.0414 0.9807
2.2914 -3.7721 -2.0429 0.9807
3.2132 -3.0390 -2.0472 0.9807
3.9082 -2.0855 -2.0505 0.9807
4.2193 -1.3605 -2.0521 0.9806
4.3957 -0.5912 -2.0530 0.9806
4.4314 -0.1976 -2.0533 0.9806
4.4316 0.1976 -2.0534 0.9806
4.3258 0.9801 -2.0531 0.9806
4.0817 1.7308 -2.0522 0.9806
3.9101 2.0865 -2.0515 0.9807
3.7074 2.4253 -2.0507 0.9807
2.6221 3.5587 -2.0461 0.9807
2.2934 3.7754 -2.0447 0.9807
1.9468 3.9616 -2.0432 0.9807
0.4404 4.3778 -2.0367 0.9808
0.0490 4.3959 -2.0349 0.9808
-0.3422 4.3791 -2.0332 0.9808
-1.1113 4.2418 -2.0297 0.9809
-1.4832 4.1227 -2.0281 0.9809
-1.8428 3.9711 -2.0264 0.9809
-2.1872 3.7884 -2.0249 0.9809
-2.8202 3.3357 -2.0219 0.9809
-3.1039 3.0695 -2.0206 0.9809
-3.3627 2.7794 -2.0194 0.9810
-3.9718 1.7896 -2.0165 0.9810
-1.6165 0.4043 -0.7713 0.9927
-1.6521 0.2598 -0.7741 0.9927
-1.6738 0.1120 -0.7765 0.9926
-1.6716 -0.0373 -0.7739 0.9927
-1.6675 -0.1865 -0.7767 0.9926
-1.6373 -0.3328 -0.7734 0.9927
-1.5924 -0.4746 -0.7692 0.9927
-3.8871 -1.9642 -2.0160 0.9810
-3.6982 -2.3033 -2.0167 0.9810
-3.2343 -2.9253 -2.0186 0.9810
-2.9628 -3.2033 -2.0198 0.9810
-2.3509 -3.6826 -2.0224 0.9809
-1.2974 -4.1823 -2.0269 0.9809
-0.9207 -4.2846 -2.0286 0.9809
-0.5362 -4.3532 -2.0303 0.9809
0.2446 -4.3867 -2.0337 0.9808
1.0203 -4.2812 -2.0372 0.9808
1.3984 -4.1769 -2.0389 0.9808
1.7661 -4.0391 -2.0405 0.9808
3.5927 -2.5859 -2.0490 0.9807
3.9981 -1.9097 -2.0510 0.9807
4.1538 -1.5469 -2.0517 0.9807
4.2763 -1.1714 -2.0524 0.9806
4.0343 1.1051 -2.0518 0.9815
3.9191 1.4595 -2.0514 0.9815
2.6214 3.2445 -2.0461 0.9816
2.3208 3.4628 -2.0448 0.9816
1.6677 3.8142 -2.0420 0.9816
1.3206 3.9446 -2.0405 0.9816
0.9636 4.0433 -2.0389 0.9817
0.5994 4.1098 -2.0373 0.9817
0.2310 4.1436 -2.0357 0.9817
-0.5065 4.1122 -2.0324 0.9817
-1.2256 3.9510 -2.0292 0.9817
-1.5712 3.8233 -2.0276 0.9818
-1.9038 3.6655 -2.0261 0.9818
-2.2209 3.4791 -2.0246 0.9818
-2.5201 3.2654 -2.0233 0.9818
-2.7989 3.0261 -2.0220 0.9818
-3.6715 1.8553 -2.0178 0.9818
-1.3059 0.5197 -0.6895 0.9938
-1.3047 0.2652 -0.6531 0.9941
-1.3419 0.1501 -0.6624 0.9940
-1.3536 0.0302 -0.6641 0.9940
-1.3513 -0.0905 -0.6643 0.9940
-1.3257 -0.2085 -0.6583 0.9940
-1.3149 -0.3289 -0.6649 0.9940
-1.2865 -0.5797 -0.6922 0.9937
-3.3919 -2.3284 -2.0181 0.9818
-2.6602 -3.1465 -2.0211 0.9818
-2.0628 -3.5728 -2.0237 0.9818
-1.7378 -3.7448 -2.0251 0.9818
-1.3986 -3.8875 -2.0265 0.9818
-1.0478 -3.9995 -2.0281 0.9817
-0.6882 -4.0801 -2.0297 0.9817
-0.3226 -4.1284 -2.0313 0.9817
0.4152 -4.1269 -2.0345 0.9817
0.7815 -4.0768 -2.0362 0.9817
1.1421 -3.9942 -2.0378 0.9817
1.4943 -3.8798 -2.0394 0.9816
1.8350 -3.7342 -2.0409 0.9816
2.4716 -3.3544 -2.0438 0.9816
3.2760 -2.5870 -2.0476 0.9816
3.4950 -2.2863 -2.0486 0.9816
4.1796 0.1864 -2.0523 0.9815
3.6880 1.9680 -2.0505 0.9815
3.4969 2.2875 -2.0497 0.9816
3.0330 2.8686 -2.0478 0.9816
2.7641 3.1255 -2.0467 0.9816
1.8366 3.7374 -2.0427 0.9816
1.1432 3.9979 -2.0397 0.9816
0.7822 4.0807 -2.0381 0.9817
-0.3229 4.1324 -2.0332 0.9817
-0.6889 4.0840 -2.0316 0.9817
-1.3999 3.8910 -2.0284 0.9817
-2.3729 3.3755 -2.0239 0.9818
-2.6622 3.1488 -2.0226 0.9818
-3.1745 2.6238 -2.0202 0.9818
-3.5859 2.0174 -2.0182 0.9818
-1.2865 0.5797 -0.6922 0.9937
-1.3171 0.4573 -0.6839 0.9938
-1.3047 -0.2652 -0.6531 0.9941
-1.3200 -0.3934 -0.6756 0.9939
-1.3059 -0.5197 -0.6895 0.9938
-3.2855 -2.4777 -2.0185 0.9818
-3.0534 -2.7616 -2.0195 0.9818
-2.7969 -3.0240 -2.0205 0.9818
-2.5182 -3.2628 -2.0217 0.9818
-1.9022 -3.6624 -2.0244 0.9818
-1.5698 -3.8199 -2.0258 0.9818
-1.2245 -3.9474 -2.0273 0.9818
-0.1384 -4.1404 -2.0321 0.9817
0.2308 -4.1396 -2.0337 0.9817
0.5988 -4.1059 -2.0354 0.9817
0.9627 -4.0396 -2.0370 0.9817
1.3194 -3.9409 -2.0386 0.9817
2.3189 -3.4600 -2.0431 0.9816
2.6194 -3.2421 -2.0445 0.9816
2.8994 -2.9980 -2.0458 0.9816
3.1566 -2.7296 -2.0470 0.9816
3.3889 -2.4391 -2.0481 0.9816
4.0333 -1.1048 -2.0513 0.9815
4.1668 -0.3723 -2.0521 0.9815
3.9539 -0.0000 -2.0512 0.9823
3.8127 1.0444 -2.0508 0.9823
3.5655 1.7031 -2.0499 0.9824
3.3987 2.0130 -2.0492 0.9824
3.2048 2.3067 -2.0484 0.9824
2.9854 2.5816 -2.0475 0.9824
1.8925 3.4533 -2.0429 0.9824
0.9110 3.8226 -2.0386 0.9824
0.2184 3.9177 -2.0356 0.9825
-0.4789 3.8884 -2.0325 0.9825
-0.8225 3.8274 -2.0309 0.9825
-1.1590 3.7363 -2.0294 0.9825
-1.4859 3.6156 -2.0279 0.9825
-1.8005 3.4666 -2.0265 0.9826
-2.1005 3.2904 -2.0251 0.9826
-1.0665 0.5390 -0.6199 0.9946
-1.1266 0.3358 -0.6099 0.9947
-1.1785 0.0263 -0.6115 0.9947
-1.1739 -0.0786 -0.6103 0.9947
-1.1517 -0.1811 -0.6048 0.9948
-3.3905 -1.9075 -2.0182 0.9826
-3.2085 -2.2025 -2.0189 0.9826
-3.0010 -2.4803 -2.0198 0.9826
-2.7696 -2.7389 -2.0207 0.9826
-2.2426 -3.1901 -2.0230 0.9826
-1.9509 -3.3791 -2.0242 0.9826
-1.6435 -3.5417 -2.0255 0.9826
-1.3227 -3.6764 -2.0269 0.9825
-0.9909 -3.7823 -2.0284 0.9825
-0.3051 -3.9038 -2.0314 0.9825
0.0437 -3.9184 -2.0329 0.9825
0.7388 -3.8545 -2.0360 0.9825
1.4127 -3.6679 -2.0391 0.9824
2.0435 -3.3640 -2.0419 0.9824
2.6109 -2.9522 -2.0446 0.9824
2.8649 -2.7096 -2.0457 0.9824
3.0964 -2.4452 -2.0468 0.9824
3.4840 -1.8591 -2.0487 0.9824
3.7610 -1.2128 -2.0501 0.9824
3.9186 0.5270 -2.0512 0.9823
3.6383 1.5428 -2.0502 0.9823
3.4855 1.8599 -2.0496 0.9824
2.8667 2.7114 -2.0470 0.9824
2.6127 2.9542 -2.0460 0.9824
2.3380 3.1732 -2.0448 0.9824
2.0451 3.3667 -2.0435 0.9824
0.3929 3.9055 -2.0363 0.9825
0.0437 3.9220 -2.0348 0.9825
-0.3053 3.9074 -2.0332 0.9825
-0.6514 3.8617 -2.0317 0.9825
-0.9918 3.7856 -2.0302 0.9825
-1.3238 3.6796 -2.0287 0.9825
-1.9525 3.3818 -2.0258 0.9826
-2.2442 3.1925 -2.0245 0.9826
-2.5179 2.9782 -2.0232 0.9826
-2.7714 2.7407 -2.0220 0.9826
-3.0027 2.4818 -2.0209 0.9826
-3.2101 2.2036 -2.0199 0.9826
-3.3920 1.9083 -2.0191 0.9826
-1.0898 0.4910 -0.6201 0.9946
-1.1275 0.2820 -0.6029 0.9948
-1.1649 -0.1303 -0.6081 0.9947
-1.1070 -0.4406 -0.6181 0.9946
-2.8882 -2.6122 -2.0202 0.9826
-2.6455 -2.8603 -2.0213 0.9826
-2.0989 -3.2878 -2.0236 0.9826
-1.4846 -3.6126 -2.0262 0.9826
-0.1309 -3.9150 -2.0322 0.9825
0.2182 -3.9141 -2.0337 0.9825
0.5662 -3.8821 -2.0353 0.9825
0.9102 -3.8192 -2.0368 0.9825
1.2474 -3.7258 -2.0383 0.9825
2.1920 -3.2707 -2.0426 0.9824
2.4760 -3.0646 -2.0439 0.9824
2.7406 -2.8338 -2.0452 0.9824
3.2030 -2.3054 -2.0473 0.9824
3.3971 -2.0121 -2.0483 0.9824
3.5641 -1.7024 -2.0491 0.9824
3.7027 -1.3789 -2.0498 0.9824
3.8904 -0.7009 -2.0508 0.9823
2.0429 0.0000 -1.1189 0.9907
2.0356 0.1819 -1.1193 0.9907
2.0036 0.3610 -1.1150 0.9908
3.3758 1.6125 -2.0490 0.9831
3.2179 1.9059 -2.0484 0.9831
2.8267 2.4444 -2.0468 0.9831
2.5967 2.6850 -2.0458 0.9831
1.7921 3.2702 -2.0424 0.9831
1.4930 3.4145 -2.0411 0.9831
0.8628 3.6202 -2.0383 0.9832
-0.1241 3.7116 -2.0340 0.9832
-1.0979 3.5394 -2.0296 0.9832
-1.4076 3.4252 -2.0282 0.9833
-2.2582 2.9260 -2.0243 0.9833
-2.7382 2.4765 -2.0221 0.9833
-1.0415 0.0232 -0.5706 0.9953
-1.0166 -0.1599 -0.5637 0.9953
-0.9756 -0.3388 -0.5656 0.9953
-0.9240 -0.5198 -0.5806 0.9952
-2.8435 -2.3502 -2.0205 0.9833
-2.6242 -2.5951 -2.0214 0.9833
-2.3840 -2.8198 -2.0224 0.9833
-2.1247 -3.0225 -2.0235 0.9833
-1.5570 -3.3554 -2.0260 0.9833
-0.9387 -3.5830 -2.0287 0.9832
-0.6165 -3.6549 -2.0301 0.9832
-0.2890 -3.6979 -2.0315 0.9832
1.3379 -3.4737 -2.0388 0.9832
1.6428 -3.3431 -2.0402 0.9832
2.4723 -2.7955 -2.0440 0.9831
2.7128 -2.5657 -2.0451 0.9831
2.9319 -2.3153 -2.0461 0.9831
3.1277 -2.0461 -2.0471 0.9831
3.2988 -1.7603 -2.0479 0.9831
1.9407 -0.8229 -1.1546 0.9904
1.9895 -0.6415 -1.1449 0.9905
2.0434 0.0911 -1.1203 0.9907
1.9895 0.6415 -1.1449 0.9905
3.3001 1.7610 -2.0487 0.9831
2.9335 2.3165 -2.0472 0.9831
2.7144 2.5673 -2.0463 0.9831
2.4739 2.7973 -2.0453 0.9831
0.0414 3.7148 -2.0347 0.9832
-0.2892 3.7010 -2.0333 0.9832
-0.6170 3.6580 -2.0318 0.9832
-0.9395 3.5860 -2.0303 0.9832
-1.2541 3.4857 -2.0289 0.9832
-1.5583 3.3580 -2.0275 0.9833
-2.3856 2.8217 -2.0238 0.9833
-2.6258 2.5967 -2.0226 0.9833
-2.8451 2.3515 -2.0216 0.9833
-3.0417 2.0880 -2.0207 0.9833
-0.9756 0.3387 -0.5656 0.9953
-0.9847 0.2463 -0.5559 0.9954
-1.0166 0.1599 -0.5637 0.9953
-1.0415 -0.0232 -0.5706 0.9953
-1.0000 -0.2033 -0.5589 0.9954
-0.9825 -0.2928 -0.5615 0.9953
-2.9448 -2.2208 -2.0201 0.9833
-2.7366 -2.4751 -2.0209 0.9833
-2.5066 -2.7101 -2.0219 0.9833
-1.9886 -3.1150 -2.0241 0.9833
-1.4065 -3.4225 -2.0266 0.9833
-1.0970 -3.5364 -2.0280 0.9833
-0.7784 -3.6225 -2.0294 0.9832
-0.4532 -3.6800 -2.0308 0.9832
0.2067 -3.7074 -2.0337 0.9832
1.1814 -3.5286 -2.0381 0.9832
1.7907 -3.2677 -2.0408 0.9831
2.3446 -2.9020 -2.0434 0.9831
3.0328 -2.1829 -2.0466 0.9831
3.3745 -1.6119 -2.0483 0.9831
1.9715 -0.7342 -1.1522 0.9905
2.0004 -0.5479 -1.1360 0.9906
2.0356 -0.1819 -1.1193 0.9907
1.8754 0.0000 -1.0828 0.9914
1.8700 0.1671 -1.0839 0.9914
1.8267 0.5004 -1.0935 0.9913
1.7869 0.6655 -1.1009 0.9912
1.7194 0.8213 -1.1001 0.9912
3.0515 1.8074 -2.0476 0.9838
2.8775 2.0711 -2.0469 0.9838
2.6807 2.3181 -2.0461 0.9838
2.4626 2.5463 -2.0452 0.9838
2.2251 2.7541 -2.0442 0.9838
1.9701 2.9396 -2.0431 0.9838
1.1215 3.3497 -2.0394 0.9838
0.8183 3.4340 -2.0381 0.9838
0.5091 3.4908 -2.0368 0.9838
0.1963 3.5199 -2.0354 0.9838
-0.1177 3.5210 -2.0340 0.9839
-0.7391 3.4396 -2.0312 0.9839
-1.0416 3.3579 -2.0298 0.9839
-1.6184 3.1160 -2.0272 0.9839
-1.8882 2.9578 -2.0260 0.9839
-2.3800 2.5733 -2.0237 0.9839
-2.7959 2.1085 -2.0218 0.9840
-0.8932 0.3555 -0.5550 0.9956
-0.9120 0.1854 -0.5373 0.9957
-0.9237 0.1033 -0.5366 0.9957
-0.9306 0.0207 -0.5374 0.9957
-0.9274 -0.0621 -0.5366 0.9957
-0.8984 -0.3119 -0.5490 0.9956
-2.6984 -2.2303 -2.0212 0.9840
-2.4902 -2.4626 -2.0220 0.9840
-2.0161 -2.8680 -2.0240 0.9839
-1.7539 -3.0377 -2.0252 0.9839
-1.4774 -3.1837 -2.0264 0.9839
1.5582 -3.1709 -2.0398 0.9838
2.3447 -2.6512 -2.0434 0.9838
2.9661 -1.9404 -2.0464 0.9838
1.6861 -0.8997 -1.1034 0.9912
1.8108 -0.5839 -1.0985 0.9913
1.8592 0.2500 -1.0831 0.9914
1.8316 0.4150 -1.0843 0.9914
1.7564 0.7448 -1.1014 0.9912
1.6860 0.8997 -1.1034 0.9912
2.9675 1.9412 -2.0473 0.9838
2.0997 2.8497 -2.0437 0.9838
1.5594 3.1733 -2.0413 0.9838
1.2700 3.2974 -2.0401 0.9838
0.6643 3.4658 -2.0374 0.9838
-1.1898 3.3071 -2.0292 0.9839
-1.4785 3.1860 -2.0279 0.9839
-1.7551 3.0399 -2.0266 0.9839
-2.6998 2.2314 -2.0222 0.9840
-0.9030 0.2259 -0.5374 0.9957
-0.9012 -0.2686 -0.5429 0.9957
-0.8760 -0.4426 -0.5667 0.9955
-0.8491 -0.5288 -0.5776 0.9954
-2.7945 -2.1074 -2.0208 0.9840
-2.5969 -2.3487 -2.0216 0.9840
-2.3786 -2.5717 -2.0225 0.9840
-2.1413 -2.7746 -2.0235 0.9839
-1.8869 -2.9558 -2.0246 0.9839
-1.6173 -3.1138 -2.0258 0.9839
-1.3345 -3.2473 -2.0270 0.9839
-1.0408 -3.3553 -2.0283 0.9839
-0.7385 -3.4369 -2.0296 0.9839
-0.4300 -3.4913 -2.0309 0.9839
-0.1176 -3.5181 -2.0323 0.9839
0.1961 -3.5170 -2.0337 0.9839
0.8177 -3.4312 -2.0365 0.9838
1.9688 -2.9376 -2.0417 0.9838
2.4612 -2.5448 -2.0440 0.9838
3.0502 -1.8066 -2.0468 0.9838
1.7194 -0.8213 -1.1001 0.9912
1.7869 -0.6654 -1.1009 0.9912
1.8267 -0.5004 -1.0935 0.9913
