ply
format ascii 1.0
element vertex 477
property float32 x
property float32 y
property float32 z
property float32 I
end_header
18.7427 1.6749 -5.7878 0.9243
18.1488 4.9715 -5.7878 0.9243
17.6343 6.5671 -5.7878 0.9243
15.2727 10.9927 -5.7878 0.9243
11.5145 14.2516 -5.6354 0.9262
-16.7949 8.4868 -5.7878 0.9243
-18.8127 0.4192 -5.7878 0.9243
-18.5890 -2.9230 -5.7878 0.9243
-18.2551 -4.5659 -5.7878 0.9243
18.6495 2.5081 -5.7878 0.9243
17.3243 7.3461 -5.7878 0.9243
15.7473 10.3014 -5.7878 0.9243
13.6713 12.9302 -5.7878 0.9243
-15.1053 10.3692 -5.6354 0.9262
-16.4001 9.2266 -5.7878 0.9243
-17.1563 7.7302 -5.7878 0.9243
-17.7762 6.1726 -5.7878 0.9243
-18.2551 4.5659 -5.7878 0.9243
-18.7754 1.2569 -5.7878 0.9243
-18.8127 -0.4192 -5.7878 0.9243
-18.4403 -3.7481 -5.7878 0.9243
-18.0335 -5.3746 -5.7878 0.9243
-17.0233 -6.7751 -5.6354 0.9262
18.0316 -3.2486 -5.6354 0.9262
17.3428 1.5498 -5.7878 0.9292
15.7116 7.5048 -5.7878 0.9292
14.1320 10.1716 -5.7878 0.9292
-12.5736 11.3721 -5.6354 0.9310
-13.5359 10.2079 -5.6354 0.9310
-17.0630 3.4682 -5.7878 0.9292
-17.3040 1.9358 -5.7878 0.9292
-17.3731 -1.1630 -5.7878 0.9292
-17.2006 -2.7047 -5.7878 0.9292
-16.8916 -4.2249 -5.7878 0.9292
-16.4485 -5.7115 -5.7878 0.9292
16.1353 -5.2030 -5.6354 0.9310
16.5344 -3.7462 -5.6354 0.9310
17.2373 -2.3182 -5.7813 0.9293
17.3947 -0.7756 -5.7878 0.9292
16.5717 5.3437 -5.7878 0.9292
15.3617 8.1972 -5.7878 0.9292
13.6649 10.7911 -5.7878 0.9292
-13.0677 10.8007 -5.6354 0.9310
-15.8749 7.1529 -5.7878 0.9292
-16.4485 5.7115 -5.7878 0.9292
-16.8916 4.2249 -5.7878 0.9292
-17.4076 -0.3879 -5.7878 0.9292
-17.3040 -1.9357 -5.7878 0.9292
-15.7518 -6.2691 -5.6354 0.9310
16.1206 1.4405 -5.7878 0.9336
15.9284 2.8696 -5.7878 0.9336
12.2424 10.5864 -5.7878 0.9336
11.2516 11.6341 -5.7878 0.9336
-15.0377 5.9849 -5.7878 0.9336
-15.5107 4.6227 -5.7878 0.9336
-15.8606 3.2238 -5.7878 0.9336
-16.0846 1.7993 -5.7878 0.9336
-16.1809 0.3606 -5.7878 0.9336
-15.9884 -2.5141 -5.7878 0.9336
-13.7344 -7.7268 -5.6354 0.9352
16.0405 -2.1572 -5.7878 0.9336
16.1688 -0.7210 -5.7878 0.9336
16.1688 0.7210 -5.7878 0.9336
15.7848 3.5764 -5.7878 0.9336
15.4038 4.9671 -5.7878 0.9336
14.9006 6.3184 -5.7878 0.9336
13.5442 8.8602 -5.7878 0.9336
11.7587 11.1213 -5.7878 0.9336
10.7054 12.1048 -5.7788 0.9337
-12.1468 10.0396 -5.6354 0.9352
-13.3435 9.1598 -5.7878 0.9336
-14.1058 7.9358 -5.7878 0.9336
-15.2894 5.3090 -5.7878 0.9336
-15.7012 3.9271 -5.7878 0.9336
-16.1487 1.0810 -5.7878 0.9336
-15.8606 -3.2238 -5.7878 0.9336
-15.5107 -4.6227 -5.7878 0.9336
-14.0650 -7.1073 -5.6354 0.9352
14.7679 -5.4996 -5.6354 0.9352
15.1988 -4.1634 -5.6354 0.9352
15.9124 -2.8668 -5.7820 0.9336
16.1206 -1.4406 -5.7878 0.9336
15.1032 0.0000 -5.7878 0.9374
15.0433 1.3443 -5.7878 0.9374
14.1536 5.2709 -5.7878 0.9374
13.6283 6.5097 -5.7878 0.9374
12.9948 7.6969 -5.7878 0.9374
12.2582 8.8229 -5.7878 0.9374
11.4243 9.8789 -5.7878 0.9374
9.3020 11.5132 -5.6721 0.9386
8.1870 12.2158 -5.6354 0.9389
-10.9064 9.8643 -5.6354 0.9389
-12.8201 7.9845 -5.7878 0.9374
-13.4799 6.8117 -5.7878 0.9374
-14.0327 5.5849 -5.7878 0.9374
-14.4741 4.3137 -5.7878 0.9374
-15.0695 -1.0088 -5.7878 0.9374
-14.9199 -2.3460 -5.7878 0.9374
-14.6519 -3.6647 -5.7878 0.9374
-14.2676 -4.9542 -5.7878 0.9374
-12.8165 -7.2104 -5.6354 0.9389
-12.1239 -8.3226 -5.6354 0.9389
13.5387 -5.7409 -5.6354 0.9389
13.9959 -4.5131 -5.6354 0.9389
14.7156 -3.3341 -5.7822 0.9374
14.9685 2.0131 -5.7878 0.9374
14.7299 3.3374 -5.7878 0.9374
14.3744 4.6351 -5.7878 0.9374
13.9048 5.8961 -5.7878 0.9374
13.3248 7.1103 -5.7878 0.9374
12.6391 8.2681 -5.7878 0.9374
10.0051 11.3130 -5.7876 0.9374
8.7230 11.8390 -5.6354 0.9389
7.6347 12.5684 -5.6354 0.9389
-12.4517 8.5476 -5.7878 0.9374
-13.7700 6.2044 -5.7878 0.9374
-14.2676 4.9542 -5.7878 0.9374
-14.9199 2.3460 -5.7878 0.9374
-15.0695 1.0088 -5.7878 0.9374
-14.8006 -3.0083 -5.7878 0.9374
-14.0327 -5.5849 -5.7878 0.9374
-13.1250 -6.6323 -5.6354 0.9389
14.1830 -3.8851 -5.6354 0.9389
14.8639 -2.6779 -5.7878 0.9374
15.0433 -1.3443 -5.7878 0.9374
14.1417 0.0000 -5.7878 0.9407
14.0855 1.2587 -5.7878 0.9407
13.9176 2.5074 -5.7878 0.9407
12.7607 6.0952 -5.7878 0.9407
12.1675 7.2068 -5.7878 0.9407
11.4778 8.2612 -5.7878 0.9407
9.8312 10.1654 -5.7878 0.9407
-7.4090 11.6060 -5.6354 0.9422
-8.4126 10.9005 -5.6354 0.9422
-9.3494 10.1085 -5.6354 0.9422
-12.0039 7.4761 -5.7878 0.9407
-12.6217 6.3780 -5.7878 0.9407
-13.1393 5.2293 -5.7878 0.9407
-13.5526 4.0391 -5.7878 0.9407
-2.1285 0.0474 -0.8714 0.9908
-2.1302 -0.1426 -0.8738 0.9908
-12.8911 -5.8084 -5.7868 0.9407
-12.0005 -6.7514 -5.6354 0.9422
-11.3520 -7.7927 -5.6354 0.9422
12.1480 -6.4824 -5.6354 0.9422
12.6767 -5.3754 -5.6354 0.9422
13.1048 -4.2258 -5.6354 0.9422
13.7921 -3.1249 -5.7878 0.9407
14.0155 -1.8849 -5.7878 0.9407
14.1276 0.6300 -5.7878 0.9407
14.0155 1.8849 -5.7878 0.9407
13.4592 4.3400 -5.7878 0.9407
11.8344 7.7417 -5.7878 0.9407
10.2743 9.7173 -5.7878 0.9407
9.3686 10.5932 -5.7878 0.9407
8.1791 11.1008 -5.6433 0.9421
7.1486 11.7682 -5.6354 0.9422
-7.9187 11.2645 -5.6354 0.9422
-9.8312 9.7223 -5.6589 0.9420
-12.3251 6.9340 -5.7878 0.9407
-12.8933 5.8094 -5.7878 0.9407
-13.3592 4.6388 -5.7878 0.9407
-2.1261 -0.2378 -0.8756 0.9908
-13.1393 -5.2293 -5.7878 0.9407
-12.3166 -6.2238 -5.6479 0.9421
-11.6879 -7.2793 -5.6354 0.9422
12.4247 -5.9348 -5.6354 0.9422
13.6261 -3.7326 -5.7823 0.9408
13.9176 -2.5074 -5.7878 0.9407
14.0855 -1.2587 -5.7878 0.9407
13.2804 0.0000 -5.7878 0.9437
13.2277 1.1820 -5.7878 0.9437
13.0700 2.3547 -5.7878 0.9437
12.8086 3.5086 -5.7878 0.9437
11.9835 5.7240 -5.7878 0.9437
10.7788 7.7581 -5.7878 0.9437
8.3461 10.3301 -5.7878 0.9437
6.2143 11.3396 -5.6354 0.9451
5.1803 11.8477 -5.6354 0.9451
-8.9748 9.7034 -5.7604 0.9440
-9.8495 8.9083 -5.7878 0.9437
-11.8530 5.9896 -5.7878 0.9437
-1.8741 0.5585 -0.8523 0.9915
-1.9470 0.0434 -0.8487 0.9915
-1.9479 -0.1304 -0.8508 0.9915
-12.1081 -5.4556 -5.7878 0.9437
-11.2697 -6.3402 -5.6354 0.9451
11.4081 -6.0876 -5.6354 0.9451
13.2672 0.5916 -5.7878 0.9437
13.1619 1.7701 -5.7878 0.9437
12.6395 4.0757 -5.7878 0.9437
11.7166 6.2522 -5.7878 0.9437
11.1137 7.2702 -5.7878 0.9437
9.6485 9.1255 -5.7878 0.9437
6.7133 11.0515 -5.6354 0.9451
4.6474 12.0667 -5.6354 0.9451
-5.4430 11.7293 -5.6354 0.9451
-6.4654 11.1983 -5.6354 0.9451
-7.4364 10.5785 -5.6354 0.9451
-8.3484 9.8746 -5.6354 0.9451
-9.4405 9.3359 -5.7864 0.9437
-11.5744 6.5117 -5.7878 0.9437
-1.8290 0.6351 -0.8438 0.9916
-1.9470 -0.0434 -0.8487 0.9915
-1.9300 -0.3923 -0.8583 0.9914
-12.3391 -4.9108 -5.7878 0.9437
11.1256 -6.5897 -5.6354 0.9451
12.8086 -3.5086 -5.7878 0.9437
12.5038 0.0000 -5.7878 0.9464
12.4542 1.1129 -5.7878 0.9464
12.3057 2.2170 -5.7878 0.9464
12.0596 3.3035 -5.7878 0.9464
11.7177 4.3637 -5.7878 0.9464
10.7583 6.3722 -5.7878 0.9464
9.4580 8.1787 -5.7878 0.9464
7.8581 9.7261 -5.7878 0.9464
4.8774 11.1549 -5.6354 0.9478
3.8652 11.5447 -5.6354 0.9478
2.8223 11.8429 -5.6354 0.9478
-3.6070 11.6280 -5.6354 0.9478
-4.6277 11.2608 -5.6354 0.9478
-5.6116 10.8042 -5.6354 0.9478
-6.5509 10.2619 -5.6354 0.9478
-8.4902 9.1795 -5.7878 0.9464
-9.9832 7.5287 -5.7878 0.9464
-10.6137 6.6103 -5.7878 0.9464
-1.5924 0.4746 -0.7692 0.9927
-1.6675 0.1865 -0.7767 0.9926
-1.6716 0.0373 -0.7739 0.9927
-1.6521 -0.2598 -0.7741 0.9927
-10.0372 -6.8902 -5.6354 0.9478
-9.3841 -7.7562 -5.6354 0.9478
10.1882 -6.6649 -5.6354 0.9478
10.7410 -5.7316 -5.6354 0.9478
12.3923 -1.6666 -5.7878 0.9464
12.3923 1.6666 -5.7878 0.9464
12.1947 2.7630 -5.7878 0.9464
11.0315 5.8866 -5.7878 0.9464
6.4071 10.5474 -5.7124 0.9471
4.3756 11.3611 -5.6354 0.9478
3.3471 11.7054 -5.6354 0.9478
2.2920 11.9569 -5.6354 0.9478
-5.1247 11.0435 -5.6354 0.9478
-8.8906 8.7922 -5.7878 0.9464
-9.6379 7.9659 -5.7878 0.9464
-10.3087 7.0765 -5.7878 0.9464
-10.8976 6.1309 -5.7878 0.9464
-1.6165 0.4043 -0.7713 0.9927
-1.6737 0.1120 -0.7765 0.9926
-1.5924 -0.4746 -0.7692 0.9927
-1.5257 -0.6072 -0.7601 0.9928
-10.3342 -6.4362 -5.6354 0.9478
-9.0293 -8.1665 -5.6354 0.9478
11.7064 -4.3595 -5.7823 0.9464
12.0596 -3.3035 -5.7878 0.9464
12.3057 -2.2170 -5.7878 0.9464
11.7993 0.0000 -5.7878 0.9488
11.6123 2.0921 -5.7878 0.9488
11.0574 4.1178 -5.7878 0.9488
10.1521 6.0131 -5.7878 0.9488
9.5766 6.8928 -5.7878 0.9488
8.9251 7.7179 -5.7878 0.9488
7.4153 9.1780 -5.7878 0.9488
3.6474 10.8942 -5.6354 0.9501
2.6633 11.1756 -5.6354 0.9501
-1.4043 11.4025 -5.6354 0.9501
-2.4137 11.2322 -5.6354 0.9501
-3.4038 10.9728 -5.6354 0.9501
-4.3669 10.6263 -5.6354 0.9501
-5.2954 10.1954 -5.6354 0.9501
-7.2071 9.3386 -5.7863 0.9488
-8.0118 8.6623 -5.7878 0.9488
-9.4207 7.1045 -5.7878 0.9488
-10.0156 6.2378 -5.7878 0.9488
-10.5311 5.3216 -5.7878 0.9488
-1.3059 0.5197 -0.6895 0.9938
-1.3200 0.3934 -0.6756 0.9939
-1.3047 0.2652 -0.6531 0.9941
-1.3419 0.1501 -0.6624 0.9940
-1.3536 0.0302 -0.6641 0.9940
-1.3513 -0.0905 -0.6643 0.9940
-1.2865 -0.5797 -0.6922 0.9937
-9.4717 -6.5019 -5.6354 0.9501
-8.1688 -8.0783 -5.6354 0.9501
9.0163 -7.1201 -5.6354 0.9501
10.1358 -5.4086 -5.6354 0.9501
10.8527 -4.6020 -5.7823 0.9488
11.2299 -3.6212 -5.7878 0.9488
11.5076 -2.6073 -5.7878 0.9488
11.6940 -1.5727 -5.7878 0.9488
11.7876 -0.5256 -5.7878 0.9488
11.6940 1.5727 -5.7878 0.9488
11.5076 2.6073 -5.7878 0.9488
11.2299 3.6212 -5.7878 0.9488
9.8742 6.4594 -5.7878 0.9488
8.5725 8.1078 -5.7878 0.9488
7.8168 8.8386 -5.7878 0.9488
6.9991 9.4993 -5.7878 0.9488
6.1244 10.0821 -5.7864 0.9488
5.0669 10.3109 -5.6354 0.9501
0.1280 11.4879 -5.6354 0.9501
-0.8950 11.4537 -5.6354 0.9501
-1.9109 11.3286 -5.6354 0.9501
-3.8892 10.8103 -5.6354 0.9501
-6.7780 9.6418 -5.7812 0.9488
-7.6180 9.0106 -5.7878 0.9488
-9.7278 6.6778 -5.7878 0.9488
-1.3171 0.4573 -0.6839 0.9938
-1.3513 0.0905 -0.6643 0.9940
-1.3536 -0.0302 -0.6641 0.9940
-1.3419 -0.1501 -0.6624 0.9940
-1.3200 -0.3934 -0.6756 0.9939
-9.1726 -6.9174 -5.6354 0.9501
11.0574 -4.1178 -5.7878 0.9488
11.3801 -3.1173 -5.7878 0.9488
11.1124 0.9930 -5.7878 0.9510
10.7602 2.9475 -5.7878 0.9510
7.7560 8.0197 -5.7878 0.9510
7.0114 8.6781 -5.7878 0.9510
5.3617 9.7838 -5.7878 0.9510
0.6048 10.8460 -5.6354 0.9522
-0.3630 10.8568 -5.6354 0.9522
-1.3279 10.7814 -5.6354 0.9522
-2.2822 10.6204 -5.6354 0.9522
-3.2184 10.3752 -5.6354 0.9522
-5.0474 9.7181 -5.6810 0.9519
-6.0006 9.3997 -5.7853 0.9510
-8.9076 6.7175 -5.7878 0.9510
-1.0665 0.5389 -0.6199 0.9946
-1.1785 0.0263 -0.6115 0.9947
-1.1517 -0.1811 -0.6048 0.9948
-1.0898 -0.4910 -0.6201 0.9946
-8.3731 -6.9205 -5.6354 0.9522
-7.7239 -7.6383 -5.6354 0.9522
9.0905 -5.9468 -5.6354 0.9522
9.5838 -5.1141 -5.6354 0.9522
10.2714 -4.3554 -5.7878 0.9510
11.1456 -0.4970 -5.7878 0.9510
11.1456 0.4970 -5.7878 0.9510
10.8809 2.4653 -5.7878 0.9510
10.2714 4.3554 -5.7878 0.9510
9.8429 5.2523 -5.7878 0.9510
9.3364 6.1076 -5.7878 0.9510
7.3911 8.3572 -5.7878 0.9510
6.6179 8.9819 -5.7878 0.9510
5.7922 9.5353 -5.7878 0.9510
3.9042 10.1370 -5.6354 0.9522
-1.8068 10.7115 -5.6354 0.9522
-3.6774 10.2215 -5.6354 0.9522
-6.4161 9.1271 -5.7878 0.9510
-7.2030 8.5198 -5.7878 0.9510
-7.9328 7.8449 -5.7878 0.9510
-9.1980 6.3141 -5.7878 0.9510
-1.1275 0.2820 -0.6029 0.9948
-1.1517 0.1811 -0.6048 0.9948
-1.1785 -0.0263 -0.6115 0.9947
-1.1649 -0.1303 -0.6081 0.9947
-1.1266 -0.3358 -0.6099 0.9947
-1.0665 -0.5389 -0.6199 0.9946
-8.0565 -7.2866 -5.6354 0.9522
-7.3760 -7.9748 -5.6354 0.9522
9.3464 -5.5359 -5.6354 0.9522
10.0579 -4.8042 -5.7825 0.9510
10.4552 -3.8935 -5.7878 0.9510
2.0429 0.0000 -1.1189 0.9907
2.0356 0.1819 -1.1193 0.9907
2.0004 0.5480 -1.1360 0.9906
9.0923 5.3854 -5.7878 0.9529
8.5768 6.1732 -5.7878 0.9529
5.8832 8.7783 -5.7878 0.9529
2.3852 10.0089 -5.6354 0.9542
1.4849 10.1815 -5.6354 0.9542
0.5728 10.2732 -5.6354 0.9542
-0.3438 10.2835 -5.6354 0.9542
-2.1617 10.0596 -5.6354 0.9542
-5.6862 8.9072 -5.7878 0.9529
-6.4564 8.3658 -5.7878 0.9529
-8.9700 5.5866 -5.7878 0.9529
-0.9638 0.3836 -0.5681 0.9953
-1.0293 0.1151 -0.5673 0.9953
-1.0415 0.0232 -0.5706 0.9953
-1.0166 -0.1599 -0.5637 0.9953
-0.9847 -0.2463 -0.5559 0.9954
-0.9472 -0.4268 -0.5690 0.9953
-8.7065 -5.9766 -5.7840 0.9530
6.8164 -7.7074 -5.6354 0.9542
8.0750 -6.3767 -5.6354 0.9542
9.3149 -4.9706 -5.7827 0.9530
2.0041 -0.4541 -1.1255 0.9907
2.0226 -0.2720 -1.1178 0.9907
2.0434 -0.0911 -1.1203 0.9907
2.0041 0.4541 -1.1255 0.9907
8.8433 5.7850 -5.7878 0.9529
8.2933 6.5492 -5.7878 0.9529
7.6775 7.2613 -5.7878 0.9529
5.4863 9.0317 -5.7878 0.9529
2.8292 9.8942 -5.6363 0.9542
1.0299 10.2375 -5.6354 0.9542
0.1146 10.2886 -5.6354 0.9542
-0.8016 10.2579 -5.6354 0.9542
-1.7114 10.1459 -5.6354 0.9542
-2.6076 9.9533 -5.6354 0.9542
-7.5138 7.4306 -5.7878 0.9529
-8.1454 6.7323 -5.7878 0.9529
-0.9472 0.4268 -0.5690 0.9953
-0.9756 0.3388 -0.5656 0.9953
-1.0166 0.1599 -0.5637 0.9953
-1.0376 0.0695 -0.5696 0.9953
-1.0415 -0.0232 -0.5706 0.9953
-0.9638 -0.3836 -0.5681 0.9953
-0.9364 -0.4732 -0.5746 0.9952
-7.6310 -6.9018 -5.6354 0.9542
-6.9864 -7.5536 -5.6354 0.9542
-6.2864 -8.1455 -5.6354 0.9542
7.7829 -6.7301 -5.6354 0.9542
1.9714 -0.7342 -1.1522 0.9905
2.0004 -0.5480 -1.1360 0.9906
2.0356 -0.1819 -1.1193 0.9907
1.8700 0.1671 -1.0839 0.9914
1.8426 0.3320 -1.0810 0.9914
1.8267 0.5004 -1.0935 0.9913
8.6254 5.1088 -5.7878 0.9548
7.5829 6.5572 -5.7878 0.9548
6.9692 7.2061 -5.7878 0.9548
4.8177 8.7913 -5.7878 0.9548
4.0161 9.1852 -5.7878 0.9548
1.4231 9.7577 -5.6932 0.9555
0.5434 9.7457 -5.6354 0.9559
-0.3262 9.7554 -5.6354 0.9559
-1.1975 9.7227 -5.6558 0.9558
-3.8103 9.2718 -5.7875 0.9548
-6.1248 7.9362 -5.7878 0.9548
-8.0039 6.0361 -5.7878 0.9548
-0.8491 0.5288 -0.5776 0.9954
-0.8932 0.3555 -0.5550 0.9956
-0.9237 0.1033 -0.5366 0.9957
-0.9306 0.0207 -0.5374 0.9957
-0.9273 -0.0621 -0.5366 0.9957
-0.9189 -0.1445 -0.5370 0.9957
-0.8858 -0.3991 -0.5609 0.9955
-0.8638 -0.4859 -0.5722 0.9954
-8.2649 -5.6735 -5.7878 0.9548
-6.9403 -6.8634 -5.6354 0.9559
5.7899 -7.8582 -5.6354 0.9559
7.6603 -6.0493 -5.6354 0.9559
8.2290 -5.3832 -5.6773 0.9556
1.6861 -0.8997 -1.1034 0.9912
1.8316 -0.4150 -1.0843 0.9914
1.8755 -0.0836 -1.0839 0.9914
1.8755 0.0836 -1.0839 0.9914
1.8592 0.2500 -1.0831 0.9914
1.8316 0.4150 -1.0843 0.9914
8.3892 5.4880 -5.7878 0.9548
7.8675 6.2129 -5.7878 0.9548
7.2833 6.8885 -5.7878 0.9548
5.2046 8.5679 -5.7878 0.9548
4.4213 8.9971 -5.7878 0.9548
-1.6390 9.7165 -5.6891 0.9555
-3.3919 9.4280 -5.7848 0.9548
-4.2198 9.0934 -5.7878 0.9548
-5.0124 8.6818 -5.7878 0.9548
-6.4723 7.6555 -5.7878 0.9548
-7.1280 7.0490 -5.7878 0.9548
-7.7271 6.3866 -5.7878 0.9548
-8.2649 5.6735 -5.7878 0.9548
-0.8638 0.4860 -0.5722 0.9954
-0.8983 0.3119 -0.5490 0.9956
-0.9030 0.2259 -0.5374 0.9957
-0.9120 -0.1854 -0.5373 0.9957
-7.2392 -6.5474 -5.6354 0.9559
-5.9636 -7.7272 -5.6354 0.9559
-5.2522 -8.2273 -5.6354 0.9559
6.1342 -7.5925 -5.6354 0.9559
6.7857 -7.0163 -5.6354 0.9559
7.3832 -6.3845 -5.6354 0.9559
1.8426 -0.3320 -1.0810 0.9914
1.8700 -0.1671 -1.0839 0.9914
