ply
format ascii 1.0
element vertex 982
property float32 x
property float32 y
property float32 z
property float32 I
end_header
18.8754 0.0000 -3.5478 0.9261
18.5763 3.3467 -3.5478 0.9261
18.2047 4.9868 -3.5478 0.9261
17.0321 8.1355 -3.5478 0.9261
16.2404 9.6192 -3.5478 0.9261
-17.5375 6.9798 -3.5478 0.9261
-18.4972 3.7597 -3.5478 0.9261
-18.8707 0.4205 -3.5478 0.9261
-18.8332 -1.2607 -3.5478 0.9261
-18.6463 -2.9320 -3.5478 0.9261
-17.7944 -6.1789 -3.5406 0.9262
17.9034 -2.4078 -3.3954 0.9291
18.8566 -0.8408 -3.5478 0.9261
18.7070 2.5158 -3.5478 0.9261
17.3776 7.3687 -3.5478 0.9261
14.8134 11.6980 -3.5478 0.9261
11.9674 13.5318 -3.3954 0.9291
-14.8932 10.2236 -3.3954 0.9291
-16.4503 9.2548 -3.5478 0.9261
-17.2091 7.7541 -3.5478 0.9261
-18.3113 4.5800 -3.5478 0.9261
-18.8332 1.2607 -3.5478 0.9261
-18.8707 -0.4205 -3.5478 0.9261
-18.0891 -5.3911 -3.5478 0.9261
18.7156 -1.6724 -3.5318 0.9264
12.6957 10.9784 -3.5478 0.9337
10.0950 12.4947 -3.3954 0.9364
8.9428 13.3436 -3.3954 0.9364
-10.9070 11.7925 -3.3954 0.9364
-12.8933 9.7233 -3.4135 0.9361
-14.2469 8.8731 -3.5478 0.9337
-14.9802 7.5698 -3.5478 0.9337
-16.7800 0.3739 -3.5478 0.9337
-16.7467 -1.1211 -3.5478 0.9337
-16.2826 -4.0725 -3.5478 0.9337
-15.8555 -5.5056 -3.5478 0.9337
-14.6452 -6.5988 -3.3954 0.9364
15.2880 -4.9298 -3.3954 0.9364
16.6300 -2.2365 -3.5469 0.9337
16.7675 0.7477 -3.5478 0.9337
16.3693 3.7088 -3.5478 0.9337
15.9742 5.1510 -3.5478 0.9337
15.4523 6.5523 -3.5478 0.9337
13.1722 10.4020 -3.5478 0.9337
-11.4215 11.2949 -3.3954 0.9364
-13.8218 9.4881 -3.5438 0.9338
-14.6281 8.2296 -3.5478 0.9337
-15.8555 5.5056 -3.5478 0.9337
-16.5804 2.6071 -3.5478 0.9337
-16.7800 -0.3739 -3.5478 0.9337
-16.6801 -1.8659 -3.5478 0.9337
-16.4478 -3.3432 -3.5478 0.9337
-15.5614 -6.1933 -3.5403 0.9338
16.1258 -2.9052 -3.4635 0.9352
16.7175 -1.4939 -3.5478 0.9337
14.8565 2.6765 -3.5478 0.9399
13.6215 6.5064 -3.5478 0.9399
12.2521 8.8185 -3.5478 0.9399
10.4944 10.8511 -3.5478 0.9399
9.2916 11.5004 -3.4748 0.9411
6.9431 12.6695 -3.3954 0.9424
-9.8097 10.6062 -3.3954 0.9424
-10.7518 9.7244 -3.4072 0.9422
-12.8137 7.9805 -3.5478 0.9399
-13.4732 6.8083 -3.5478 0.9399
-14.0257 5.5821 -3.5478 0.9399
-14.7932 3.0069 -3.5478 0.9399
-14.6446 -3.6629 -3.5478 0.9399
-14.2604 -4.9517 -3.5478 0.9399
13.3008 -5.6400 -3.3954 0.9424
15.0807 0.6725 -3.5478 0.9399
14.7225 3.3357 -3.5478 0.9399
14.3672 4.6328 -3.5478 0.9399
13.8978 5.8932 -3.5478 0.9399
11.8471 9.3555 -3.5478 0.9399
10.9674 10.3729 -3.5478 0.9399
8.5698 11.6310 -3.3954 0.9424
7.5006 12.3476 -3.3954 0.9424
-8.3086 11.8191 -3.3954 0.9424
-9.3275 11.0327 -3.3954 0.9424
-10.2725 10.1587 -3.3954 0.9424
-11.6162 9.6010 -3.5419 0.9400
-12.4455 8.5434 -3.5478 0.9399
-13.1565 7.4017 -3.5478 0.9399
-13.7631 6.2014 -3.5478 0.9399
-14.6446 3.6629 -3.5478 0.9399
-14.9124 2.3449 -3.5478 0.9399
-15.0620 1.0083 -3.5478 0.9399
-15.0919 -0.3363 -3.5478 0.9399
-15.0021 -1.6782 -3.5478 0.9399
-14.7932 -3.0068 -3.5478 0.9399
-14.4669 -4.3116 -3.5478 0.9399
-12.8944 -6.5158 -3.3954 0.9424
-12.2633 -7.6376 -3.3954 0.9424
13.9339 -3.8169 -3.3954 0.9424
14.8565 -2.6765 -3.5478 0.9399
15.0358 -1.3436 -3.5478 0.9399
13.7025 0.0000 -3.5478 0.9450
13.6482 1.2196 -3.5478 0.9450
13.4854 2.4295 -3.5478 0.9450
12.8410 4.7820 -3.5478 0.9450
12.3644 5.9060 -3.5478 0.9450
10.3648 8.9628 -3.5478 0.9450
9.5259 9.8497 -3.5478 0.9450
7.3009 10.8937 -3.3954 0.9473
6.3023 11.5003 -3.3954 0.9473
5.2537 12.0156 -3.3954 0.9473
-6.0445 11.6378 -3.3954 0.9473
-8.0122 10.3817 -3.3954 0.9473
-8.9906 9.7205 -3.4283 0.9468
-10.9403 8.2504 -3.5478 0.9450
-11.6312 7.2440 -3.5478 0.9450
-12.7313 5.0669 -3.5478 0.9450
-13.4280 2.7294 -3.5478 0.9450
-13.6991 0.3053 -3.5478 0.9450
-13.6719 -0.9152 -3.5478 0.9450
-12.9444 -4.4948 -3.5478 0.9450
-11.4293 -6.4300 -3.3954 0.9473
-10.8117 -7.4218 -3.3954 0.9473
12.8404 -4.1405 -3.4932 0.9458
13.3638 -3.0278 -3.5478 0.9450
13.5803 -1.8264 -3.5478 0.9450
13.6889 0.6104 -3.5478 0.9450
13.3638 3.0278 -3.5478 0.9450
11.4669 7.5013 -3.5478 0.9450
9.9552 9.4156 -3.5478 0.9450
9.0777 10.2643 -3.5478 0.9450
8.1121 11.0098 -3.5409 0.9451
-6.5570 11.3570 -3.3954 0.9473
-11.9423 6.7186 -3.5478 0.9450
-12.4929 5.6290 -3.5478 0.9450
-13.2931 3.3248 -3.5478 0.9450
-13.4280 -2.7293 -3.5478 0.9450
-11.1316 -6.9328 -3.3954 0.9473
11.2832 -6.6831 -3.3954 0.9473
11.8333 -5.6523 -3.3954 0.9473
12.2894 -4.5766 -3.3954 0.9473
13.2106 -3.6188 -3.5465 0.9450
13.4854 -2.4295 -3.5478 0.9450
12.5324 0.0000 -3.5478 0.9492
12.4827 1.1155 -3.5478 0.9492
12.0871 3.3110 -3.5478 0.9492
10.1716 7.3211 -3.5478 0.9492
7.8760 9.7483 -3.5478 0.9492
6.9714 10.4020 -3.5449 0.9493
4.8051 10.9895 -3.3954 0.9514
3.8079 11.3735 -3.3954 0.9514
1.7310 11.8685 -3.3954 0.9514
-2.5198 11.7264 -3.3954 0.9514
-7.4955 9.7122 -3.4730 0.9503
-8.5096 9.2004 -3.5478 0.9492
-9.2947 8.4065 -3.5478 0.9492
-12.0103 3.5795 -3.5478 0.9492
-12.2813 2.4963 -3.5478 0.9492
-12.5293 0.2792 -3.5478 0.9492
-12.3803 -1.9467 -3.5478 0.9492
-12.1579 -3.0409 -3.5478 0.9492
-11.8390 -4.1109 -3.5478 0.9492
-10.9025 -6.1336 -3.5413 0.9493
10.0372 -6.5660 -3.3954 0.9514
11.0773 -4.6972 -3.4062 0.9512
12.2226 -2.7693 -3.5478 0.9492
11.9276 3.8462 -3.5478 0.9492
9.1051 8.6115 -3.5478 0.9492
8.3025 9.3877 -3.5478 0.9492
7.4340 10.0894 -3.5478 0.9492
4.3108 11.1926 -3.3954 0.9514
2.2580 11.7796 -3.3954 0.9514
-4.0603 11.2859 -3.3954 0.9514
-5.0487 10.8797 -3.3954 0.9514
-5.9970 10.3871 -3.3954 0.9514
-6.8977 9.8122 -3.3954 0.9514
-9.6599 7.9842 -3.5478 0.9492
-10.3322 7.0927 -3.5478 0.9492
-10.9225 6.1449 -3.5478 0.9492
-11.4261 5.1483 -3.5478 0.9492
-12.1579 3.0409 -3.5478 0.9492
-12.3803 1.9467 -3.5478 0.9492
-12.5044 0.8371 -3.5478 0.9492
-12.4547 -1.3933 -3.5478 0.9492
-11.1854 -5.6522 -3.5478 0.9492
-9.5762 -7.2217 -3.3954 0.9514
-8.8954 -8.0454 -3.3954 0.9514
10.3197 -6.1124 -3.3954 0.9514
10.8228 -5.1696 -3.3954 0.9514
12.3338 -2.2221 -3.5478 0.9492
12.4827 -1.1155 -3.5478 0.9492
11.5347 0.0000 -3.5478 0.9529
11.4889 1.0267 -3.5478 0.9529
11.3520 2.0452 -3.5478 0.9529
11.1249 3.0474 -3.5478 0.9529
10.4083 4.9716 -3.5478 0.9529
9.9245 5.8783 -3.5478 0.9529
9.3619 6.7383 -3.5478 0.9529
8.0188 8.2914 -3.5478 0.9529
7.2490 8.9722 -3.5478 0.9529
6.4217 9.5818 -3.5478 0.9529
4.4269 10.1245 -3.3988 0.9548
0.6146 11.0221 -3.3954 0.9549
-2.3192 10.7929 -3.3954 0.9549
-4.1961 10.2106 -3.3954 0.9549
-5.0883 9.7966 -3.3954 0.9549
-7.0473 9.1315 -3.5478 0.9529
-10.2950 5.2023 -3.5478 0.9529
-10.7171 4.2653 -3.5478 0.9529
-11.4632 1.2824 -3.5478 0.9529
-11.5090 -0.7704 -3.5478 0.9529
-11.3947 -1.7917 -3.5478 0.9529
-11.1900 -2.7988 -3.5478 0.9529
-10.8965 -3.7837 -3.5478 0.9529
9.7394 -5.1971 -3.3954 0.9549
10.9781 -3.5400 -3.5478 0.9529
11.5233 0.5138 -3.5478 0.9529
11.2496 2.5488 -3.5478 0.9529
10.9781 3.5400 -3.5478 0.9529
10.1765 5.4303 -3.5478 0.9529
9.6528 6.3146 -3.5478 0.9529
9.0524 7.1486 -3.5478 0.9529
8.3802 7.9260 -3.5478 0.9529
5.9885 9.8584 -3.5478 0.9529
2.0782 10.8418 -3.3954 0.9549
-0.8600 11.0057 -3.3954 0.9549
-4.6468 10.0136 -3.3954 0.9549
-5.6097 9.7162 -3.4508 0.9541
-7.4471 8.8085 -3.5478 0.9529
-9.5097 6.5280 -3.5478 0.9529
-10.5165 4.7385 -3.5478 0.9529
-11.5090 0.7704 -3.5478 0.9529
-11.4632 -1.2823 -3.5478 0.9529
-10.2950 -5.2023 -3.5478 0.9529
-9.7752 -6.0881 -3.5421 0.9529
-8.1873 -7.4049 -3.3954 0.9549
8.9598 -6.4488 -3.3954 0.9549
9.4982 -5.6258 -3.3954 0.9549
11.1249 -3.0474 -3.5478 0.9529
11.4889 -1.0267 -3.5478 0.9529
10.6308 0.9500 -3.5478 0.9560
10.0021 3.7248 -3.5478 0.9560
9.6309 4.6003 -3.5478 0.9560
8.0733 6.9813 -3.5478 0.9560
6.7076 8.3021 -3.5478 0.9560
4.2727 9.7719 -3.5452 0.9560
2.3680 9.9365 -3.3954 0.9579
0.5687 10.1989 -3.3954 0.9579
-1.2486 10.1381 -3.3954 0.9579
-2.1460 9.9868 -3.3954 0.9579
-3.0264 9.7561 -3.3954 0.9579
-5.7430 8.9964 -3.5478 0.9560
-6.5210 8.4495 -3.5478 0.9560
-7.2472 7.8356 -3.5478 0.9560
-7.9158 7.1594 -3.5478 0.9560
-8.5216 6.4265 -3.5478 0.9560
-9.0598 5.6425 -3.5478 0.9560
-9.5260 4.8137 -3.5478 0.9560
-9.9167 3.9467 -3.5478 0.9560
-10.4593 2.1260 -3.5478 0.9560
-10.3542 -2.5898 -3.5478 0.9560
-10.0826 -3.5011 -3.5478 0.9560
-9.7310 -4.3846 -3.5478 0.9560
-6.5949 -7.8005 -3.3954 0.9579
6.7671 -7.6516 -3.3954 0.9579
8.0165 -6.3306 -3.3954 0.9579
9.8263 -4.1667 -3.5478 0.9560
10.1581 -3.2756 -3.5478 0.9560
10.6626 -0.4755 -3.5478 0.9560
10.6626 0.4755 -3.5478 0.9560
10.4094 2.3585 -3.5478 0.9560
10.1581 3.2756 -3.5478 0.9560
9.4164 5.0248 -3.5478 0.9560
8.9318 5.8429 -3.5478 0.9560
7.0708 7.9951 -3.5478 0.9560
5.5412 9.1221 -3.5478 0.9560
4.7073 9.5791 -3.5478 0.9560
3.8288 9.9411 -3.5411 0.9561
2.8264 9.8844 -3.4173 0.9576
1.9230 10.0321 -3.3954 0.9579
1.0224 10.1634 -3.3954 0.9579
0.1138 10.2141 -3.3954 0.9579
-0.7958 10.1837 -3.3954 0.9579
-1.6990 10.0724 -3.3954 0.9579
-6.1381 8.7316 -3.5478 0.9560
-7.5890 7.5049 -3.5478 0.9560
-8.2269 6.7997 -3.5478 0.9560
-8.7994 6.0405 -3.5478 0.9560
-9.3021 5.2333 -3.5478 0.9560
-9.7310 4.3846 -3.5478 0.9560
-10.3542 2.5898 -3.5478 0.9560
-10.5436 1.6579 -3.5478 0.9560
-10.6706 -0.2378 -3.5478 0.9560
-10.6070 -1.1866 -3.5478 0.9560
-10.4593 -2.1260 -3.5478 0.9560
-10.2286 -3.0484 -3.5478 0.9560
-9.9167 -3.9467 -3.5478 0.9560
-9.5260 -4.8137 -3.5478 0.9560
-9.0598 -5.6425 -3.5478 0.9560
-8.2468 -6.2192 -3.4334 0.9574
-7.5758 -6.8519 -3.3954 0.9579
-6.9359 -7.4990 -3.3954 0.9579
8.8612 -5.2485 -3.4234 0.9575
9.6302 -4.6000 -3.5476 0.9560
10.2940 -2.8198 -3.5478 0.9560
9.9210 0.0000 -3.5478 0.9587
9.8817 0.8830 -3.5478 0.9587
9.7638 1.7590 -3.5478 0.9587
9.5685 2.6211 -3.5478 0.9587
8.0522 5.7956 -3.5478 0.9587
5.5233 8.2413 -3.5478 0.9587
3.9746 9.0901 -3.5478 0.9587
3.1497 9.4078 -3.5478 0.9587
2.2968 9.6378 -3.5431 0.9588
-0.3247 9.7117 -3.4749 0.9596
-1.1956 9.7075 -3.4977 0.9593
-2.9363 9.4658 -3.5442 0.9588
-5.3383 8.3624 -3.5478 0.9587
-6.7364 7.2834 -3.5478 0.9587
-7.3579 6.6549 -3.5478 0.9587
-7.9211 5.9736 -3.5478 0.9587
-8.4213 5.2448 -3.5478 0.9587
-8.8547 4.4745 -3.5478 0.9587
-9.2178 3.6686 -3.5478 0.9587
-9.5078 2.8336 -3.5478 0.9587
-9.7222 1.9761 -3.5478 0.9587
-9.8989 -0.6627 -3.5478 0.9587
-9.6245 -2.4073 -3.5478 0.9587
-9.3721 -3.2543 -3.5478 0.9587
-9.0452 -4.0756 -3.5478 0.9587
-7.5129 -6.2096 -3.4856 0.9594
-6.7512 -6.6764 -3.3954 0.9605
-6.1301 -7.2508 -3.3954 0.9605
5.6322 -7.6440 -3.3954 0.9605
6.2902 -7.1124 -3.3954 0.9605
7.4516 -5.8844 -3.3954 0.9605
9.1338 -3.8731 -3.5478 0.9587
9.4423 -3.0447 -3.5478 0.9587
9.6758 -2.1923 -3.5478 0.9587
9.8325 -1.3224 -3.5478 0.9587
9.9112 -0.4419 -3.5478 0.9587
9.9112 0.4420 -3.5478 0.9587
9.8325 1.3223 -3.5478 0.9587
8.3024 5.4312 -3.5478 0.9587
7.2079 6.8172 -3.5478 0.9587
6.5725 7.4316 -3.5478 0.9587
5.8850 7.9871 -3.5478 0.9587
5.1507 8.4792 -3.5478 0.9587
4.3756 8.9040 -3.5478 0.9587
3.5657 9.2581 -3.5478 0.9587
2.7258 9.5326 -3.5456 0.9588
0.1082 9.7133 -3.4737 0.9596
-1.6368 9.7035 -3.5191 0.9591
-6.4053 7.5762 -3.5478 0.9587
-7.6471 6.3205 -3.5478 0.9587
-8.1793 5.6148 -3.5478 0.9587
-8.6466 4.8645 -3.5478 0.9587
-9.3721 3.2543 -3.5478 0.9587
-9.8006 1.5411 -3.5478 0.9587
-9.8989 0.6627 -3.5478 0.9587
-9.9186 -0.2210 -3.5478 0.9587
-9.8595 -1.1029 -3.5478 0.9587
-9.7222 -1.9761 -3.5478 0.9587
-9.2178 -3.6686 -3.5478 0.9587
-8.8547 -4.4745 -3.5478 0.9587
-8.4213 -5.2448 -3.5478 0.9587
-7.0419 -6.3690 -3.3954 0.9605
-6.4471 -6.9705 -3.3954 0.9605
-5.8011 -7.5167 -3.3954 0.9605
-5.1090 -8.0031 -3.3954 0.9605
6.6007 -6.8251 -3.3954 0.9605
7.7063 -5.5467 -3.3954 0.9605
9.2973 -3.4623 -3.5478 0.9587
9.8816 -0.8830 -3.5478 0.9587
9.2580 0.0000 -3.5478 0.9611
8.6759 3.2309 -3.5478 0.9611
7.9656 4.7180 -3.5478 0.9611
7.5141 5.4083 -3.5478 0.9611
7.0029 6.0556 -3.5478 0.9611
4.4492 8.1188 -3.5478 0.9611
3.7089 8.4826 -3.5478 0.9611
2.9392 8.7790 -3.5478 0.9611
1.3361 9.1611 -3.5478 0.9611
0.5154 9.2436 -3.5478 0.9611
-0.3094 9.2527 -3.5478 0.9611
-1.1317 9.1886 -3.5478 0.9611
-2.7429 8.8423 -3.5478 0.9611
-4.2672 8.2159 -3.5478 0.9611
-4.9816 7.8035 -3.5478 0.9611
-5.6563 7.3291 -3.5478 0.9611
-6.8662 6.2101 -3.5478 0.9611
-7.8585 4.8943 -3.5478 0.9611
-8.2629 4.1754 -3.5478 0.9611
-8.6018 3.4234 -3.5478 0.9611
-8.8723 2.6442 -3.5478 0.9611
-9.0725 1.8441 -3.5478 0.9611
-9.2557 0.2063 -3.5478 0.9611
-8.9813 -2.2464 -3.5478 0.9611
-8.7457 -3.0368 -3.5478 0.9611
-8.4407 -3.8032 -3.5478 0.9611
-7.6327 -5.2395 -3.5478 0.9611
-7.1311 -5.8940 -3.5454 0.9611
-6.3015 -6.2317 -3.3962 0.9627
-5.7205 -6.7662 -3.3954 0.9628
-5.0955 -7.2485 -3.3954 0.9628
-3.7296 -8.0371 -3.3954 0.9628
-2.9995 -8.3372 -3.3954 0.9628
3.9077 -7.9520 -3.3954 0.9628
5.2558 -7.1332 -3.3954 0.9628
5.8698 -6.6371 -3.3954 0.9628
6.4372 -6.0883 -3.3954 0.9628
7.7451 -5.0666 -3.5467 0.9611
8.1679 -4.3585 -3.5478 0.9611
9.0291 -2.0457 -3.5478 0.9611
9.2488 0.4124 -3.5478 0.9611
9.1754 1.2340 -3.5478 0.9611
8.8112 2.8413 -3.5478 0.9611
6.7262 6.3615 -3.5478 0.9611
4.8065 7.9125 -3.5478 0.9611
4.0831 8.3089 -3.5478 0.9611
3.3274 8.6394 -3.5478 0.9611
0.9267 9.2115 -3.5478 0.9611
0.1031 9.2572 -3.5477 0.9611
-0.7212 9.2299 -3.5478 0.9611
-1.5399 9.1290 -3.5478 0.9611
-2.3463 8.9557 -3.5478 0.9611
-3.1341 8.7114 -3.5478 0.9611
-4.6290 8.0177 -3.5478 0.9611
-5.9772 7.0699 -3.5478 0.9611
-8.4407 3.8032 -3.5478 0.9611
-8.7457 3.0369 -3.5478 0.9611
-9.1456 1.4381 -3.5478 0.9611
-9.2557 -0.2063 -3.5478 0.9611
-9.2006 -1.0292 -3.5478 0.9611
-8.8723 -2.6442 -3.5478 0.9611
-8.6018 -3.4234 -3.5478 0.9611
-5.4134 -7.0143 -3.3954 0.9628
-4.0839 -7.8630 -3.3954 0.9628
3.5496 -8.1182 -3.3954 0.9628
4.2581 -7.7701 -3.3954 0.9628
4.9328 -7.3602 -3.3954 0.9628
6.1596 -6.3690 -3.3954 0.9628
6.7020 -5.7955 -3.3954 0.9628
7.5016 -5.3993 -3.5419 0.9612
7.9656 -4.7180 -3.5478 0.9611
8.3539 -3.9903 -3.5478 0.9611
9.1113 -1.6415 -3.5478 0.9611
8.6686 0.0000 -3.5478 0.9632
8.6342 0.7716 -3.5478 0.9632
8.3606 2.2902 -3.5478 0.9632
8.1236 3.0252 -3.5478 0.9632
7.4585 4.4177 -3.5478 0.9632
7.0357 5.0640 -3.5478 0.9632
6.0263 6.2312 -3.5478 0.9632
4.1660 7.6019 -3.5478 0.9632
2.0096 8.4324 -3.5478 0.9632
0.4826 8.6551 -3.5478 0.9632
-1.0596 8.6036 -3.5478 0.9632
-2.5683 8.2794 -3.5478 0.9632
-3.2950 8.0179 -3.5478 0.9632
-4.6644 7.3067 -3.5478 0.9632
-5.8860 6.3639 -3.5478 0.9632
-6.9211 5.2195 -3.5478 0.9632
-7.7369 3.9096 -3.5478 0.9632
-2.1261 0.2378 -0.8756 0.9908
-2.1302 -0.1426 -0.8738 0.9908
-7.9034 -3.5611 -3.5478 0.9632
-4.7711 -6.7870 -3.3954 0.9648
-4.1481 -7.1847 -3.3954 0.9648
1.5618 -8.1479 -3.3954 0.9648
2.2808 -7.9765 -3.3954 0.9648
2.9817 -7.7419 -3.3954 0.9648
3.6589 -7.4458 -3.3954 0.9648
4.3071 -7.0905 -3.3954 0.9648
4.9211 -6.6790 -3.3954 0.9648
6.0933 -5.7630 -3.4326 0.9644
6.7969 -5.3674 -3.5446 0.9633
7.2543 -4.7455 -3.5478 0.9632
7.6478 -4.0810 -3.5478 0.9632
7.9807 -3.3841 -3.5478 0.9632
8.5912 -1.1554 -3.5478 0.9632
8.6600 -0.3862 -3.5478 0.9632
8.6600 0.3862 -3.5478 0.9632
8.2503 2.6604 -3.5478 0.9632
7.9807 3.3841 -3.5478 0.9632
7.2543 4.7455 -3.5478 0.9632
6.8031 5.3724 -3.5478 0.9632
6.2979 5.9565 -3.5478 0.9632
5.7428 6.4934 -3.5478 0.9632
3.8232 7.7799 -3.5478 0.9632
3.1156 8.0893 -3.5478 0.9632
2.3832 8.3345 -3.5478 0.9632
1.6319 8.5136 -3.5478 0.9632
0.0966 8.6680 -3.5478 0.9632
-0.6753 8.6422 -3.5478 0.9632
-1.4418 8.5478 -3.5478 0.9632
-2.1969 8.3856 -3.5478 0.9632
-2.9346 8.1567 -3.5478 0.9632
-3.6489 7.8632 -3.5478 0.9632
-4.3343 7.5072 -3.5478 0.9632
-6.1637 6.0954 -3.5478 0.9632
-7.1467 4.9059 -3.5478 0.9632
-7.5550 4.2504 -3.5478 0.9632
-8.1889 2.8435 -3.5478 0.9632
-2.1308 0.5329 -0.8989 0.9906
-2.1345 0.3356 -0.8843 0.9907
-2.1302 0.1426 -0.8738 0.9908
-8.3075 -2.4759 -3.5478 0.9632
-7.7369 -3.9096 -3.5478 0.9632
-7.3582 -4.5827 -3.5478 0.9632
-6.9211 -5.2194 -3.5478 0.9632
-6.4271 -5.8130 -3.5468 0.9632
-5.0687 -6.5677 -3.3954 0.9648
-4.4641 -6.9928 -3.3954 0.9648
-3.8239 -7.3624 -3.3954 0.9648
-3.1535 -7.6735 -3.3954 0.9648
-2.4580 -7.9237 -3.3954 0.9648
-1.7430 -8.1111 -3.3954 0.9648
0.4619 -8.2833 -3.3954 0.9648
1.1973 -8.2094 -3.3954 0.9648
2.6339 -7.8670 -3.3954 0.9648
5.2138 -6.4532 -3.3954 0.9648
5.7674 -5.9635 -3.3954 0.9648
6.5433 -5.6582 -3.5404 0.9633
7.0357 -5.0640 -3.5478 0.9632
7.4585 -4.4177 -3.5478 0.9632
7.8221 -3.7363 -3.5478 0.9632
8.1236 -3.0253 -3.5478 0.9632
8.6342 -0.7716 -3.5478 0.9632
8.1083 0.7246 -3.5478 0.9651
8.0117 1.4434 -3.5478 0.9651
7.8514 2.1507 -3.5478 0.9651
7.6288 2.8410 -3.5478 0.9651
7.3457 3.5087 -3.5478 0.9651
7.0042 4.1486 -3.5478 0.9651
6.6072 4.7556 -3.5478 0.9651
6.1577 5.3248 -3.5478 0.9651
5.6593 5.8517 -3.5478 0.9651
5.1160 6.3322 -3.5478 0.9651
4.5321 6.7624 -3.5478 0.9651
1.8872 7.9189 -3.5478 0.9651
1.1749 8.0554 -3.5478 0.9651
-0.9951 8.0796 -3.5478 0.9651
-2.4119 7.7752 -3.5478 0.9651
-3.0943 7.5296 -3.5478 0.9651
-4.3803 6.8617 -3.5478 0.9651
-5.5275 5.9763 -3.5478 0.9651
-6.0375 5.4606 -3.5478 0.9651
-6.4996 4.9016 -3.5478 0.9651
-6.9101 4.3036 -3.5478 0.9651
-7.2657 3.6715 -3.5478 0.9651
-1.8741 0.5585 -0.8523 0.9915
-1.9300 0.3923 -0.8583 0.9914
-1.9433 0.2174 -0.8522 0.9915
-1.9470 0.0434 -0.8487 0.9915
-1.9479 -0.1304 -0.8508 0.9915
-1.9397 -0.3050 -0.8557 0.9915
-1.9080 -0.4772 -0.8571 0.9915
-1.8290 -0.6351 -0.8438 0.9916
-7.4220 -3.3442 -3.5478 0.9651
-6.7115 -4.6072 -3.5478 0.9651
-5.7883 -5.7242 -3.5478 0.9651
-5.2416 -6.1998 -3.5383 0.9652
-4.4806 -6.3737 -3.3954 0.9666
-3.8955 -6.7472 -3.3954 0.9666
-3.2795 -7.0671 -3.3954 0.9666
-1.9745 -7.5366 -3.3954 0.9666
-1.2959 -7.6824 -3.3954 0.9666
0.0868 -7.7905 -3.3954 0.9666
0.7798 -7.7518 -3.3954 0.9666
3.4361 -6.9923 -3.3954 0.9666
5.9068 -5.5866 -3.5433 0.9651
6.3888 -5.0452 -3.5478 0.9651
6.8125 -4.4565 -3.5478 0.9651
7.4947 -3.1780 -3.5478 0.9651
7.7478 -2.4983 -3.5478 0.9651
8.0680 -1.0850 -3.5478 0.9651
8.1326 0.3626 -3.5478 0.9651
8.0680 1.0851 -3.5478 0.9651
7.9394 1.7988 -3.5478 0.9651
6.8125 4.4565 -3.5478 0.9651
5.9144 5.5938 -3.5478 0.9651
4.8289 6.5538 -3.5478 0.9651
1.5325 7.9951 -3.5478 0.9651
-0.6342 8.1159 -3.5478 0.9651
-1.3540 8.0273 -3.5478 0.9651
-2.0631 7.8749 -3.5478 0.9651
-3.4267 7.3843 -3.5478 0.9651
-5.2558 6.2166 -3.5478 0.9651
-6.2748 5.1862 -3.5478 0.9651
-7.0949 3.9915 -3.5478 0.9651
-7.4220 3.3442 -3.5478 0.9651
-1.8290 0.6351 -0.8438 0.9916
-1.9080 0.4772 -0.8571 0.9915
-1.9397 0.3050 -0.8557 0.9915
-1.9433 -0.2174 -0.8522 0.9915
-7.5636 -3.0103 -3.5478 0.9651
-6.9101 -4.3036 -3.5478 0.9651
-5.5217 -5.9700 -3.5441 0.9651
-4.8010 -6.2209 -3.4247 0.9663
-4.1922 -6.5669 -3.3954 0.9666
-2.9614 -7.2062 -3.3954 0.9666
-2.3083 -7.4412 -3.3954 0.9666
-1.6368 -7.6171 -3.3954 0.9666
-0.9524 -7.7325 -3.3954 0.9666
1.1244 -7.7094 -3.3954 0.9666
1.8061 -7.5787 -3.3954 0.9666
3.1212 -7.1384 -3.3954 0.9666
3.7442 -6.8323 -3.3954 0.9666
4.3374 -6.4719 -3.3954 0.9666
4.8963 -6.0602 -3.3954 0.9666
7.0042 -4.1486 -3.5478 0.9651
7.3457 -3.5087 -3.5478 0.9651
7.6288 -2.8410 -3.5478 0.9651
8.0117 -1.4434 -3.5478 0.9651
7.6646 -0.0000 -3.5478 0.9668
7.6342 0.6822 -3.5478 0.9668
7.5432 1.3590 -3.5478 0.9668
6.5946 3.9060 -3.5478 0.9668
6.2208 4.4775 -3.5478 0.9668
4.2671 6.3670 -3.5478 0.9668
3.6835 6.7215 -3.5478 0.9668
1.1062 7.5844 -3.5478 0.9668
-0.2561 7.6603 -3.5478 0.9668
-0.9369 7.6071 -3.5478 0.9668
-2.2708 7.3205 -3.5478 0.9668
-4.1242 6.4604 -3.5478 0.9668
-5.2043 5.6268 -3.5478 0.9668
-6.1195 4.6149 -3.5478 0.9668
-6.5060 4.0520 -3.5478 0.9668
-1.5257 0.6072 -0.7601 0.9928
-1.6373 0.3328 -0.7734 0.9927
-1.6675 0.1865 -0.7767 0.9926
-1.6738 -0.1120 -0.7765 0.9926
-1.6521 -0.2598 -0.7741 0.9927
-5.9079 -4.8830 -3.5478 0.9668
-5.4498 -5.3894 -3.5478 0.9668
-4.3619 -6.2049 -3.5108 0.9671
-3.0877 -6.6538 -3.3954 0.9682
-1.2201 -7.2332 -3.3954 0.9682
-0.5715 -7.3131 -3.3954 0.9682
0.0817 -7.3349 -3.3954 0.9682
1.3809 -7.2042 -3.3954 0.9682
2.6364 -6.8452 -3.3954 0.9682
3.2352 -6.5834 -3.3954 0.9682
4.4050 -5.9785 -3.4374 0.9678
5.0704 -5.7332 -3.5427 0.9668
6.0152 -4.7501 -3.5478 0.9668
6.4141 -4.1959 -3.5478 0.9668
7.0564 -2.9922 -3.5478 0.9668
7.2947 -2.3523 -3.5478 0.9668
7.4751 -1.6936 -3.5478 0.9668
7.5962 -1.0216 -3.5478 0.9668
7.6570 0.3414 -3.5478 0.9668
7.5962 1.0216 -3.5478 0.9668
2.7547 7.1525 -3.5478 0.9668
0.0854 7.6641 -3.5478 0.9668
-2.5947 7.2121 -3.5478 0.9668
-3.2263 6.9525 -3.5478 0.9668
-3.8323 6.6377 -3.5478 0.9668
-4.4079 6.2703 -3.5478 0.9668
-4.9485 5.8531 -3.5478 0.9668
-6.6800 3.7581 -3.5478 0.9668
-6.9880 3.1486 -3.5478 0.9668
-1.5621 0.5424 -0.7654 0.9927
-1.6165 0.4043 -0.7713 0.9927
-1.6521 0.2598 -0.7741 0.9927
-1.6738 0.1120 -0.7765 0.9926
-1.6675 -0.1865 -0.7767 0.9926
-1.6373 -0.3328 -0.7734 0.9927
-6.5060 -4.0520 -3.5478 0.9668
-5.2043 -5.6269 -3.5478 0.9668
-4.6759 -6.0588 -3.5426 0.9668
-2.1733 -7.0060 -3.3954 0.9682
-0.8967 -7.2804 -3.3954 0.9682
-0.2451 -7.3313 -3.3954 0.9682
0.4084 -7.3240 -3.3954 0.9682
1.7005 -7.1355 -3.3954 0.9682
3.5252 -6.4327 -3.3954 0.9682
4.0838 -6.0935 -3.3954 0.9682
4.7827 -5.9196 -3.5227 0.9670
5.3256 -5.5066 -3.5460 0.9668
5.7976 -5.0134 -3.5478 0.9668
6.2208 -4.4775 -3.5478 0.9668
7.2327 0.0000 -3.5478 0.9683
7.2040 0.6438 -3.5478 0.9683
7.1182 1.2824 -3.5478 0.9683
6.9758 1.9109 -3.5478 0.9683
6.7780 2.5242 -3.5478 0.9683
6.5264 3.1174 -3.5478 0.9683
6.2231 3.6859 -3.5478 0.9683
4.0267 6.0082 -3.5478 0.9683
2.8976 6.6270 -3.5478 0.9683
2.2963 6.8586 -3.5478 0.9683
-0.2417 7.2287 -3.5478 0.9683
-1.5195 7.0713 -3.5478 0.9683
-2.1429 6.9080 -3.5478 0.9683
-2.7492 6.6899 -3.5478 0.9683
-4.9110 5.3098 -3.5478 0.9683
-6.4554 3.2620 -3.5478 0.9683
-1.3419 0.1501 -0.6624 0.9940
-1.3536 0.0302 -0.6641 0.9940
-1.3513 -0.0905 -0.6643 0.9940
-1.3257 -0.2085 -0.6583 0.9940
-1.3149 -0.3289 -0.6649 0.9940
-1.3171 -0.4573 -0.6839 0.9938
-1.2865 -0.5797 -0.6922 0.9937
-6.3036 -3.5464 -3.5478 0.9683
-5.9630 -4.0934 -3.5478 0.9683
-5.1427 -5.0858 -3.5478 0.9683
-4.1563 -5.9124 -3.5451 0.9683
-2.3433 -6.5133 -3.3954 0.9696
-0.5393 -6.9010 -3.3954 0.9696
0.6929 -6.8873 -3.3954 0.9696
1.3031 -6.7983 -3.3954 0.9696
3.0529 -6.2125 -3.3954 0.9696
6.0527 -3.9595 -3.5478 0.9683
6.8837 -2.2197 -3.5478 0.9683
7.0540 -1.5982 -3.5478 0.9683
7.1682 -0.9640 -3.5478 0.9683
7.2256 -0.3222 -3.5478 0.9683
7.1682 0.9640 -3.5478 0.9683
6.8837 2.2197 -3.5478 0.9683
6.6588 2.8236 -3.5478 0.9683
5.6763 4.4825 -3.5478 0.9683
5.2548 4.9699 -3.5478 0.9683
4.2903 5.8229 -3.5478 0.9683
3.1899 6.4913 -3.5478 0.9683
2.5995 6.7495 -3.5478 0.9683
1.9885 6.9540 -3.5478 0.9683
0.7240 7.1964 -3.5478 0.9683
-0.5635 7.2108 -3.5478 0.9683
-1.2030 7.1320 -3.5478 0.9683
-2.4485 6.8057 -3.5478 0.9683
-4.1595 5.9170 -3.5478 0.9683
-4.6697 5.5233 -3.5478 0.9683
-5.1427 5.0858 -3.5478 0.9683
-5.9630 4.0934 -3.5478 0.9683
-6.3036 3.5464 -3.5478 0.9683
-1.2865 0.5797 -0.6922 0.9937
-1.3149 0.3289 -0.6649 0.9940
-1.3257 0.2085 -0.6583 0.9940
-1.3513 0.0905 -0.6643 0.9940
-1.3536 -0.0302 -0.6641 0.9940
-1.3419 -0.1501 -0.6624 0.9940
-1.3059 -0.5198 -0.6895 0.9938
-5.7747 -4.3549 -3.5478 0.9683
-5.3642 -4.8516 -3.5478 0.9683
-4.9111 -5.3098 -3.5478 0.9683
-3.8856 -6.0866 -3.5421 0.9683
-3.2299 -6.2186 -3.4373 0.9693
-2.6311 -6.4025 -3.3954 0.9696
-2.0508 -6.6113 -3.3954 0.9696
-1.4543 -6.7676 -3.3954 0.9696
-0.8461 -6.8701 -3.3954 0.9696
1.6047 -6.7335 -3.3954 0.9696
2.7731 -6.3423 -3.3954 0.9696
4.0181 -5.9955 -3.5403 0.9684
5.8703 -4.2252 -3.5478 0.9683
6.2231 -3.6859 -3.5478 0.9683
6.7780 -2.5242 -3.5478 0.9683
6.8388 0.0000 -3.5478 0.9697
6.8117 0.6087 -3.5478 0.9697
6.4088 2.3867 -3.5478 0.9697
5.8841 3.4852 -3.5478 0.9697
5.5506 3.9951 -3.5478 0.9697
5.1730 4.4732 -3.5478 0.9697
4.7543 4.9159 -3.5478 0.9697
3.8074 5.6810 -3.5478 0.9697
2.7398 6.2660 -3.5478 0.9697
2.1712 6.4850 -3.5478 0.9697
0.3807 6.8282 -3.5478 0.9697
-0.2285 6.8350 -3.5478 0.9697
-0.8360 6.7875 -3.5478 0.9697
-1.4368 6.6862 -3.5478 0.9697
-2.5995 6.3255 -3.5478 0.9697
-4.6436 5.0206 -3.5478 0.9697
-5.4602 4.1177 -3.5478 0.9697
-1.1070 0.4406 -0.6181 0.9946
-1.1266 0.3358 -0.6099 0.9947
-1.1332 0.2303 -0.5999 0.9948
-1.1649 0.1303 -0.6081 0.9947
-1.1517 -0.1811 -0.6048 0.9948
-1.1275 -0.2820 -0.6029 0.9948
-1.0898 -0.4910 -0.6201 0.9946
-4.8626 -4.8088 -3.5478 0.9697
-3.9330 -5.5947 -3.5478 0.9697
-3.4167 -5.9178 -3.5450 0.9697
-1.6587 -6.3314 -3.3954 0.9709
-1.0886 -6.4539 -3.3954 0.9709
-0.5099 -6.5251 -3.3954 0.9709
1.7994 -6.2928 -3.3954 0.9709
4.5306 -5.1228 -3.5478 0.9697
5.3671 -4.2383 -3.5478 0.9697
6.0335 -3.2196 -3.5478 0.9697
6.5088 -2.0988 -3.5478 0.9697
6.6698 -1.5112 -3.5478 0.9697
6.7778 -0.9115 -3.5478 0.9697
6.8320 0.3046 -3.5478 0.9697
6.6698 1.5112 -3.5478 0.9697
6.2961 2.6698 -3.5478 0.9697
5.7230 3.7438 -3.5478 0.9697
5.3671 4.2383 -3.5478 0.9697
4.5306 5.1228 -3.5478 0.9697
1.2875 6.7165 -3.5478 0.9697
-0.5328 6.8180 -3.5478 0.9697
-1.1375 6.7435 -3.5478 0.9697
-2.3151 6.4350 -3.5478 0.9697
-4.4153 5.2225 -3.5478 0.9697
-5.2713 4.3569 -3.5478 0.9697
-5.6382 3.8704 -3.5478 0.9697
-1.0898 0.4910 -0.6201 0.9946
-1.1198 0.3889 -0.6150 0.9947
-1.1275 0.2820 -0.6029 0.9948
-1.1517 0.1811 -0.6048 0.9948
-1.1785 -0.0263 -0.6115 0.9947
-1.1649 -0.1303 -0.6081 0.9947
-1.1332 -0.2303 -0.5999 0.9948
-1.1266 -0.3358 -0.6099 0.9947
-1.1070 -0.4406 -0.6181 0.9946
-1.0665 -0.5389 -0.6199 0.9946
-5.8050 -3.6154 -3.5478 0.9697
-4.6436 -5.0206 -3.5478 0.9697
-4.1783 -5.4140 -3.5478 0.9697
-3.6796 -5.7640 -3.5476 0.9697
-3.1475 -6.0600 -3.5426 0.9697
-2.5521 -6.2101 -3.4831 0.9702
-1.9391 -6.2512 -3.3954 0.9709
-0.8001 -6.4960 -3.3954 0.9709
0.3644 -6.5349 -3.3954 0.9709
1.5173 -6.3667 -3.3954 0.9709
2.0779 -6.2064 -3.3954 0.9709
3.8054 -5.6780 -3.5460 0.9697
4.7543 -4.9159 -3.5478 0.9697
5.1730 -4.4732 -3.5478 0.9697
5.8841 -3.4852 -3.5478 0.9697
6.4088 -2.3867 -3.5478 0.9697
6.5958 -1.8068 -3.5478 0.9697
2.0356 0.1819 -1.1193 0.9907
2.0004 0.5480 -1.1360 0.9906
1.9714 0.7342 -1.1522 0.9905
5.8451 2.7920 -3.5478 0.9709
5.5734 3.3011 -3.5478 0.9709
4.0709 5.0386 -3.5478 0.9709
2.0565 6.1425 -3.5478 0.9709
0.9349 6.4098 -3.5478 0.9709
0.3606 6.4676 -3.5478 0.9709
-0.2165 6.4740 -3.5478 0.9709
-0.7918 6.4291 -3.5478 0.9709
-1.9192 6.1868 -3.5478 0.9709
-2.4622 5.9914 -3.5478 0.9709
-4.3984 4.7555 -3.5478 0.9709
-5.1718 3.9003 -3.5478 0.9709
-1.0293 0.1151 -0.5673 0.9953
-1.0376 -0.0695 -0.5696 0.9953
-0.9756 -0.3388 -0.5656 0.9953
-4.9930 -4.1268 -3.5478 0.9709
-4.1822 -4.9467 -3.5478 0.9709
-3.7253 -5.2993 -3.5478 0.9709
-3.2388 -5.6098 -3.5478 0.9709
-2.1894 -6.0854 -3.5421 0.9709
-1.6255 -6.2046 -3.5130 0.9712
0.0693 -6.2231 -3.4086 0.9720
0.6251 -6.2139 -3.4205 0.9719
1.1877 -6.1964 -3.4556 0.9716
1.7626 -6.1643 -3.5115 0.9712
4.7062 -4.4511 -3.5478 0.9709
1.9407 -0.8229 -1.1546 0.9904
2.0041 -0.4541 -1.1255 0.9907
2.0434 -0.0911 -1.1203 0.9907
2.0434 0.0911 -1.1203 0.9907
2.0041 0.4541 -1.1255 0.9907
5.7149 3.0496 -3.5478 0.9709
5.0837 4.0145 -3.5478 0.9709
4.2913 4.8523 -3.5478 0.9709
3.8424 5.2150 -3.5478 0.9709
3.3630 5.5363 -3.5478 0.9709
2.8569 5.8136 -3.5478 0.9709
2.3281 6.0448 -3.5478 0.9709
1.2195 6.3618 -3.5478 0.9709
0.0722 6.4773 -3.5478 0.9709
-0.5046 6.4580 -3.5478 0.9709
-1.6417 6.2662 -3.5478 0.9709
-2.1929 6.0952 -3.5478 0.9709
-2.7267 5.8758 -3.5478 0.9709
-3.2388 5.6098 -3.5478 0.9709
-4.6058 4.5548 -3.5478 0.9709
-0.9240 0.5198 -0.5806 0.9952
-0.9847 0.2463 -0.5559 0.9954
-1.0415 -0.0232 -0.5706 0.9953
-1.0293 -0.1151 -0.5673 0.9953
-1.0000 -0.2033 -0.5589 0.9954
-0.9825 -0.2928 -0.5615 0.9953
-0.9638 -0.3836 -0.5681 0.9953
-3.9576 -5.1281 -3.5478 0.9709
-3.4855 -5.4600 -3.5478 0.9709
-2.9857 -5.7485 -3.5478 0.9709
-2.4595 -5.9847 -3.5439 0.9709
-1.3346 -6.2108 -3.4793 0.9714
-0.2081 -6.2236 -3.4106 0.9720
1.4730 -6.1810 -3.4802 0.9714
2.0523 -6.1299 -3.5405 0.9709
2.5918 -5.9276 -3.5434 0.9709
3.1123 -5.6792 -3.5470 0.9709
4.0709 -5.0386 -3.5478 0.9709
4.5032 -4.6563 -3.5478 0.9709
4.8998 -4.2370 -3.5478 0.9709
5.2574 -3.7841 -3.5478 0.9709
5.8451 -2.7920 -3.5478 0.9709
1.7869 0.6655 -1.1009 0.9912
4.9875 3.5898 -3.5478 0.9720
4.6482 4.0194 -3.5478 0.9720
3.8619 4.7799 -3.5478 0.9720
3.4211 5.1046 -3.5478 0.9720
2.4618 5.6303 -3.5478 0.9720
1.9509 5.8271 -3.5478 0.9720
0.8868 6.0807 -3.5478 0.9720
-0.2053 6.1416 -3.5478 0.9720
-0.7512 6.0989 -3.5478 0.9720
-2.8324 5.4533 -3.5478 0.9720
-3.3065 5.1796 -3.5478 0.9720
-3.7544 4.8647 -3.5478 0.9720
-0.8491 0.5288 -0.5776 0.9954
-0.8932 0.3555 -0.5550 0.9956
-0.9120 0.1854 -0.5373 0.9957
-0.9237 0.1033 -0.5366 0.9957
-0.9273 -0.0621 -0.5366 0.9957
-0.9030 -0.2259 -0.5374 0.9957
-0.8858 -0.3991 -0.5609 0.9955
-0.8638 -0.4859 -0.5722 0.9954
-4.7366 -3.9149 -3.5478 0.9720
-4.3693 -4.3209 -3.5478 0.9720
-3.5340 -5.0272 -3.5478 0.9720
-2.0800 -5.7813 -3.5473 0.9720
-0.4779 -6.1156 -3.5416 0.9721
0.0683 -6.1334 -3.5413 0.9721
0.6140 -6.1036 -3.5417 0.9721
1.1552 -6.0267 -3.5428 0.9721
1.6879 -5.9029 -3.5446 0.9720
2.2081 -5.7332 -3.5471 0.9720
2.7102 -5.5151 -3.5478 0.9720
3.1903 -5.2520 -3.5478 0.9720
4.0710 -4.6031 -3.5478 0.9720
1.7564 -0.7448 -1.1014 0.9912
1.8316 -0.4150 -1.0843 0.9914
1.8316 0.4150 -1.0843 0.9914
4.8226 3.8084 -3.5478 0.9720
4.0710 4.6031 -3.5478 0.9720
2.7102 5.5151 -3.5478 0.9720
2.2086 5.7344 -3.5478 0.9720
1.6894 5.9082 -3.5478 0.9720
1.1568 6.0351 -3.5478 0.9720
0.6151 6.1142 -3.5478 0.9720
0.0685 6.1446 -3.5478 0.9720
-1.0221 6.0594 -3.5478 0.9720
-3.5340 5.0272 -3.5478 0.9720
-4.7366 3.9149 -3.5478 0.9720
-5.0662 3.4778 -3.5478 0.9720
-0.8638 0.4860 -0.5722 0.9954
-0.8858 0.3991 -0.5609 0.9955
-0.8983 0.3119 -0.5490 0.9956
-0.9030 0.2259 -0.5374 0.9957
-0.9189 0.1445 -0.5370 0.9957
-0.9306 -0.0207 -0.5374 0.9957
-0.9237 -0.1033 -0.5366 0.9957
-0.9120 -0.1854 -0.5373 0.9957
-0.8932 -0.3555 -0.5550 0.9956
-0.8760 -0.4426 -0.5667 0.9955
-4.9063 -3.7000 -3.5478 0.9720
-3.7544 -4.8647 -3.5478 0.9720
-2.8324 -5.4533 -3.5478 0.9720
-1.8196 -5.8659 -3.5459 0.9720
-0.7499 -6.0891 -3.5421 0.9721
0.3415 -6.1244 -3.5414 0.9721
0.8854 -6.0710 -3.5422 0.9721
1.4228 -5.9705 -3.5436 0.9720
1.9498 -5.8237 -3.5458 0.9720
2.4618 -5.6303 -3.5478 0.9720
3.4211 -5.1046 -3.5478 0.9720
3.8619 -4.7799 -3.5478 0.9720
4.2720 -4.4172 -3.5478 0.9720
5.2872 -3.1316 -3.5478 0.9720
1.7194 -0.8213 -1.1001 0.9912
1.7869 -0.6654 -1.1009 0.9912
1.8267 -0.5004 -1.0935 0.9913
1.8426 -0.3320 -1.0810 0.9914
