ply
format ascii 1.0
element vertex 1292
property float32 x
property float32 y
property float32 z
property float32 I
end_header
-17.5436 -7.9047 -1.8473 0.9256
-16.0159 10.9944 -1.8650 0.9249
18.9917 1.6971 -2.2649 0.9261
17.8160 6.6348 -2.2583 0.9263
17.1211 8.1781 -2.2538 0.9264
16.2857 9.6461 -2.2484 0.9266
15.3185 11.0256 -2.2419 0.9268
12.7824 13.2169 -2.1841 0.9286
10.8919 13.4810 -2.0587 0.9326
-10.8731 11.7559 -1.9022 0.9375
-12.8909 9.7215 -1.9179 0.9370
-14.4895 9.0242 -2.0277 0.9336
-15.7800 6.2803 -2.0174 0.9339
-16.8041 1.8798 -2.0085 0.9342
-16.8947 0.3765 -2.0074 0.9342
-16.8588 -1.1286 -2.0071 0.9342
-16.4092 -4.1042 -2.0092 0.9341
-15.9981 -5.5551 -2.0117 0.9341
17.2244 -3.9025 -2.0979 0.9313
17.5260 -2.3570 -2.1006 0.9312
18.8939 2.5410 -2.2645 0.9261
18.5791 4.2095 -2.2629 0.9261
14.7886 11.6785 -2.2384 0.9269
13.6430 12.9034 -2.2306 0.9271
10.2586 13.9232 -2.0543 0.9327
-11.3638 11.2379 -1.8985 0.9377
-15.5018 6.9848 -2.0197 0.9338
-16.7114 2.6277 -2.0095 0.9341
-16.8652 1.1290 -2.0078 0.9342
-16.8926 -0.3764 -2.0071 0.9342
-16.2190 -4.8338 -2.0103 0.9341
-15.5818 -6.2014 -1.9921 0.9347
-14.0695 -7.1096 -1.8725 0.9385
15.5641 2.8040 -2.2408 0.9381
15.2403 4.1748 -2.2389 0.9382
13.5298 8.0137 -2.2281 0.9384
12.7324 9.1643 -2.2228 0.9386
11.8339 10.2332 -2.2167 0.9388
10.8430 11.2116 -2.2099 0.9389
8.0057 11.9453 -2.0375 0.9436
-9.1708 9.9154 -1.9137 0.9469
-10.7170 9.6930 -2.0474 0.9433
-11.5441 8.7058 -2.0487 0.9433
-12.2409 7.6237 -2.0433 0.9434
-14.0314 2.8520 -2.0287 0.9438
-14.1271 -2.2214 -2.0263 0.9439
-13.8823 -3.4722 -2.0276 0.9438
-13.5320 -4.6988 -2.0296 0.9438
-13.0639 -5.8863 -2.0302 0.9438
-11.6269 -6.5412 -1.8902 0.9475
13.9317 -4.4924 -2.0741 0.9426
14.9402 -3.3850 -2.1705 0.9400
15.8022 -0.7047 -2.2412 0.9381
15.4183 3.4933 -2.2400 0.9381
13.1443 8.5986 -2.2255 0.9385
12.2953 9.7095 -2.2198 0.9387
11.3494 10.7342 -2.2134 0.9388
10.2994 11.6457 -2.2028 0.9391
8.5455 11.5981 -2.0412 0.9435
7.4515 12.2668 -2.0336 0.9437
-6.8151 11.8040 -1.9312 0.9464
-7.8087 11.1081 -1.9239 0.9466
-8.7349 10.3317 -1.9170 0.9468
-9.8268 9.7179 -1.9582 0.9457
-11.1608 9.2246 -2.0516 0.9432
-11.9043 8.1719 -2.0459 0.9433
-12.5534 7.0624 -2.0408 0.9435
-13.5533 4.7062 -2.0328 0.9437
-14.1376 2.2231 -2.0278 0.9438
-14.2935 -0.3185 -2.0257 0.9439
-14.0180 -2.8493 -2.0268 0.9438
-13.7202 -4.0890 -2.0285 0.9438
-13.3178 -5.3004 -2.0310 0.9437
-10.6862 -8.0589 -1.8964 0.9474
13.1698 -6.2907 -2.0680 0.9427
14.1292 -3.8704 -2.0757 0.9425
15.7508 -1.4075 -2.2406 0.9381
13.5064 -0.0000 -2.2250 0.9467
12.6310 4.7038 -2.2204 0.9468
12.1453 5.8013 -2.2173 0.9469
4.9001 11.2068 -2.0150 0.9516
2.8147 11.8111 -2.0002 0.9520
-1.4615 11.8664 -1.9696 0.9527
-3.5155 11.3328 -1.9547 0.9530
-5.4299 10.4544 -1.9407 0.9534
-7.4933 9.7094 -2.0205 0.9515
-8.5336 9.2265 -2.0704 0.9503
-10.5873 6.5939 -2.0548 0.9507
-11.1100 5.6142 -2.0507 0.9508
-11.5460 4.5952 -2.0472 0.9509
-11.8925 3.5444 -2.0443 0.9509
-12.2325 -1.9235 -2.0399 0.9510
-12.0195 -3.0063 -2.0411 0.9510
-10.8085 -6.0808 -2.0430 0.9510
-9.5347 -6.5452 -1.9052 0.9542
-8.9330 -7.3833 -1.9092 0.9541
-8.2600 -8.1685 -1.9138 0.9540
10.9921 -5.8656 -2.0525 0.9507
11.4926 -4.8733 -2.0565 0.9507
12.7748 -4.1193 -2.2112 0.9470
13.1511 -2.9797 -2.2214 0.9468
13.3764 -1.7990 -2.2235 0.9468
13.4910 -0.6016 -2.2247 0.9467
13.4937 0.6017 -2.2252 0.9467
13.3845 1.8000 -2.2248 0.9467
12.8353 4.1389 -2.2217 0.9468
12.4009 5.2584 -2.2190 0.9469
11.8651 6.3314 -2.2155 0.9469
11.2333 7.3485 -2.2114 0.9470
10.5117 8.3010 -2.2065 0.9471
6.4168 10.5635 -2.0361 0.9511
-1.9848 11.7668 -1.9658 0.9528
-4.0094 11.1443 -1.9511 0.9531
-6.8343 9.7219 -1.9577 0.9530
-8.1044 9.5860 -2.0679 0.9504
-8.9235 8.8246 -2.0675 0.9504
-10.2944 7.0667 -2.0570 0.9506
-11.7306 4.0733 -2.0457 0.9509
-12.0316 3.0093 -2.0431 0.9510
-12.3041 -1.3764 -2.0396 0.9510
-11.5282 -4.5881 -2.0440 0.9509
-11.0892 -5.6036 -2.0468 0.9509
-9.2430 -6.9705 -1.9071 0.9542
-8.6052 -7.7829 -1.9114 0.9541
12.9977 -3.5604 -2.2201 0.9468
13.2775 -2.3921 -2.2225 0.9468
11.7716 -0.0000 -2.2126 0.9532
11.5819 2.0866 -2.2120 0.9532
11.3433 3.1072 -2.2106 0.9533
9.4942 6.8335 -2.1987 0.9535
8.8303 7.6359 -2.1943 0.9536
8.0972 8.3724 -2.1893 0.9537
7.3016 9.0373 -2.1838 0.9538
6.4508 9.6253 -2.1779 0.9539
5.5417 10.1123 -2.1674 0.9542
3.3844 10.1088 -2.0037 0.9575
2.4632 10.3361 -1.9972 0.9577
-1.2814 10.4044 -1.9704 0.9582
-2.1950 10.2146 -1.9638 0.9584
-3.9954 9.7222 -1.9757 0.9581
-5.0412 9.7060 -2.0557 0.9565
-7.5045 8.1138 -2.0774 0.9560
-8.7831 6.6236 -2.0677 0.9562
-9.3191 5.8040 -2.0636 0.9563
-10.1674 4.0465 -2.0569 0.9564
-10.4743 3.1217 -2.0543 0.9565
-10.8442 1.2131 -2.0510 0.9566
-10.9050 0.2430 -2.0502 0.9566
-10.8824 -0.7285 -2.0500 0.9566
-10.7765 -1.6945 -2.0504 0.9566
-10.3184 -3.5829 -2.0531 0.9565
-7.8622 -6.4982 -1.9172 0.9593
-6.6145 -7.8237 -1.9257 0.9592
7.8443 -7.4190 -2.0294 0.9570
8.4940 -6.7076 -2.0343 0.9569
9.0771 -5.9380 -2.0388 0.9568
9.5881 -5.1164 -2.0427 0.9567
10.7720 -4.5677 -2.1992 0.9535
11.4644 -2.5975 -2.2095 0.9533
11.6594 -1.5680 -2.2112 0.9532
11.7584 -0.5243 -2.2123 0.9532
11.1889 3.6080 -2.2097 0.9533
10.8119 4.5846 -2.2074 0.9533
10.3468 5.5212 -2.2044 0.9534
8.4720 8.0128 -2.1918 0.9536
6.8827 9.3412 -2.1809 0.9539
6.0071 9.8891 -2.1748 0.9540
5.0185 10.2124 -2.1388 0.9547
1.9970 10.4183 -1.9939 0.9577
0.1174 10.5359 -1.9805 0.9580
-1.7407 10.3195 -1.9671 0.9583
-2.6434 10.0899 -1.9605 0.9584
-4.5081 9.7146 -2.0130 0.9573
-5.5486 9.6105 -2.0858 0.9558
-7.1449 8.4510 -2.0801 0.9560
-7.8487 7.7618 -2.0748 0.9561
-8.4885 7.0160 -2.0699 0.9562
-9.0601 6.2194 -2.0656 0.9563
-9.5597 5.3782 -2.0617 0.9563
-10.3308 3.5873 -2.0555 0.9565
-10.5975 2.6506 -2.0533 0.9565
-10.7826 1.6955 -2.0516 0.9565
-10.9041 -0.2430 -2.0501 0.9566
-10.6925 -2.1734 -2.0509 0.9566
-10.4633 -3.1184 -2.0522 0.9565
-10.1536 -4.0410 -2.0541 0.9565
-9.7653 -4.9346 -2.0565 0.9564
-8.2488 -6.2207 -1.9419 0.9588
-7.5726 -6.8490 -1.9192 0.9593
-6.9482 -7.5123 -1.9234 0.9592
8.7942 -6.3297 -2.0366 0.9569
9.3419 -5.5332 -2.0408 0.9568
10.2620 -4.9018 -2.1376 0.9548
11.3315 -3.1040 -2.2083 0.9533
11.7210 -1.0474 -2.2119 0.9532
10.4217 -0.0000 -2.2029 0.9583
10.3805 0.9276 -2.2030 0.9583
10.2540 1.8474 -2.2024 0.9583
10.0435 2.7512 -2.2012 0.9583
9.3789 4.4799 -2.1971 0.9584
8.9310 5.2898 -2.1941 0.9585
8.4115 6.0542 -2.1907 0.9585
6.4739 8.0129 -2.1775 0.9588
5.7214 8.5368 -2.1723 0.9589
1.4222 9.7514 -2.0831 0.9605
-0.3247 9.7124 -2.0541 0.9610
-2.0848 9.7020 -2.0976 0.9602
-3.7842 9.2084 -2.1044 0.9601
-7.2922 6.5954 -2.0784 0.9606
-7.8347 5.9084 -2.0742 0.9607
-8.3146 5.1784 -2.0705 0.9607
-9.5526 1.9417 -2.0605 0.9609
-9.7364 0.2170 -2.0586 0.9610
-9.4528 -2.3643 -2.0597 0.9609
-9.2113 -3.1985 -2.0611 0.9609
-7.5018 -6.2004 -2.0573 0.9610
-6.4824 -6.4106 -1.9271 0.9634
7.5282 -5.9450 -2.0277 0.9615
8.2275 -5.3822 -2.0782 0.9606
9.1370 -4.8757 -2.1892 0.9585
10.3230 -1.3883 -2.2017 0.9583
10.3278 1.3890 -2.2028 0.9583
10.1591 2.3017 -2.2019 0.9583
9.5746 4.0600 -2.1983 0.9584
9.1642 4.8902 -2.1957 0.9584
8.6799 5.6781 -2.1925 0.9585
8.1264 6.4173 -2.1888 0.9585
7.5085 7.1015 -2.1846 0.9586
6.8322 7.7253 -2.1800 0.9587
6.1034 8.2836 -2.1749 0.9588
3.6689 9.5261 -2.1578 0.9591
2.7908 9.7601 -2.1458 0.9593
0.9791 9.7328 -2.0677 0.9608
0.1082 9.7144 -2.0536 0.9611
-0.7588 9.7109 -2.0589 0.9610
-2.5261 9.6422 -2.1070 0.9601
-3.3718 9.3721 -2.1054 0.9601
-4.9574 8.5865 -2.0958 0.9603
-5.6873 8.0903 -2.0904 0.9604
-6.3693 7.5336 -2.0853 0.9605
-7.5711 6.2576 -2.0763 0.9606
-9.4603 2.3662 -2.0613 0.9609
-9.7356 -0.2170 -2.0584 0.9610
-9.6782 -1.0827 -2.0585 0.9610
-8.7159 -4.4044 -2.0642 0.9609
-8.3002 -5.1694 -2.0669 0.9608
-6.1967 -6.6998 -1.9291 0.9634
-4.2359 -8.1556 -1.9426 0.9631
5.2965 -7.9029 -2.0110 0.9619
7.2483 -6.2679 -2.0256 0.9616
9.7390 -3.6268 -2.1967 0.9584
10.0342 -2.7487 -2.1992 0.9584
10.3772 -0.9273 -2.2023 0.9583
9.0021 2.4659 -2.1936 0.9624
8.7405 3.2550 -2.1920 0.9624
8.4080 4.0162 -2.1899 0.9624
7.5431 5.4292 -2.1842 0.9625
6.4388 6.6577 -2.1768 0.9627
3.6779 8.4115 -2.1576 0.9630
0.5058 9.0706 -2.1351 0.9634
-0.3027 9.0550 -2.1293 0.9635
-3.4074 8.2914 -2.1068 0.9638
-4.8000 7.5191 -2.0966 0.9640
-5.4379 7.0461 -2.0918 0.9641
-6.0307 6.5203 -2.0874 0.9642
-6.5741 5.9460 -2.0833 0.9642
-7.0646 5.3276 -2.0795 0.9643
-8.1864 3.2581 -2.0708 0.9644
-8.6192 1.7519 -2.0671 0.9645
-8.7362 0.9773 -2.0660 0.9645
-8.7858 0.1958 -2.0654 0.9645
-8.6821 -1.3652 -2.0656 0.9645
-8.5295 -2.1334 -2.0664 0.9645
-8.0280 -3.6173 -2.0695 0.9645
-6.2688 -6.1994 -2.0721 0.9644
-5.3170 -6.2890 -1.9355 0.9667
-4.1351 -7.1621 -1.9437 0.9666
-2.1112 -8.0585 -1.9579 0.9663
-1.3892 -8.2359 -1.9630 0.9663
1.5894 -8.2920 -1.9843 0.9659
3.0507 -7.9209 -1.9949 0.9657
5.0724 -6.8844 -2.0097 0.9655
6.2396 -5.9014 -2.0185 0.9653
7.0794 -5.5905 -2.1201 0.9636
7.7647 -5.0795 -2.1807 0.9626
9.2524 -1.2443 -2.1941 0.9624
9.3314 0.4161 -2.1953 0.9623
9.2563 1.2449 -2.1950 0.9624
9.1055 2.0630 -2.1942 0.9624
8.8803 2.8636 -2.1929 0.9624
8.2161 4.3842 -2.1887 0.9625
7.2880 5.7553 -2.1825 0.9626
4.7833 7.8744 -2.1653 0.9629
3.2954 8.5563 -2.1549 0.9630
2.5143 8.7931 -2.1494 0.9631
0.9106 9.0513 -2.1380 0.9633
-0.7049 9.0202 -2.1264 0.9635
-3.0385 8.4458 -2.1095 0.9638
-4.4656 7.7346 -2.0990 0.9640
-5.7402 6.7895 -2.0896 0.9641
-6.3088 6.2389 -2.0853 0.9642
-7.2888 5.0035 -2.0778 0.9643
-8.5356 2.1349 -2.0679 0.9645
-8.7695 0.5871 -2.0656 0.9645
-8.7853 -0.1958 -2.0652 0.9645
-8.7334 -0.9770 -2.0653 0.9645
-7.8629 -3.9733 -2.0705 0.9644
-6.5518 -5.9258 -2.0762 0.9644
-5.7486 -6.2153 -1.9897 0.9658
-5.0366 -6.5261 -1.9374 0.9667
-4.4451 -6.9631 -1.9415 0.9666
-3.8163 -7.3476 -1.9459 0.9666
-2.4650 -7.9463 -1.9554 0.9664
-1.7524 -8.1551 -1.9604 0.9663
1.9599 -8.2240 -1.9870 0.9659
2.6913 -8.0384 -1.9923 0.9658
4.0948 -7.4721 -2.0025 0.9656
5.9644 -6.1672 -2.0164 0.9654
6.5768 -5.6872 -2.0435 0.9649
7.5081 -5.4040 -2.1741 0.9627
7.9949 -4.7354 -2.1839 0.9625
8.7310 -3.2514 -2.1897 0.9624
8.3182 1.4986 -2.1884 0.9657
8.1482 2.2320 -2.1874 0.9657
7.9120 2.9465 -2.1860 0.9657
6.3564 5.4966 -2.1758 0.9659
5.8323 6.0306 -2.1722 0.9659
5.2630 6.5140 -2.1683 0.9660
4.0084 7.3145 -2.1596 0.9661
3.3342 7.6255 -2.1549 0.9662
2.6362 7.8740 -2.1500 0.9663
1.1927 8.1776 -2.1397 0.9664
-1.0028 8.1418 -2.1240 0.9667
-1.7192 8.0007 -2.1188 0.9668
-4.3631 6.8346 -2.0994 0.9671
-4.9439 6.4060 -2.0951 0.9671
-5.4838 5.9291 -2.0911 0.9672
-5.9791 5.4078 -2.0874 0.9672
-6.4262 4.8462 -2.0839 0.9673
-7.4495 2.9648 -2.0759 0.9674
-7.6769 2.2879 -2.0741 0.9674
-7.8446 1.5945 -2.0726 0.9675
-7.9804 -0.5342 -2.0709 0.9675
-7.9024 -1.2426 -2.0712 0.9675
-7.5639 -2.6265 -2.0731 0.9675
-7.3058 -3.2918 -2.0747 0.9674
-6.9906 -3.9328 -2.0768 0.9674
-6.6206 -4.5448 -2.0792 0.9674
-5.1922 -6.1413 -2.0822 0.9673
-4.3732 -6.2210 -1.9689 0.9691
-3.7591 -6.5110 -1.9466 0.9694
-1.2618 -7.4803 -1.9641 0.9691
2.7667 -7.1835 -1.9931 0.9687
3.4030 -6.9249 -1.9978 0.9686
4.0148 -6.6093 -2.0023 0.9686
7.0364 -4.6030 -2.1770 0.9659
7.4285 -3.9640 -2.1801 0.9658
8.0313 -2.5898 -2.1849 0.9657
8.2364 -1.8661 -2.1866 0.9657
8.4457 0.3766 -2.1889 0.9657
8.0383 2.5920 -2.1868 0.9657
7.0472 4.6101 -2.1804 0.9658
6.5999 5.2119 -2.1774 0.9658
6.1003 5.7696 -2.1740 0.9659
5.5530 6.2789 -2.1703 0.9660
4.3349 7.1362 -2.1619 0.9661
3.6747 7.4777 -2.1573 0.9662
2.9878 7.7577 -2.1524 0.9662
2.2802 7.9743 -2.1474 0.9663
0.0917 8.2332 -2.1319 0.9666
-3.4244 7.3794 -2.1064 0.9669
-4.0586 7.0297 -2.1017 0.9670
-6.2088 5.1318 -2.0856 0.9673
-6.6307 4.5517 -2.0824 0.9673
-7.3138 3.2955 -2.0770 0.9674
-7.7683 1.9430 -2.0733 0.9675
-7.9056 1.2431 -2.0721 0.9675
-7.9818 0.5343 -2.0713 0.9675
-7.9963 -0.1782 -2.0709 0.9675
-7.9491 -0.8892 -2.0710 0.9675
-7.6710 -2.2862 -2.0725 0.9675
-7.4421 -2.9619 -2.0739 0.9674
-6.8123 -4.2427 -2.0779 0.9674
-5.9682 -5.3979 -2.0836 0.9673
-4.0414 -6.3307 -1.9446 0.9694
-3.4689 -6.6789 -1.9486 0.9694
-2.2396 -7.2199 -1.9572 0.9692
-1.5919 -7.4078 -1.9618 0.9692
-0.2544 -7.6094 -1.9713 0.9690
2.4410 -7.2909 -1.9907 0.9687
3.0875 -7.0614 -1.9955 0.9687
3.7123 -6.7741 -2.0000 0.9686
4.8754 -6.0344 -2.0086 0.9685
6.8191 -4.9081 -2.1754 0.9659
7.2396 -4.2881 -2.1786 0.9658
7.6024 -3.6314 -2.1814 0.9658
8.1421 -2.2304 -2.1858 0.9657
8.3140 -1.4978 -2.1873 0.9657
7.6826 0.6865 -2.1835 0.9684
7.4347 2.0366 -2.1823 0.9685
7.2196 2.6886 -2.1809 0.9685
6.9461 3.3179 -2.1792 0.9685
6.6167 3.9191 -2.1771 0.9685
5.8025 5.0176 -2.1716 0.9686
5.3249 5.5059 -2.1684 0.9687
4.8058 5.9482 -2.1648 0.9687
3.6615 6.6815 -2.1569 0.9688
3.0462 6.9669 -2.1526 0.9689
2.4090 7.1954 -2.1481 0.9689
1.7552 7.3653 -2.1435 0.9690
1.0903 7.4758 -2.1387 0.9691
-0.2513 7.5168 -2.1291 0.9692
-0.9173 7.4478 -2.1243 0.9693
-2.8337 6.8953 -2.1104 0.9695
-3.4290 6.6020 -2.1060 0.9695
-5.0230 5.4308 -2.0942 0.9697
-6.5653 3.3176 -2.0824 0.9699
-6.8276 2.7173 -2.0803 0.9699
-7.3307 0.1634 -2.0758 0.9700
-7.1163 -1.7799 -2.0766 0.9700
-2.9037 -6.2573 -1.9528 0.9717
-1.7555 -6.7005 -1.9609 0.9716
-0.5420 -6.9359 -1.9695 0.9715
0.0777 -6.9723 -1.9739 0.9714
1.3186 -6.8790 -1.9828 0.9713
1.9299 -6.7494 -1.9873 0.9712
3.6795 -6.0572 -2.0063 0.9710
4.3981 -5.9692 -2.0990 0.9696
5.0495 -5.7095 -2.1577 0.9688
6.0148 -4.7498 -2.1697 0.9686
7.0829 -3.0034 -2.1779 0.9685
7.3288 -2.3632 -2.1799 0.9685
7.7048 -0.3436 -2.1833 0.9684
7.7057 0.3436 -2.1836 0.9684
7.6438 1.0280 -2.1834 0.9684
7.5198 1.7038 -2.1827 0.9685
7.0900 3.0064 -2.1801 0.9685
6.0244 4.7574 -2.1731 0.9686
4.5321 6.1510 -2.1629 0.9687
3.9594 6.5180 -2.1590 0.9688
3.3569 6.8312 -2.1548 0.9689
2.7300 7.0884 -2.1504 0.9689
1.4238 7.4281 -2.1411 0.9690
-3.1347 6.7552 -2.1082 0.9695
-4.2658 6.0682 -2.0999 0.9696
-5.6884 4.7016 -2.0892 0.9698
-7.1205 1.7810 -2.0779 0.9699
-7.2469 1.1395 -2.0767 0.9700
-7.2870 -0.8152 -2.0758 0.9700
-7.1872 -1.4609 -2.0762 0.9700
-6.8214 -2.7149 -2.0784 0.9699
-5.8791 -4.4336 -2.0846 0.9699
-5.4684 -4.9459 -2.0873 0.9698
-3.9583 -6.2006 -2.0825 0.9699
-0.8495 -6.8972 -1.9673 0.9715
-0.2327 -6.9610 -1.9717 0.9715
0.3886 -6.9698 -1.9762 0.9714
2.2311 -6.6640 -1.9895 0.9712
2.8215 -6.4529 -1.9938 0.9711
5.7927 -5.0092 -2.1680 0.9687
6.2250 -4.4805 -2.1713 0.9686
7.2131 -2.6862 -2.1790 0.9685
7.4297 -2.0352 -2.1808 0.9685
7.6808 -0.6864 -2.1830 0.9685
7.0844 0.0000 -2.1790 0.9708
7.0564 0.6306 -2.1790 0.9708
6.6318 2.4697 -2.1767 0.9708
6.0789 3.6005 -2.1731 0.9709
5.7282 4.1229 -2.1708 0.9709
4.8936 5.0600 -2.1651 0.9710
4.4172 5.4672 -2.1619 0.9710
3.3665 6.1430 -2.1546 0.9711
2.8012 6.4065 -2.1506 0.9712
2.2156 6.6177 -2.1465 0.9712
1.6146 6.7751 -2.1422 0.9713
1.0031 6.8780 -2.1379 0.9713
-0.2313 6.9182 -2.1291 0.9714
-1.4483 6.7396 -2.1203 0.9716
-2.6098 6.3506 -2.1118 0.9717
-5.0485 4.5661 -2.0937 0.9719
-6.0530 3.0587 -2.0860 0.9720
-6.2954 2.5055 -2.0841 0.9720
-6.4885 1.9338 -2.0825 0.9721
-6.6309 1.3478 -2.0812 0.9721
-6.7604 0.1507 -2.0799 0.9721
-6.6805 -1.0504 -2.0800 0.9721
-6.5625 -1.6414 -2.0807 0.9721
-6.1745 -2.7821 -2.0830 0.9721
-5.9073 -3.3234 -2.0848 0.9720
-5.5936 -3.8398 -2.0868 0.9720
-5.2356 -4.3273 -2.0892 0.9720
-4.3973 -5.2012 -2.0949 0.9719
-3.4121 -5.9100 -2.0990 0.9718
-2.8713 -6.1875 -2.0981 0.9719
-2.2351 -6.2125 -2.0307 0.9727
-1.6303 -6.2230 -1.9787 0.9734
-1.0632 -6.3028 -1.9660 0.9736
0.0715 -6.4177 -1.9741 0.9735
1.2133 -6.3296 -1.9823 0.9734
2.3679 -6.1482 -2.0265 0.9728
2.9965 -6.0977 -2.0897 0.9720
3.6218 -5.9623 -2.1457 0.9712
4.1546 -5.6387 -2.1543 0.9711
4.6517 -5.2598 -2.1597 0.9710
5.1095 -4.8325 -2.1631 0.9710
5.5274 -4.3650 -2.1663 0.9710
5.9018 -3.8608 -2.1692 0.9709
6.2293 -3.3240 -2.1717 0.9709
7.0208 0.9442 -2.1789 0.9708
6.5130 2.7617 -2.1759 0.9708
5.5355 4.3714 -2.1695 0.9709
5.1178 4.8404 -2.1667 0.9710
2.5106 6.5187 -2.1486 0.9712
1.9167 6.7032 -2.1444 0.9712
0.0772 6.9288 -2.1313 0.9714
-0.5387 6.8938 -2.1269 0.9715
-1.7453 6.6617 -2.1181 0.9716
-2.3266 6.4669 -2.1139 0.9716
-2.8873 6.2221 -2.1098 0.9717
-3.4233 5.9293 -2.1059 0.9718
-4.8437 4.7900 -2.0953 0.9719
-6.1803 2.7847 -2.0850 0.9720
-6.5661 1.6423 -2.0818 0.9721
-6.7477 0.4517 -2.0801 0.9721
-6.7601 -0.1506 -2.0798 0.9721
-6.6279 -1.3472 -2.0803 0.9721
-6.4843 -1.9325 -2.0811 0.9721
-4.1645 -5.3960 -2.0965 0.9719
-3.1446 -6.0544 -2.0984 0.9719
-1.9289 -6.2182 -2.0025 0.9731
-0.2142 -6.4079 -1.9720 0.9735
0.3577 -6.4148 -1.9761 0.9735
0.9291 -6.3708 -1.9802 0.9734
3.8914 -5.8064 -2.1499 0.9712
4.8854 -5.0514 -2.1615 0.9710
5.3237 -4.6036 -2.1648 0.9710
5.7203 -4.1172 -2.1678 0.9709
6.0716 -3.5962 -2.1705 0.9709
6.8248 -1.8695 -2.1765 0.9708
6.5436 -0.0000 -2.1751 0.9728
6.4390 1.1600 -2.1748 0.9728
6.1261 2.2814 -2.1730 0.9728
5.8947 2.8157 -2.1715 0.9728
4.9268 4.2604 -2.1651 0.9729
4.5223 4.6760 -2.1623 0.9730
3.6111 5.3881 -2.1561 0.9730
3.1121 5.6789 -2.1526 0.9731
2.5899 5.9233 -2.1489 0.9731
2.0488 6.1195 -2.1451 0.9732
0.9279 6.3621 -2.1372 0.9733
0.3573 6.4072 -2.1331 0.9733
-0.2140 6.4013 -2.1290 0.9734
-1.3405 6.2380 -2.1209 0.9735
-1.8868 6.0825 -2.1169 0.9735
-2.4163 5.8797 -2.1130 0.9736
-3.8642 5.0070 -2.1024 0.9737
-4.6771 4.2302 -2.0963 0.9738
-5.8343 2.3220 -2.0873 0.9739
-6.0825 -1.5214 -2.0841 0.9739
-5.9256 -2.0576 -2.0851 0.9739
-5.7224 -2.5784 -2.0863 0.9739
-5.4744 -3.0798 -2.0879 0.9739
-5.1833 -3.5581 -2.0899 0.9738
-4.8512 -4.0096 -2.0921 0.9738
-4.4804 -4.4308 -2.0946 0.9738
-3.6339 -5.1693 -2.1004 0.9737
-2.1459 -5.9647 -2.1071 0.9736
0.0692 -6.2086 -2.0639 0.9742
0.6238 -6.2010 -2.0716 0.9741
1.1859 -6.1865 -2.0939 0.9738
2.3109 -6.0001 -2.1373 0.9733
2.8449 -5.7892 -2.1442 0.9732
3.3585 -5.5289 -2.1504 0.9731
4.7221 -4.4661 -2.1605 0.9730
5.4531 -3.5673 -2.1661 0.9729
5.7552 -3.0711 -2.1684 0.9729
6.5367 -0.2915 -2.1750 0.9728
6.3800 1.4455 -2.1745 0.9728
6.2233 2.0068 -2.1736 0.9728
6.0165 2.5512 -2.1723 0.9728
4.3066 4.8695 -2.1609 0.9730
3.8505 5.2259 -2.1577 0.9730
3.3648 5.5392 -2.1543 0.9731
2.3215 6.0275 -2.1470 0.9731
1.2115 6.3204 -2.1392 0.9732
-0.4985 6.3793 -2.1270 0.9734
-1.0623 6.2975 -2.1229 0.9734
-1.6155 6.1663 -2.1189 0.9735
-2.1539 5.9869 -2.1150 0.9735
-2.6734 5.7611 -2.1112 0.9736
-3.1701 5.4907 -2.1075 0.9736
-3.6402 5.1782 -2.1040 0.9737
-4.4871 4.4374 -2.0977 0.9737
-5.4801 3.0830 -2.0901 0.9738
-5.9297 2.0590 -2.0865 0.9739
-6.0856 1.5221 -2.0852 0.9739
-6.1940 0.9740 -2.0842 0.9739
-6.1432 -1.2487 -2.0838 0.9739
-5.8297 -2.3202 -2.0857 0.9739
-3.8577 -4.9986 -2.0988 0.9737
-3.4026 -5.3300 -2.1020 0.9737
-1.3322 -6.1995 -2.1078 0.9736
0.9037 -6.1960 -2.0814 0.9740
2.0383 -6.0880 -2.1341 0.9733
3.1053 -5.6665 -2.1479 0.9731
3.6045 -5.3783 -2.1522 0.9731
4.9198 -4.2543 -2.1620 0.9730
5.2857 -3.8044 -2.1648 0.9729
5.6098 -3.3227 -2.1673 0.9729
6.1214 -2.2796 -2.1713 0.9728
6.5165 -0.5823 -2.1747 0.9728
6.0731 -0.0000 -2.1718 0.9745
5.9760 1.0766 -2.1715 0.9745
5.6859 2.1175 -2.1698 0.9746
5.4715 2.6135 -2.1684 0.9746
5.2131 3.0877 -2.1667 0.9746
4.1989 4.3416 -2.1599 0.9747
3.3535 5.0038 -2.1541 0.9747
1.9034 5.6850 -2.1439 0.9749
1.3874 5.8220 -2.1403 0.9749
-1.2463 5.7998 -2.1214 0.9751
-2.2471 5.4681 -2.1141 0.9752
-3.1708 4.9670 -2.1073 0.9753
-3.5949 4.6581 -2.1042 0.9753
-4.6796 3.5291 -2.0960 0.9754
-4.9698 3.0952 -2.0938 0.9754
-5.5976 1.6683 -2.0888 0.9755
-5.7210 1.1628 -2.0877 0.9755
-5.7997 0.6488 -2.0869 0.9755
-5.8332 0.1300 -2.0865 0.9755
-5.8213 -0.3897 -2.0864 0.9755
-5.5159 -1.9153 -2.0881 0.9755
-5.3265 -2.4000 -2.0892 0.9755
-4.5147 -3.7315 -2.0946 0.9754
-3.7905 -4.4834 -2.0995 0.9754
-3.3809 -4.8094 -2.1023 0.9753
-2.4820 -5.3485 -2.1086 0.9753
-1.9993 -5.5571 -2.1120 0.9752
-1.4992 -5.7225 -2.1155 0.9752
-0.9849 -5.8391 -2.1176 0.9752
1.1224 -5.8556 -2.1321 0.9750
1.6432 -5.7467 -2.1374 0.9749
2.1525 -5.5888 -2.1417 0.9749
2.6458 -5.3841 -2.1453 0.9748
3.1196 -5.1355 -2.1488 0.9748
3.5698 -4.8450 -2.1521 0.9748
3.9927 -4.5146 -2.1553 0.9747
4.7423 -3.7450 -2.1609 0.9747
6.0672 0.2705 -2.1718 0.9745
6.0186 0.8094 -2.1717 0.9745
5.9213 1.3416 -2.1712 0.9745
5.7761 1.8626 -2.1703 0.9745
5.5843 2.3679 -2.1691 0.9746
5.3476 2.8536 -2.1676 0.9746
4.7482 3.7496 -2.1636 0.9746
3.9987 4.5215 -2.1585 0.9747
3.5756 4.8529 -2.1556 0.9747
1.6468 5.7593 -2.1421 0.9749
1.1257 5.8729 -2.1384 0.9749
0.0664 5.9583 -2.1309 0.9750
-2.0030 5.5675 -2.1159 0.9752
-2.9487 5.1073 -2.1090 0.9753
-3.3864 4.8172 -2.1057 0.9753
-3.7962 4.4901 -2.1027 0.9753
-4.8295 3.3153 -2.0948 0.9754
-5.1003 2.8694 -2.0927 0.9754
-5.3308 2.4020 -2.0909 0.9755
-5.8330 -0.1300 -2.0864 0.9755
-5.7187 -1.1624 -2.0869 0.9755
-5.5945 -1.6673 -2.0876 0.9755
-5.2161 -2.6358 -2.0899 0.9755
-4.9647 -3.0920 -2.0916 0.9755
-3.9839 -4.3074 -2.0982 0.9754
-3.5893 -4.6508 -2.1009 0.9754
-2.7157 -5.2286 -2.1069 0.9753
-2.2430 -5.4581 -2.1102 0.9752
-1.2435 -5.7868 -2.1167 0.9752
-0.7242 -5.8804 -2.1188 0.9751
-0.1983 -5.9297 -2.1217 0.9751
0.3309 -5.9340 -2.1253 0.9751
1.3838 -5.8068 -2.1347 0.9750
3.3479 -4.9954 -2.1505 0.9748
3.7849 -4.6846 -2.1537 0.9747
4.1927 -4.3353 -2.1568 0.9747
4.5680 -3.9501 -2.1596 0.9747
5.2077 -3.0845 -2.1645 0.9746
5.4667 -2.6112 -2.1665 0.9746
5.6819 -2.1160 -2.1682 0.9746
5.8515 -1.6029 -2.1696 0.9746
5.9738 -1.0762 -2.1707 0.9745
5.6595 -0.0000 -2.1688 0.9760
4.5795 3.2961 -2.1622 0.9761
3.9144 4.0474 -2.1578 0.9762
3.1268 4.6656 -2.1523 0.9762
2.6954 4.9185 -2.1493 0.9763
1.7753 5.3025 -2.1429 0.9763
-0.1856 5.5523 -2.1289 0.9765
-1.1633 5.4134 -2.1219 0.9766
-2.5400 4.8904 -2.1118 0.9767
-2.9609 4.6381 -2.1087 0.9767
-3.3572 4.3501 -2.1058 0.9767
-3.7262 4.0287 -2.1030 0.9768
-4.3713 3.2966 -2.0981 0.9768
-5.3454 1.0865 -2.0904 0.9769
-5.4505 0.1215 -2.0893 0.9769
-5.4394 -0.3641 -2.0892 0.9769
-5.3860 -0.8469 -2.0894 0.9769
-5.2905 -1.3233 -2.0899 0.9769
-4.9767 -2.2424 -2.0918 0.9769
-4.5068 -3.0937 -2.0949 0.9769
-3.8945 -3.8514 -2.0990 0.9768
-3.5403 -4.1875 -2.1014 0.9768
-3.1575 -4.4917 -2.1040 0.9768
-1.8666 -5.1884 -2.1130 0.9767
0.0618 -5.5493 -2.1267 0.9765
2.0078 -5.2131 -2.1408 0.9764
2.4677 -5.0215 -2.1441 0.9763
2.9092 -4.7892 -2.1474 0.9763
4.0878 -3.8662 -2.1562 0.9762
4.7190 -3.0870 -2.1610 0.9761
4.9797 -2.6572 -2.1630 0.9761
5.2006 -2.2053 -2.1647 0.9761
5.3798 -1.7348 -2.1662 0.9761
5.5158 -1.2497 -2.1673 0.9761
5.6087 0.7543 -2.1687 0.9760
5.5181 1.2502 -2.1682 0.9761
5.2044 2.2069 -2.1663 0.9761
4.9841 2.6596 -2.1649 0.9761
3.7280 4.2153 -2.1565 0.9762
2.9139 4.7969 -2.1508 0.9762
2.4718 5.0300 -2.1478 0.9763
2.0113 5.2222 -2.1445 0.9763
1.5361 5.3721 -2.1412 0.9763
1.0502 5.4786 -2.1377 0.9764
0.0619 5.5596 -2.1307 0.9765
-0.4324 5.5339 -2.1271 0.9765
-2.3214 5.0025 -2.1134 0.9767
-3.5453 4.1934 -2.1044 0.9768
-3.8996 3.8563 -2.1017 0.9768
-4.5115 3.0970 -2.0970 0.9768
-5.1569 1.7907 -2.0920 0.9769
-5.2929 1.3239 -2.0908 0.9769
-5.4401 0.3642 -2.0894 0.9769
-5.4503 -0.1215 -2.0892 0.9769
-5.4180 -0.6061 -2.0892 0.9769
-5.3435 -1.0861 -2.0896 0.9769
-5.2273 -1.5579 -2.0903 0.9769
-3.7212 -4.0233 -2.1002 0.9768
-2.9563 -4.6309 -2.1054 0.9767
0.8029 -5.5053 -2.1320 0.9764
1.2919 -5.4209 -2.1356 0.9764
2.2398 -5.1225 -2.1425 0.9763
3.1219 -4.6583 -2.1490 0.9763
3.5291 -4.3681 -2.1520 0.9762
3.9090 -4.0419 -2.1548 0.9762
4.2585 -3.6825 -2.1575 0.9762
4.8542 -2.8751 -2.1620 0.9761
5.4533 -1.4938 -2.1668 0.9761
5.5672 -1.0030 -2.1678 0.9761
5.6361 -0.5037 -2.1685 0.9761
5.2927 -0.0000 -2.1662 0.9774
5.2082 0.9383 -2.1659 0.9774
4.5446 2.6918 -2.1618 0.9774
3.9885 3.4490 -2.1581 0.9775
2.0997 4.8021 -2.1450 0.9776
1.2114 5.0834 -2.1388 0.9777
0.2900 5.2016 -2.1322 0.9777
-0.1738 5.1987 -2.1289 0.9778
-0.6348 5.1545 -2.1256 0.9778
-1.0894 5.0697 -2.1223 0.9778
-1.5340 4.9451 -2.1190 0.9779
-2.3795 4.5813 -2.1128 0.9779
-2.7740 4.3454 -2.1099 0.9780
-3.1456 4.0759 -2.1072 0.9780
-3.8094 3.4454 -2.1022 0.9780
-4.0967 3.0895 -2.1000 0.9781
-4.3513 2.7101 -2.0981 0.9781
-4.7557 1.8927 -2.0949 0.9781
-4.9024 1.4611 -2.0937 0.9781
-2.1261 0.2378 -0.8756 0.9908
-2.1285 0.0474 -0.8714 0.9908
-2.1345 -0.3356 -0.8843 0.9907
-2.1308 -0.5330 -0.8989 0.9906
-4.8311 -1.6775 -2.0930 0.9781
-4.2241 -2.8997 -2.0970 0.9781
-3.6498 -3.6093 -2.1008 0.9781
-2.9586 -4.2087 -2.1056 0.9780
-2.1712 -4.6788 -2.1110 0.9780
-1.7486 -4.8602 -2.1140 0.9779
-0.4042 -5.1727 -2.1235 0.9778
0.0579 -5.1962 -2.1268 0.9778
0.9813 -5.1196 -2.1335 0.9777
3.1147 -4.2274 -2.1491 0.9776
3.8243 -3.6170 -2.1544 0.9775
4.1356 -3.2658 -2.1567 0.9775
4.4142 -2.8877 -2.1589 0.9775
5.0316 -1.6225 -2.1637 0.9774
5.1586 -1.1688 -2.1648 0.9774
5.2440 -0.7053 -2.1656 0.9774
5.2872 -0.2358 -2.1661 0.9774
5.2876 0.2358 -2.1662 0.9774
5.2453 0.7054 -2.1661 0.9774
5.1606 1.1692 -2.1657 0.9774
5.0344 1.6234 -2.1649 0.9774
4.6617 2.4875 -2.1625 0.9774
4.4185 2.8905 -2.1609 0.9774
3.8290 3.6214 -2.1570 0.9775
2.7265 4.4885 -2.1494 0.9776
0.9830 5.1284 -2.1371 0.9777
0.0580 5.2053 -2.1305 0.9778
-0.4049 5.1817 -2.1272 0.9778
-2.1746 4.6861 -2.1144 0.9779
-2.5794 4.4677 -2.1114 0.9780
-2.9628 4.2147 -2.1085 0.9780
-4.4659 2.5125 -2.0972 0.9781
-2.1302 0.1426 -0.8738 0.9908
-2.1261 -0.2378 -0.8756 0.9908
-4.9000 -1.4604 -2.0926 0.9781
-4.5680 -2.3083 -2.0947 0.9781
-4.3474 -2.7076 -2.0961 0.9781
-0.6337 -5.1456 -2.1219 0.9778
-0.1735 -5.1896 -2.1252 0.9778
0.2895 -5.1926 -2.1285 0.9778
1.6588 -4.9545 -2.1384 0.9777
3.9839 -3.4450 -2.1556 0.9775
4.2791 -3.0799 -2.1578 0.9775
4.5405 -2.6894 -2.1598 0.9774
5.1002 -1.3971 -2.1643 0.9774
5.2066 -0.9380 -2.1652 0.9774
4.9453 0.4419 -2.1639 0.9786
4.8858 0.8802 -2.1636 0.9786
4.6493 1.7314 -2.1622 0.9786
4.4745 2.1373 -2.1611 0.9786
3.7424 3.2362 -2.1562 0.9786
2.3673 4.3197 -2.1468 0.9787
1.9708 4.5074 -2.1440 0.9788
1.5597 4.6587 -2.1411 0.9788
0.7070 4.8477 -2.1351 0.9789
0.2723 4.8843 -2.1320 0.9789
-0.1632 4.8820 -2.1288 0.9789
-1.4409 4.6451 -2.1196 0.9790
-1.8461 4.4922 -2.1166 0.9790
-2.2356 4.3042 -2.1138 0.9791
-2.6064 4.0829 -2.1110 0.9791
-2.9558 3.8300 -2.1085 0.9791
-3.2812 3.5476 -2.1060 0.9791
-3.8503 2.9037 -2.1017 0.9792
-1.9300 0.3923 -0.8583 0.9914
-1.9433 0.2174 -0.8522 0.9915
-1.9470 0.0434 -0.8487 0.9915
-1.9479 -0.1304 -0.8508 0.9915
-1.9080 -0.4772 -0.8571 0.9915
-4.3851 -1.9758 -2.0961 0.9792
-4.1943 -2.3597 -2.0974 0.9792
-3.7151 -3.0706 -2.1005 0.9792
-3.4302 -3.3922 -2.1025 0.9792
-3.1178 -3.6878 -2.1046 0.9791
-1.2315 -4.7006 -2.1178 0.9790
-0.8094 -4.7984 -2.1207 0.9790
1.3476 -4.7128 -2.1362 0.9788
1.7642 -4.5806 -2.1393 0.9788
2.9233 -3.9675 -2.1478 0.9787
3.2687 -3.6960 -2.1504 0.9787
3.5887 -3.3942 -2.1528 0.9787
4.1418 -2.7094 -2.1570 0.9786
4.3701 -2.3319 -2.1587 0.9786
4.5635 -1.9351 -2.1603 0.9786
4.7204 -1.5221 -2.1615 0.9786
4.8394 -1.0965 -2.1625 0.9786
4.9194 -0.6616 -2.1633 0.9786
4.9598 -0.2212 -2.1637 0.9786
4.9602 0.2212 -2.1639 0.9786
4.3735 2.3338 -2.1604 0.9786
4.1455 2.7119 -2.1589 0.9786
2.5589 4.2126 -2.1481 0.9787
2.1711 4.4181 -2.1454 0.9787
0.9229 4.8148 -2.1366 0.9788
-0.3803 4.8663 -2.1273 0.9789
-1.6453 4.5731 -2.1181 0.9790
-2.0430 4.4025 -2.1152 0.9790
-2.4235 4.1976 -2.1124 0.9791
-2.7839 3.9602 -2.1097 0.9791
-3.1217 3.6923 -2.1072 0.9791
-3.4341 3.3961 -2.1049 0.9791
-3.7189 3.0738 -2.1027 0.9792
-4.1976 2.3615 -2.0990 0.9792
-1.9080 0.4772 -0.8571 0.9915
-1.9479 0.1304 -0.8508 0.9915
-1.9470 -0.0434 -0.8487 0.9915
-1.9433 -0.2174 -0.8522 0.9915
-1.9300 -0.3923 -0.8583 0.9914
-4.4677 -1.7781 -2.0956 0.9792
-4.2939 -2.1698 -2.0967 0.9792
-3.8466 -2.9008 -2.0997 0.9792
-2.9520 -3.8250 -2.1057 0.9791
-2.6028 -4.0773 -2.1082 0.9791
-2.2323 -4.2980 -2.1107 0.9791
-0.5953 -4.8331 -2.1223 0.9790
0.2719 -4.8763 -2.1285 0.9789
0.7059 -4.8398 -2.1316 0.9789
1.1355 -4.7647 -2.1347 0.9789
1.5573 -4.6514 -2.1378 0.9788
2.3638 -4.3135 -2.1437 0.9788
3.0990 -3.8357 -2.1491 0.9787
3.4321 -3.5488 -2.1516 0.9787
3.7383 -3.2327 -2.1539 0.9787
4.0151 -2.8899 -2.1560 0.9786
4.2601 -2.5233 -2.1579 0.9786
4.7847 -1.3107 -2.1621 0.9786
4.8843 -0.8799 -2.1629 0.9786
4.9446 -0.4419 -2.1635 0.9786
4.6516 0.4157 -2.1617 0.9796
4.5026 1.2334 -2.1610 0.9796
4.2090 2.0105 -2.1591 0.9796
4.0110 2.3757 -2.1578 0.9797
3.5208 3.0446 -2.1546 0.9797
2.9197 3.6137 -2.1505 0.9797
2.2277 4.0650 -2.1457 0.9798
1.4680 4.3847 -2.1403 0.9798
0.2564 4.5982 -2.1317 0.9799
-0.9636 4.4840 -2.1230 0.9800
-1.3570 4.3746 -2.1201 0.9800
-1.7387 4.2308 -2.1173 0.9800
-2.1057 4.0541 -2.1146 0.9801
-2.4552 3.8459 -2.1120 0.9801
-3.3730 3.0507 -2.1052 0.9802
-3.8537 2.4001 -2.1015 0.9802
-4.0491 2.0461 -2.1000 0.9802
-1.5257 0.6072 -0.7601 0.9928
-1.6675 0.1865 -0.7767 0.9926
-1.6165 -0.4043 -0.7713 0.9927
-1.5621 -0.5424 -0.7654 0.9927
-4.1323 -1.8619 -2.0980 0.9802
-3.5005 -2.8933 -2.1021 0.9802
-3.2319 -3.1961 -2.1040 0.9802
-2.9374 -3.4744 -2.1060 0.9801
-1.9215 -4.1408 -2.1130 0.9801
-0.3575 -4.5748 -2.1241 0.9800
0.4606 -4.5783 -2.1299 0.9799
1.6605 -4.3115 -2.1386 0.9798
2.0403 -4.1520 -2.1414 0.9798
2.7509 -3.7335 -2.1466 0.9798
3.0757 -3.4778 -2.1491 0.9797
3.3766 -3.1936 -2.1513 0.9797
4.6652 -0.2080 -2.1616 0.9796
4.6283 0.6225 -2.1616 0.9796
4.2955 1.8214 -2.1597 0.9796
4.1141 2.1954 -2.1585 0.9797
3.8998 2.5511 -2.1571 0.9797
3.3802 3.1970 -2.1536 0.9797
2.7543 3.7382 -2.1493 0.9797
2.4080 3.9641 -2.1469 0.9798
1.6629 4.3177 -2.1417 0.9798
1.2704 4.4428 -2.1389 0.9798
0.4613 4.5853 -2.1332 0.9799
-0.7634 4.5256 -2.1244 0.9800
-1.5495 4.3069 -2.1187 0.9800
-1.9242 4.1465 -2.1160 0.9801
-2.2828 3.9539 -2.1133 0.9801
-2.9408 3.4784 -2.1084 0.9801
-3.7445 2.5704 -2.1024 0.9802
-3.9553 2.2252 -2.1007 0.9802
-1.6165 0.4043 -0.7713 0.9927
-1.6738 0.1120 -0.7765 0.9926
-1.6716 -0.0372 -0.7739 0.9927
-1.6675 -0.1865 -0.7767 0.9926
-1.5924 -0.4746 -0.7692 0.9927
-1.5257 -0.6072 -0.7601 0.9928
-4.0463 -2.0447 -2.0985 0.9802
-3.6245 -2.7333 -2.1013 0.9802
-3.3696 -3.0476 -2.1030 0.9802
-2.7811 -3.6036 -2.1070 0.9801
-2.4520 -3.8410 -2.1093 0.9801
-2.1028 -4.0486 -2.1118 0.9801
-1.7362 -4.2248 -2.1143 0.9801
-1.3550 -4.3681 -2.1170 0.9800
-0.9621 -4.4773 -2.1198 0.9800
-0.5605 -4.5512 -2.1226 0.9800
0.2560 -4.5911 -2.1285 0.9799
1.8522 -4.2360 -2.1400 0.9798
2.5803 -3.8501 -2.1454 0.9798
3.5173 -3.0415 -2.1524 0.9797
4.0078 -2.3738 -2.1561 0.9797
4.3710 -1.6278 -2.1590 0.9797
4.5007 -1.2329 -2.1601 0.9796
4.5943 -0.8277 -2.1609 0.9796
4.4031 -0.0000 -2.1598 0.9806
4.3329 0.7806 -2.1596 0.9806
4.2452 1.1629 -2.1591 0.9806
3.9686 1.8956 -2.1574 0.9806
2.4368 3.6360 -2.1470 0.9807
2.1012 3.8342 -2.1447 0.9807
1.7496 4.0014 -2.1422 0.9807
1.3848 4.1363 -2.1397 0.9808
0.6279 4.3055 -2.1343 0.9808
0.2419 4.3387 -2.1315 0.9808
-1.2808 4.1290 -2.1206 0.9809
-1.9877 3.8271 -2.1154 0.9810
-2.3178 3.6308 -2.1130 0.9810
-2.6289 3.4064 -2.1106 0.9810
-2.9187 3.1556 -2.1085 0.9810
-3.1849 2.8806 -2.1065 0.9810
-3.4257 2.5834 -2.1046 0.9811
-3.6392 2.2665 -2.1030 0.9811
-1.3059 0.5198 -0.6895 0.9938
-1.3419 0.1501 -0.6624 0.9940
-1.3536 0.0302 -0.6641 0.9940
-1.3513 -0.0904 -0.6643 0.9940
-1.3257 -0.2085 -0.6583 0.9940
-1.3171 -0.4573 -0.6839 0.9938
-3.3056 -2.7321 -2.1036 0.9811
-3.0518 -3.0179 -2.1053 0.9811
-2.7735 -3.2805 -2.1072 0.9810
-2.4730 -3.5178 -2.1093 0.9810
-1.4606 -4.0597 -2.1163 0.9810
-0.7194 -4.2649 -2.1216 0.9809
0.0483 -4.3360 -2.1271 0.9809
0.4346 -4.3202 -2.1298 0.9808
0.8185 -4.2699 -2.1326 0.9808
1.1968 -4.1854 -2.1353 0.9808
1.5665 -4.0674 -2.1380 0.9808
1.9247 -3.9166 -2.1407 0.9807
2.5946 -3.5214 -2.1456 0.9807
3.1844 -3.0118 -2.1500 0.9807
3.4430 -2.7189 -2.1520 0.9806
3.6743 -2.4036 -2.1537 0.9806
3.8765 -2.0686 -2.1553 0.9806
4.0478 -1.7164 -2.1566 0.9806
4.2920 -0.9724 -2.1587 0.9806
4.3636 0.5869 -2.1597 0.9806
4.0501 1.7174 -2.1579 0.9806
3.8792 2.0700 -2.1568 0.9806
3.4461 2.7214 -2.1539 0.9806
2.2712 3.7389 -2.1459 0.9807
1.5687 4.0730 -2.1410 0.9807
0.8196 4.2760 -2.1357 0.9808
0.4352 4.3264 -2.1329 0.9808
-1.0963 4.1846 -2.1219 0.9809
-1.8164 3.9142 -2.1166 0.9810
-2.1550 3.7326 -2.1142 0.9810
-2.7766 3.2842 -2.1095 0.9810
-3.0548 3.0210 -2.1075 0.9810
-3.5359 2.4273 -2.1038 0.9811
-3.7352 2.1014 -2.1022 0.9811
-1.2865 0.5797 -0.6922 0.9937
-1.3171 0.4573 -0.6839 0.9938
-1.3513 0.0905 -0.6643 0.9940
-3.4227 -2.5812 -2.1028 0.9811
-3.1818 -2.8778 -2.1044 0.9811
-2.3150 -3.6264 -2.1104 0.9810
-1.9852 -3.8222 -2.1127 0.9810
-1.6390 -3.9883 -2.1151 0.9810
-0.9081 -4.2259 -2.1202 0.9809
0.6270 -4.2993 -2.1312 0.9808
1.7473 -3.9961 -2.1394 0.9808
2.0985 -3.8293 -2.1419 0.9807
3.0456 -3.1491 -2.1490 0.9807
3.3170 -2.8683 -2.1510 0.9807
3.5622 -2.5639 -2.1529 0.9806
3.9661 -1.8944 -2.1560 0.9806
4.1213 -1.5348 -2.1572 0.9806
4.2436 -1.1624 -2.1582 0.9806
4.1599 -0.0000 -2.1581 0.9814
4.1434 0.3703 -2.1581 0.9814
4.0108 1.0987 -2.1574 0.9814
3.5735 2.1166 -2.1546 0.9815
3.3688 2.4247 -2.1533 0.9815
2.6022 3.2207 -2.1481 0.9815
1.9859 3.6239 -2.1438 0.9816
1.6537 3.7821 -2.1415 0.9816
0.9547 4.0062 -2.1365 0.9816
0.2287 4.1020 -2.1314 0.9817
-0.1371 4.1011 -2.1287 0.9817
-0.5010 4.0676 -2.1261 0.9817
-0.8600 4.0020 -2.1235 0.9817
-1.5522 3.7771 -2.1185 0.9818
-1.1266 0.3358 -0.6099 0.9947
-1.1785 0.0263 -0.6115 0.9947
-1.1739 -0.0786 -0.6103 0.9947
-1.1198 -0.3888 -0.6150 0.9947
-3.3429 -2.2947 -2.1035 0.9819
-3.1275 -2.5849 -2.1049 0.9819
-2.8872 -2.8552 -2.1066 0.9819
-2.6239 -3.1035 -2.1084 0.9819
-1.7158 -3.6975 -2.1146 0.9818
-0.6803 -4.0333 -2.1219 0.9817
-0.3190 -4.0828 -2.1245 0.9817
1.1314 -3.9568 -2.1350 0.9816
1.4808 -3.8449 -2.1375 0.9816
1.8193 -3.7022 -2.1400 0.9816
2.4522 -3.3282 -2.1446 0.9815
2.7415 -3.0998 -2.1468 0.9815
3.0093 -2.8462 -2.1488 0.9815
3.2535 -2.5692 -2.1507 0.9815
3.6628 -1.9546 -2.1538 0.9815
3.8245 -1.6217 -2.1551 0.9815
4.0550 -0.9187 -2.1570 0.9814
4.1556 -0.1853 -2.1580 0.9814
4.1558 0.1853 -2.1581 0.9814
4.1226 0.5544 -2.1580 0.9814
4.0563 0.9190 -2.1577 0.9814
3.9573 1.2761 -2.1571 0.9814
3.2563 2.5715 -2.1525 0.9815
3.0122 2.8489 -2.1509 0.9815
2.7443 3.1030 -2.1490 0.9815
2.1465 3.5337 -2.1449 0.9815
1.8216 3.7068 -2.1426 0.9816
1.1329 3.9620 -2.1378 0.9816
0.7749 4.0423 -2.1353 0.9816
-0.6813 4.0388 -2.1248 0.9817
-1.0368 3.9573 -2.1222 0.9817
-1.1198 0.3889 -0.6150 0.9947
-1.1332 -0.2303 -0.5999 0.9948
-1.0665 -0.5390 -0.6199 0.9946
-3.2384 -2.4422 -2.1042 0.9819
-3.0104 -2.7227 -2.1057 0.9819
-2.7583 -2.9823 -2.1074 0.9819
-2.4841 -3.2188 -2.1093 0.9818
-1.8778 -3.6155 -2.1135 0.9818
-1.5503 -3.7723 -2.1158 0.9818
-1.2097 -3.8997 -2.1182 0.9818
0.2284 -4.0964 -2.1284 0.9817
1.6516 -3.7774 -2.1387 0.9816
2.3003 -3.4323 -2.1435 0.9816
3.1345 -2.7105 -2.1498 0.9815
3.3660 -2.4227 -2.1515 0.9815
3.7474 -1.7900 -2.1545 0.9815
3.8940 -1.4501 -2.1556 0.9814
4.0094 -1.0983 -2.1566 0.9814
4.0926 -0.7373 -2.1573 0.9814
4.1429 -0.3702 -2.1578 0.9814
2.0036 0.3610 -1.1150 0.9908
1.9715 0.7342 -1.1522 0.9905
3.5492 1.6953 -2.1543 0.9822
3.3825 2.0035 -2.1532 0.9822
2.9699 2.5682 -2.1505 0.9823
2.1804 3.2534 -2.1450 0.9823
1.8803 3.4312 -2.1430 0.9823
1.5659 3.5812 -2.1408 0.9823
1.2396 3.7024 -2.1385 0.9824
0.5622 3.8549 -2.1337 0.9824
-0.8146 3.7911 -2.1238 0.9825
-1.1475 3.6993 -2.1214 0.9825
-1.4706 3.5785 -2.1190 0.9825
-2.0774 3.2542 -2.1145 0.9825
-2.6165 2.8289 -2.1105 0.9826
-2.8554 2.5826 -2.1087 0.9826
-3.0716 2.3164 -2.1071 0.9826
-3.2633 2.0324 -2.1056 0.9826
-0.9825 0.2928 -0.5615 0.9953
-1.0376 -0.0694 -0.5696 0.9953
-1.0166 -0.1599 -0.5637 0.9953
-0.9847 -0.2463 -0.5559 0.9954
-0.9472 -0.4268 -0.5690 0.9953
-0.9240 -0.5198 -0.5806 0.9952
-3.1683 -2.1749 -2.1048 0.9826
-1.9292 -3.3414 -2.1132 0.9826
-1.6257 -3.5034 -2.1154 0.9825
-0.9809 -3.7442 -2.1199 0.9825
-0.6445 -3.8209 -2.1223 0.9825
-0.3022 -3.8675 -2.1247 0.9825
0.0433 -3.8836 -2.1272 0.9824
0.3892 -3.8688 -2.1297 0.9824
0.7329 -3.8233 -2.1321 0.9824
1.7227 -3.5056 -2.1394 0.9823
2.0300 -3.3419 -2.1416 0.9823
2.5955 -2.9348 -2.1458 0.9823
2.8489 -2.6945 -2.1477 0.9823
3.0799 -2.4322 -2.1495 0.9823
2.0041 -0.4541 -1.1255 0.9907
2.0226 -0.2720 -1.1178 0.9907
2.0434 0.0911 -1.1203 0.9907
2.0042 0.4541 -1.1255 0.9907
1.9895 0.6415 -1.1449 0.9905
1.9407 0.8229 -1.1546 0.9904
2.8515 2.6969 -2.1497 0.9823
2.5980 2.9377 -2.1479 0.9823
1.7247 3.5098 -2.1419 0.9823
0.7338 3.8282 -2.1349 0.9824
0.0433 3.8886 -2.1300 0.9824
-0.6453 3.8258 -2.1250 0.9825
-1.6277 3.5075 -2.1179 0.9825
-2.4890 2.9440 -2.1115 0.9826
-2.7387 2.7084 -2.1096 0.9826
-2.9665 2.4519 -2.1079 0.9826
-0.9240 0.5198 -0.5806 0.9952
-0.9472 0.4268 -0.5690 0.9953
-0.9756 0.3388 -0.5656 0.9953
-1.0376 0.0695 -0.5696 0.9953
-1.0293 -0.1151 -0.5673 0.9953
-1.0000 -0.2032 -0.5589 0.9954
-0.9364 -0.4732 -0.5746 0.9952
-3.2611 -2.0310 -2.1042 0.9826
-2.3541 -3.0502 -2.1103 0.9826
-1.7793 -3.4258 -2.1143 0.9825
-1.4688 -3.5742 -2.1165 0.9825
-0.8136 -3.7862 -2.1211 0.9825
-0.4739 -3.8480 -2.1235 0.9825
1.2380 -3.6978 -2.1358 0.9824
1.5640 -3.5770 -2.1382 0.9824
1.8782 -3.4272 -2.1405 0.9823
2.1780 -3.2498 -2.1427 0.9823
2.7249 -2.8175 -2.1468 0.9823
2.9674 -2.5660 -2.1486 0.9823
3.1864 -2.2934 -2.1503 0.9823
3.3803 -2.0021 -2.1518 0.9822
3.5472 -1.6943 -2.1531 0.9822
1.9714 -0.7342 -1.1522 0.9905
2.0036 -0.3610 -1.1150 0.9908
1.8754 -0.0000 -1.0828 0.9914
1.8700 0.1671 -1.0839 0.9914
1.7194 0.8213 -1.1001 0.9912
3.2069 1.8995 -2.1519 0.9829
3.0234 2.1761 -2.1507 0.9829
2.8159 2.4350 -2.1493 0.9830
1.7831 3.2538 -2.1422 0.9830
1.4850 3.3963 -2.1401 0.9830
1.1756 3.5114 -2.1379 0.9830
0.5333 3.6565 -2.1334 0.9831
0.2055 3.6854 -2.1310 0.9831
-0.1232 3.6850 -2.1287 0.9831
-1.9714 3.0881 -2.1152 0.9832
-2.4832 2.6848 -2.1114 0.9833
-2.9154 2.1986 -2.1082 0.9833
-0.8491 0.5288 -0.5776 0.9954
-0.8760 0.4427 -0.5667 0.9955
-0.8932 0.3555 -0.5550 0.9956
-0.9120 0.1854 -0.5373 0.9957
-0.9273 -0.0621 -0.5366 0.9957
-0.9189 -0.1445 -0.5370 0.9957
-0.9030 -0.2258 -0.5374 0.9957
-0.8983 -0.3119 -0.5490 0.9956
-0.8858 -0.3991 -0.5609 0.9955
-0.8638 -0.4860 -0.5722 0.9954
-3.0073 -2.0644 -2.1060 0.9833
-2.8133 -2.3253 -2.1073 0.9833
-2.5970 -2.5682 -2.1087 0.9833
-2.3599 -2.7913 -2.1104 0.9833
-1.8308 -3.1710 -2.1140 0.9832
-1.2420 -3.4521 -2.1181 0.9832
-0.2867 -3.6693 -2.1249 0.9831
0.6952 -3.6266 -2.1319 0.9831
1.0163 -3.5542 -2.1343 0.9831
1.3300 -3.4534 -2.1366 0.9831
1.9252 -3.1693 -2.1409 0.9830
2.2017 -2.9882 -2.1430 0.9830
2.7014 -2.5549 -2.1467 0.9830
3.1161 -2.0385 -2.1499 0.9829
1.7564 -0.7448 -1.1014 0.9912
1.8108 -0.5839 -1.0985 0.9913
1.8755 -0.0836 -1.0839 0.9914
1.8755 0.0836 -1.0839 0.9914
1.8592 0.2500 -1.0831 0.9914
1.8108 0.5839 -1.0985 0.9913
1.7564 0.7448 -1.1014 0.9912
1.6861 0.8997 -1.1034 0.9912
2.9226 2.3079 -2.1500 0.9829
2.4635 2.7855 -2.1469 0.9830
2.2039 2.9912 -2.1451 0.9830
1.0175 3.5585 -2.1368 0.9831
0.6960 3.6310 -2.1345 0.9831
-0.9319 3.5569 -2.1229 0.9832
-1.5445 3.3282 -2.1184 0.9832
-1.8327 3.1744 -2.1163 0.9832
-2.3621 2.7940 -2.1123 0.9832
-2.8155 2.3271 -2.1089 0.9833
-3.0094 2.0658 -2.1074 0.9833
-0.8638 0.4860 -0.5722 0.9954
-0.8984 0.3119 -0.5490 0.9956
-0.9030 0.2259 -0.5374 0.9957
-0.9189 0.1445 -0.5370 0.9957
-0.9120 -0.1854 -0.5373 0.9957
-0.9012 -0.2686 -0.5429 0.9957
-0.8932 -0.3555 -0.5550 0.9956
-0.8760 -0.4426 -0.5667 0.9955
-2.7079 -2.4491 -2.1080 0.9833
-2.2342 -2.8949 -2.1112 0.9833
-1.6885 -3.2509 -2.1150 0.9832
-1.3938 -3.3916 -2.1171 0.9832
-0.7720 -3.5925 -2.1214 0.9832
-0.4496 -3.6508 -2.1237 0.9832
-0.1231 -3.6804 -2.1261 0.9831
0.2052 -3.6808 -2.1284 0.9831
0.5326 -3.6520 -2.1308 0.9831
0.8565 -3.5940 -2.1331 0.9831
1.1743 -3.5073 -2.1354 0.9831
1.4833 -3.3925 -2.1377 0.9830
1.7812 -3.2503 -2.1399 0.9830
2.5838 -2.6716 -2.1458 0.9830
3.2049 -1.8982 -2.1505 0.9829
1.7869 -0.6654 -1.1009 0.9912
1.8426 -0.3320 -1.0810 0.9914
