ply
format ascii 1.0
element vertex 1338
property float32 x
property float32 y
property float32 z
property float32 I
end_header
-15.5446 11.7227 -1.8692 0.9247
-18.1665 -6.3081 -1.8462 0.9256
18.9816 1.6962 -2.2637 0.9261
17.8025 6.6297 -2.2566 0.9263
17.1072 8.1714 -2.2520 0.9265
-11.8329 10.7022 -1.8952 0.9378
-12.8910 9.7215 -1.9179 0.9370
-15.2003 7.6811 -2.0230 0.9337
-16.2556 4.8447 -2.0149 0.9340
-16.8177 1.8813 -2.0102 0.9341
-16.9098 0.3768 -2.0092 0.9341
-16.7142 -2.6282 -2.0098 0.9341
-16.0171 -5.5617 -2.0140 0.9340
17.5211 -2.3564 -2.1000 0.9313
19.0364 -0.8489 -2.2635 0.9261
19.0401 0.8490 -2.2639 0.9261
18.5670 4.2067 -2.2614 0.9262
16.7064 8.9148 -2.2494 0.9266
15.8041 10.3385 -2.2433 0.9267
14.7751 11.6678 -2.2363 0.9270
13.6302 12.8913 -2.2285 0.9272
11.4945 12.9970 -2.0610 0.9325
10.2491 13.9102 -2.0524 0.9328
-11.3650 11.2391 -1.8986 0.9376
-14.0539 9.6475 -2.0249 0.9336
-16.0373 5.5688 -2.0166 0.9339
-16.7242 2.6297 -2.0110 0.9341
-16.9084 -0.3768 -2.0090 0.9341
-16.8105 -1.8805 -2.0093 0.9341
-16.5866 -3.3714 -2.0105 0.9341
-15.5830 -6.2019 -1.9922 0.9347
-14.0876 -7.1188 -1.8749 0.9384
-13.4293 -8.3638 -1.8793 0.9383
17.0172 -4.6615 -2.0959 0.9314
17.3895 -3.1329 -2.0989 0.9313
15.5569 2.8027 -2.2397 0.9381
14.2090 6.7871 -2.2311 0.9384
13.5207 8.0083 -2.2266 0.9385
12.7235 9.1578 -2.2212 0.9386
11.8253 10.2257 -2.2151 0.9388
10.8350 11.2033 -2.2083 0.9390
9.2996 11.5103 -2.0967 0.9420
6.8793 12.5531 -2.0282 0.9438
-8.2807 10.7296 -1.9204 0.9467
-13.3481 5.3124 -2.0356 0.9436
-14.2774 -0.9558 -2.0275 0.9438
-13.8960 -3.4756 -2.0296 0.9438
-13.5461 -4.7037 -2.0318 0.9437
-11.6403 -6.5487 -1.8924 0.9475
-11.0348 -7.5750 -1.8964 0.9474
13.4526 -5.7044 -2.0704 0.9427
13.9317 -4.4924 -2.0741 0.9426
14.9401 -3.3850 -2.1705 0.9400
15.7977 -0.7044 -2.2406 0.9381
15.6708 2.1075 -2.2404 0.9381
15.4106 3.4916 -2.2389 0.9382
14.5101 6.1528 -2.2331 0.9383
13.8789 7.4060 -2.2290 0.9384
13.1353 8.5927 -2.2240 0.9386
11.3411 10.7263 -2.2118 0.9389
10.2921 11.6375 -2.2012 0.9392
8.5393 11.5897 -2.0397 0.9435
-6.8143 11.8027 -1.9310 0.9464
-7.8085 11.1077 -1.9238 0.9466
-13.1100 5.9071 -2.0374 0.9436
-13.5605 4.7087 -2.0339 0.9437
-13.9070 3.4784 -2.0312 0.9437
-14.1474 2.2246 -2.0292 0.9438
-14.2805 0.9559 -2.0279 0.9438
-14.2223 -1.5910 -2.0277 0.9438
-13.7342 -4.0932 -2.0306 0.9437
-13.3321 -5.3060 -2.0331 0.9437
-11.3487 -7.0680 -1.8943 0.9474
13.1715 -6.2915 -2.0682 0.9427
13.7062 -5.1042 -2.0723 0.9426
15.7470 -1.4072 -2.2401 0.9381
12.1393 5.7985 -2.2162 0.9469
11.5547 6.8439 -2.2124 0.9470
10.8773 7.8290 -2.2078 0.9471
10.1134 8.7454 -2.2026 0.9472
9.2706 9.5857 -2.1968 0.9474
8.3566 10.3431 -2.1905 0.9475
7.2199 10.7729 -2.1364 0.9488
5.8951 10.7573 -2.0208 0.9515
4.8974 11.2006 -2.0138 0.9517
3.8671 11.5505 -2.0066 0.9518
-2.5015 11.6412 -1.9615 0.9529
-4.4930 10.9330 -1.9473 0.9532
-5.4294 10.4534 -1.9405 0.9534
-6.3172 9.8958 -1.9341 0.9535
-9.2967 8.4083 -2.0650 0.9505
-9.9836 7.5290 -2.0599 0.9506
-11.5513 4.5973 -2.0481 0.9508
-11.8989 3.5462 -2.0454 0.9509
-12.3872 0.2760 -2.0412 0.9510
-12.3621 -0.8275 -2.0411 0.9510
-12.0302 -3.0090 -2.0429 0.9510
-11.3308 -5.1054 -2.0474 0.9509
-8.9428 -7.3914 -1.9113 0.9541
10.4061 -6.8074 -2.0485 0.9508
11.4939 -4.8739 -2.0567 0.9506
12.7750 -4.1194 -2.2113 0.9470
13.1504 -2.9795 -2.2213 0.9468
13.3746 -1.7987 -2.2232 0.9468
13.3801 1.7994 -2.2241 0.9467
13.1593 2.9815 -2.2228 0.9468
10.5057 8.2963 -2.2053 0.9472
9.7014 9.1755 -2.1998 0.9473
4.3857 11.3873 -2.0103 0.9517
2.2803 11.8963 -1.9955 0.9521
-4.9668 10.7033 -1.9438 0.9533
-5.8798 10.1840 -1.9373 0.9534
-6.8343 9.7219 -1.9577 0.9530
-8.1049 9.5865 -2.0681 0.9504
-8.9247 8.8258 -2.0678 0.9504
-9.6498 7.9758 -2.0624 0.9505
-10.2974 7.0687 -2.0576 0.9506
-10.8632 6.1115 -2.0534 0.9507
-11.3439 5.1113 -2.0497 0.9508
-11.7364 4.0753 -2.0467 0.9509
-12.0384 3.0110 -2.0443 0.9509
-12.2482 1.9259 -2.0425 0.9510
-12.1481 -2.4692 -2.0422 0.9510
-11.8893 -3.5434 -2.0438 0.9510
-11.5393 -4.5925 -2.0460 0.9509
-9.9862 -6.2195 -1.9381 0.9534
-9.2531 -6.9781 -1.9092 0.9541
10.7109 -6.3441 -2.0508 0.9508
11.2555 -5.3763 -2.0549 0.9507
11.9270 -4.4417 -2.0967 0.9497
12.9974 -3.5604 -2.2201 0.9468
13.2762 -2.3918 -2.2223 0.9468
13.4454 -1.2015 -2.2238 0.9467
11.7225 1.0475 -2.2121 0.9532
11.5787 2.0860 -2.2114 0.9532
11.3397 3.1063 -2.2099 0.9533
10.5859 5.0564 -2.2051 0.9534
9.4899 6.8304 -2.1977 0.9535
8.0933 8.3684 -2.1882 0.9537
4.4200 10.1089 -2.0738 0.9561
3.3830 10.1044 -2.0029 0.9576
2.4622 10.3319 -1.9964 0.9577
1.5278 10.4754 -1.9898 0.9578
0.5874 10.5345 -1.9832 0.9580
-0.3514 10.5096 -1.9765 0.9581
-1.2811 10.4017 -1.9699 0.9582
-5.0412 9.7059 -2.0557 0.9565
-6.7708 8.7732 -2.0830 0.9559
-7.5054 8.1148 -2.0776 0.9560
-8.1784 7.3969 -2.0727 0.9561
-8.7853 6.6253 -2.0682 0.9562
-10.4796 3.1232 -2.0554 0.9565
-10.7064 2.1762 -2.0535 0.9565
-10.8509 1.2139 -2.0523 0.9565
-10.9124 0.2432 -2.0516 0.9565
-10.8903 -0.7290 -2.0515 0.9565
-10.3273 -3.5860 -2.0548 0.9565
-7.8700 -6.5048 -1.9191 0.9593
-7.2752 -7.1945 -1.9232 0.9592
7.8475 -7.4221 -2.0302 0.9570
8.4969 -6.7099 -2.0350 0.9569
11.1760 -3.6038 -2.2072 0.9533
11.4642 -2.5975 -2.2094 0.9533
11.7568 -0.5243 -2.2120 0.9532
11.6626 1.5685 -2.2118 0.9532
11.4710 2.5990 -2.2107 0.9533
11.1851 3.6067 -2.2090 0.9533
10.8078 4.5829 -2.2065 0.9533
10.3425 5.5189 -2.2035 0.9534
9.7939 6.4069 -2.1998 0.9535
8.4680 8.0090 -2.1908 0.9537
2.9248 10.2286 -1.9996 0.9576
1.9962 10.4142 -1.9931 0.9578
0.1173 10.5325 -1.9798 0.9580
-2.6430 10.0881 -1.9602 0.9584
-3.5190 9.7814 -1.9539 0.9586
-4.5080 9.7146 -2.0130 0.9573
-5.5484 9.6101 -2.0858 0.9558
-7.8499 7.7630 -2.0751 0.9561
-8.4904 7.0175 -2.0704 0.9562
-9.0626 6.2212 -2.0662 0.9562
-9.5630 5.3801 -2.0624 0.9563
-10.3357 3.5889 -2.0565 0.9564
-10.7011 -2.1751 -2.0525 0.9565
-10.4722 -3.1210 -2.0539 0.9565
-9.7743 -4.9392 -2.0584 0.9564
-7.5802 -6.8559 -1.9211 0.9593
-6.2736 -8.1290 -1.9300 0.9591
8.1802 -7.0737 -2.0327 0.9569
8.7969 -6.3317 -2.0372 0.9568
9.3442 -5.5346 -2.0413 0.9568
10.2621 -4.9018 -2.1376 0.9548
11.5732 -2.0850 -2.2103 0.9533
11.7197 -1.0473 -2.2116 0.9532
10.2518 1.8470 -2.2019 0.9583
8.9279 5.2880 -2.1934 0.9585
8.4084 6.0520 -2.1899 0.9585
7.1745 7.4183 -2.1815 0.9587
1.4222 9.7512 -2.0830 0.9605
-2.0848 9.7019 -2.0976 0.9602
-4.5760 8.8104 -2.0986 0.9602
-6.6917 7.2350 -2.0832 0.9605
-7.2936 6.5967 -2.0788 0.9606
-8.3172 5.1800 -2.0712 0.9607
-9.0785 3.6132 -2.0654 0.9608
-9.3543 2.7879 -2.0633 0.9609
-9.6874 1.0837 -2.0605 0.9609
-9.7425 0.2171 -2.0599 0.9609
-9.7229 -0.6509 -2.0598 0.9609
-8.9059 -4.0128 -2.0648 0.9609
-8.5237 -4.7954 -2.0673 0.9608
-6.4885 -6.4166 -1.9289 0.9634
-5.9039 -6.9831 -1.9329 0.9633
-5.2708 -7.4978 -1.9373 0.9632
-4.5936 -7.9563 -1.9420 0.9631
-3.8771 -8.3550 -1.9470 0.9630
5.6535 -7.6731 -2.0146 0.9618
8.2277 -5.3823 -2.0782 0.9606
9.1388 -4.8766 -2.1896 0.9585
9.8974 -3.1915 -2.1982 0.9584
10.4092 -0.4642 -2.2025 0.9583
10.4103 0.4642 -2.2027 0.9583
10.3259 1.3887 -2.2023 0.9583
9.5717 4.0587 -2.1976 0.9584
7.5056 7.0988 -2.1837 0.9586
5.3265 8.7687 -2.1687 0.9589
4.5131 9.1839 -2.1630 0.9590
1.8740 9.7764 -2.1042 0.9601
-0.7588 9.7108 -2.0589 0.9610
-4.1846 9.0176 -2.1014 0.9602
-5.6876 8.0907 -2.0905 0.9604
-7.5727 6.2591 -2.0767 0.9606
-8.0850 5.5500 -2.0729 0.9607
-8.5330 4.8006 -2.0696 0.9608
-8.9140 4.0164 -2.0667 0.9608
-9.2253 3.2034 -2.0643 0.9609
-9.6850 -1.0834 -2.0600 0.9609
-9.3484 -2.7861 -2.0620 0.9609
-9.0711 -3.6102 -2.0637 0.9609
-8.7233 -4.4081 -2.0660 0.9608
-8.3074 -5.1740 -2.0688 0.9608
-7.8171 -5.8952 -2.0696 0.9608
-6.8767 -6.2196 -1.9599 0.9628
-6.2025 -6.7061 -1.9309 0.9633
-5.5931 -7.2472 -1.9351 0.9633
-4.9374 -7.7343 -1.9396 0.9632
6.6497 -6.8757 -2.0219 0.9616
7.2510 -6.2702 -2.0263 0.9616
7.7957 -5.6110 -2.0303 0.9615
9.3663 -4.4739 -2.1941 0.9585
9.7400 -3.6272 -2.1970 0.9584
10.2476 -1.8462 -2.2010 0.9583
9.3022 0.8312 -2.1950 0.9624
9.1888 1.6554 -2.1943 0.9624
8.4058 4.0151 -2.1894 0.9624
7.5408 5.4275 -2.1836 0.9625
5.8072 7.1877 -2.1717 0.9627
5.1334 7.6595 -2.1671 0.9628
1.3143 9.0116 -2.1403 0.9633
0.5057 9.0685 -2.1346 0.9634
-1.8929 8.8089 -2.1176 0.9637
-5.4385 7.0468 -2.0920 0.9641
-6.5755 5.9471 -2.0837 0.9642
-7.0664 5.3290 -2.0801 0.9643
-7.5009 4.6716 -2.0768 0.9643
-7.8762 3.9800 -2.0740 0.9644
-8.7411 0.9778 -2.0672 0.9645
-8.7911 0.1959 -2.0666 0.9645
-8.7734 -0.5873 -2.0666 0.9645
-8.6880 -1.3662 -2.0670 0.9645
-8.3172 -2.8881 -2.0692 0.9645
-8.0343 -3.6201 -2.0711 0.9644
-7.2826 -4.9993 -2.0761 0.9644
-6.8190 -5.6361 -2.0792 0.9643
-6.2691 -6.1997 -2.0722 0.9644
-4.1387 -7.1685 -1.9454 0.9666
-2.1130 -8.0654 -1.9595 0.9663
-1.3904 -8.2428 -1.9646 0.9662
2.3290 -8.1450 -1.9910 0.9658
3.0526 -7.9260 -1.9962 0.9657
5.0749 -6.8878 -2.0107 0.9655
7.0795 -5.5906 -2.1201 0.9636
7.7666 -5.0807 -2.1812 0.9626
8.5738 -3.6356 -2.1887 0.9625
9.2524 -1.2443 -2.1941 0.9624
9.3296 -0.4160 -2.1948 0.9624
9.2550 1.2447 -2.1947 0.9624
8.2139 4.3830 -2.1881 0.9625
7.7808 5.0900 -2.1852 0.9625
6.7331 6.3681 -2.1781 0.9626
6.1279 6.9289 -2.1739 0.9627
4.7817 7.8718 -2.1646 0.9629
3.2944 8.5537 -2.1543 0.9630
2.5136 8.7905 -2.1488 0.9631
1.7167 8.9559 -2.1432 0.9632
0.9103 9.0491 -2.1375 0.9633
-2.2805 8.7045 -2.1148 0.9637
-3.0383 8.4452 -2.1094 0.9638
-4.4657 7.7348 -2.0991 0.9640
-5.1247 7.2900 -2.0943 0.9640
-6.8277 5.6433 -2.0818 0.9643
-7.6962 4.3298 -2.0754 0.9644
-8.0409 3.6230 -2.0728 0.9644
-8.3227 2.8899 -2.0706 0.9644
-8.5398 2.1359 -2.0689 0.9645
-8.7745 0.5874 -2.0668 0.9645
-8.7391 -0.9776 -2.0667 0.9645
-8.4346 -2.5138 -2.0685 0.9645
-8.1837 -3.2570 -2.0701 0.9645
-7.8691 -3.9765 -2.0721 0.9644
-7.4930 -4.6667 -2.0746 0.9644
-6.5571 -5.9306 -2.0779 0.9643
-5.0411 -6.5319 -1.9392 0.9667
-4.4491 -6.9693 -1.9432 0.9666
-3.8196 -7.3541 -1.9476 0.9665
-3.1574 -7.6831 -1.9522 0.9664
-2.4671 -7.9532 -1.9571 0.9664
1.2177 -8.3494 -1.9831 0.9659
2.6930 -8.0436 -1.9936 0.9657
3.4070 -7.7920 -1.9987 0.9657
4.7576 -7.0989 -2.0084 0.9655
5.9669 -6.1698 -2.0172 0.9653
7.5102 -5.4055 -2.1747 0.9627
8.3982 -4.0115 -2.1874 0.9625
8.7321 -3.2519 -2.1899 0.9624
8.9953 -2.4641 -2.1920 0.9624
8.4534 0.0000 -2.1887 0.9657
8.4196 0.7524 -2.1887 0.9657
8.3172 1.4984 -2.1881 0.9657
8.1470 2.2317 -2.1871 0.9657
7.9106 2.9459 -2.1856 0.9657
7.6101 3.6350 -2.1836 0.9658
7.2484 4.2932 -2.1812 0.9658
6.8287 4.9150 -2.1784 0.9658
5.8308 6.0290 -2.1716 0.9659
5.2615 6.5122 -2.1677 0.9660
4.6519 6.9412 -2.1635 0.9661
4.0074 7.3125 -2.1590 0.9661
3.3333 7.6235 -2.1543 0.9662
0.4589 8.2295 -2.1341 0.9665
-0.2747 8.2177 -2.1289 0.9666
-1.0026 8.1407 -2.1237 0.9667
-2.4186 7.7967 -2.1136 0.9668
-3.0958 7.5331 -2.1087 0.9669
-3.7456 7.2116 -2.1041 0.9670
-4.9444 6.4067 -2.0954 0.9671
-6.4278 4.8474 -2.0845 0.9673
-6.8241 4.2501 -2.0815 0.9673
-8.0014 0.1783 -2.0722 0.9675
-7.5692 -2.6283 -2.0746 0.9674
-7.3111 -3.2942 -2.0763 0.9674
-6.9959 -3.9358 -2.0783 0.9674
-6.6257 -4.5483 -2.0808 0.9673
-4.3735 -6.2213 -1.9690 0.9691
-2.5582 -7.1107 -1.9566 0.9693
-1.9196 -7.3269 -1.9611 0.9692
-0.5929 -7.5871 -1.9704 0.9690
0.0850 -7.6282 -1.9752 0.9690
1.4432 -7.5289 -1.9849 0.9688
2.7683 -7.1879 -1.9943 0.9687
4.0169 -6.6128 -2.0033 0.9685
4.5992 -6.2421 -2.0075 0.9685
6.0692 -5.7402 -2.1629 0.9661
7.0382 -4.6042 -2.1776 0.9658
7.4300 -3.9648 -2.1805 0.9658
7.7624 -3.2915 -2.1830 0.9658
8.0322 -2.5901 -2.1851 0.9657
8.2370 -1.8663 -2.1868 0.9657
8.4451 0.3766 -2.1888 0.9657
8.3769 1.1266 -2.1885 0.9657
8.2405 1.8670 -2.1877 0.9657
8.0369 2.5916 -2.1864 0.9657
7.7682 3.2940 -2.1847 0.9657
7.0456 4.6090 -2.1799 0.9658
6.5982 5.2105 -2.1769 0.9659
5.5515 6.2772 -2.1697 0.9660
4.9614 6.7337 -2.1656 0.9660
4.3337 7.1342 -2.1613 0.9661
3.6737 7.4757 -2.1567 0.9662
2.9871 7.7557 -2.1519 0.9662
0.8260 8.2109 -2.1367 0.9665
0.0917 8.2318 -2.1315 0.9666
-0.6398 8.1873 -2.1263 0.9666
-2.0713 7.9060 -2.1161 0.9668
-2.7603 7.6723 -2.1111 0.9669
-3.4244 7.3794 -2.1064 0.9669
-4.0588 7.0301 -2.1018 0.9670
-5.7383 5.6747 -2.0896 0.9672
-6.6325 4.5530 -2.0830 0.9673
-7.0021 3.9393 -2.0802 0.9673
-7.3166 3.2967 -2.0778 0.9674
-7.7719 1.9439 -2.0743 0.9674
-7.9862 0.5346 -2.0724 0.9675
-8.0010 -0.1783 -2.0721 0.9675
-7.9540 -0.8898 -2.0723 0.9675
-7.6763 -2.2878 -2.0739 0.9674
-7.4474 -2.9640 -2.0754 0.9674
-6.8175 -4.2460 -2.0795 0.9674
-4.7921 -6.2093 -2.0308 0.9681
-3.4718 -6.6844 -1.9502 0.9694
-2.8692 -6.9819 -1.9544 0.9693
-0.9291 -7.5441 -1.9680 0.9691
-0.2546 -7.6152 -1.9728 0.9690
0.4252 -7.6262 -1.9776 0.9689
3.7143 -6.7778 -2.0011 0.9686
4.3121 -6.4341 -2.0054 0.9685
5.6278 -5.8191 -2.0960 0.9671
7.6039 -3.6321 -2.1818 0.9658
7.9053 -2.9440 -2.1841 0.9657
8.3143 -1.4979 -2.1874 0.9657
8.4182 -0.7523 -2.1883 0.9657
7.6822 0.6865 -2.1834 0.9684
6.2331 4.4863 -2.1741 0.9686
5.8012 5.0165 -2.1712 0.9686
4.8047 5.9468 -2.1643 0.9687
4.2488 6.3396 -2.1605 0.9688
3.6607 6.6800 -2.1564 0.9688
1.7549 7.3639 -2.1431 0.9690
1.0901 7.4745 -2.1384 0.9691
0.4196 7.5252 -2.1336 0.9692
-0.2513 7.5159 -2.1289 0.9692
-0.9172 7.4471 -2.1242 0.9693
-2.2134 7.1352 -2.1149 0.9694
-2.8337 6.8954 -2.1104 0.9695
-5.0239 5.4318 -2.0946 0.9697
-5.4787 4.9551 -2.0912 0.9698
-5.8894 4.4414 -2.0882 0.9698
-6.2532 3.8945 -2.0855 0.9698
-7.1941 1.4623 -2.0782 0.9699
-7.2927 0.8158 -2.0774 0.9700
-7.3347 0.1635 -2.0769 0.9700
-7.2485 -1.1398 -2.0772 0.9700
-7.1209 -1.7811 -2.0780 0.9699
-6.9379 -2.4091 -2.0791 0.9699
-6.0716 -4.1679 -2.0848 0.9698
-5.2504 -5.1922 -2.0904 0.9698
-4.7749 -5.6477 -2.0937 0.9697
-2.9059 -6.2622 -1.9544 0.9717
-1.1555 -6.8501 -1.9666 0.9715
1.9311 -6.7535 -1.9885 0.9712
2.5300 -6.5690 -1.9928 0.9712
4.3982 -5.9693 -2.0990 0.9696
5.0514 -5.7117 -2.1586 0.9688
6.4246 -4.2028 -2.1734 0.9686
7.0841 -3.0039 -2.1783 0.9685
7.3297 -2.3635 -2.1802 0.9685
7.6415 -1.0277 -2.1827 0.9685
7.7048 -0.3436 -2.1834 0.9684
7.5190 1.7036 -2.1825 0.9685
7.0889 3.0060 -2.1798 0.9685
5.5679 5.2661 -2.1696 0.9686
5.0691 5.7317 -2.1661 0.9687
3.9585 6.5165 -2.1585 0.9688
3.3562 6.8297 -2.1543 0.9689
2.7295 7.0869 -2.1499 0.9689
0.0839 7.5280 -2.1313 0.9692
-0.5852 7.4889 -2.1265 0.9693
-1.8954 7.2345 -2.1172 0.9694
-2.5263 7.0221 -2.1126 0.9695
-3.1348 6.7554 -2.1083 0.9695
-4.7810 5.6550 -2.0963 0.9697
-5.2566 5.1983 -2.0929 0.9697
-6.0773 4.1718 -2.0868 0.9698
-6.7055 3.0213 -2.0821 0.9699
-7.2504 1.1401 -2.0778 0.9699
-7.3345 -0.1634 -2.0769 0.9700
-7.2913 -0.8157 -2.0770 0.9700
-7.0363 -2.0971 -2.0785 0.9699
-6.8261 -2.7167 -2.0798 0.9699
-5.4725 -4.9496 -2.0889 0.9698
-3.9585 -6.2009 -2.0826 0.9699
-3.2306 -6.2201 -1.9842 0.9713
-2.6267 -6.3918 -1.9563 0.9717
-2.0516 -6.6138 -1.9603 0.9716
-0.8501 -6.9023 -1.9688 0.9715
2.2325 -6.6680 -1.9907 0.9712
2.8231 -6.4566 -1.9949 0.9711
4.7800 -5.9163 -2.1532 0.9689
5.3130 -5.4936 -2.1635 0.9687
5.7947 -5.0108 -2.1687 0.9687
6.2268 -4.4818 -2.1719 0.9686
6.9398 -3.3148 -2.1772 0.9685
7.4304 -2.0354 -2.1810 0.9685
7.6810 -0.6864 -2.1831 0.9684
7.0845 -0.0000 -2.1790 0.9708
6.9706 1.2558 -2.1785 0.9708
6.6311 2.4695 -2.1764 0.9708
6.3802 3.0475 -2.1748 0.9708
5.7272 4.1222 -2.1704 0.9709
5.3310 4.6099 -2.1677 0.9709
4.8928 5.0591 -2.1647 0.9710
3.9059 5.8280 -2.1579 0.9711
3.3658 6.1419 -2.1542 0.9711
1.6144 6.7741 -2.1419 0.9713
0.3861 6.9249 -2.1333 0.9714
-0.2313 6.9176 -2.1289 0.9714
-2.6099 6.3508 -2.1119 0.9717
-3.1589 6.0819 -2.1079 0.9717
-4.1726 5.4066 -2.1006 0.9718
-4.6299 5.0058 -2.0973 0.9719
-5.0496 4.5671 -2.0942 0.9719
-5.4288 4.0940 -2.0914 0.9719
-5.7647 3.5903 -2.0889 0.9720
-6.0551 3.0598 -2.0867 0.9720
-6.2978 2.5065 -2.0848 0.9720
-6.6339 1.3484 -2.0822 0.9721
-6.7251 0.7523 -2.0814 0.9721
-6.7640 0.1507 -2.0810 0.9721
-6.6844 -1.0511 -2.0812 0.9721
-6.1786 -2.7840 -2.0844 0.9720
-5.9113 -3.3256 -2.0862 0.9720
-4.8394 -4.7858 -2.0934 0.9719
-3.9259 -5.5847 -2.0997 0.9718
-2.2352 -6.2128 -2.0308 0.9727
-1.6304 -6.2232 -1.9787 0.9734
-1.0639 -6.3073 -1.9674 0.9736
1.2140 -6.3335 -1.9835 0.9734
2.9966 -6.0979 -2.0898 0.9720
3.6234 -5.9649 -2.1466 0.9712
4.1563 -5.6410 -2.1551 0.9711
5.1113 -4.8342 -2.1639 0.9710
5.5291 -4.3663 -2.1670 0.9709
6.2306 -3.3248 -2.1722 0.9709
6.7333 -2.1712 -2.1760 0.9708
6.9041 -1.5643 -2.1774 0.9708
7.0770 -0.3156 -2.1789 0.9708
7.0776 0.3156 -2.1791 0.9708
6.9066 1.5648 -2.1782 0.9708
6.7366 2.1723 -2.1771 0.9708
6.5122 2.7614 -2.1757 0.9708
5.9085 3.8652 -2.1716 0.9709
4.1651 5.6529 -2.1597 0.9710
3.0861 6.2800 -2.1522 0.9711
2.5102 6.5176 -2.1482 0.9712
1.3097 6.8325 -2.1398 0.9713
0.0772 6.9281 -2.1311 0.9714
-1.7452 6.6615 -2.1181 0.9716
-2.8875 6.2224 -2.1099 0.9717
-3.9309 5.5918 -2.1024 0.9718
-4.8446 4.7910 -2.0957 0.9719
-5.2445 4.3347 -2.0927 0.9719
-6.4007 2.2226 -2.0840 0.9720
-6.5690 1.6430 -2.0827 0.9721
-6.6860 1.0513 -2.0817 0.9721
-6.7637 -0.1507 -2.0809 0.9721
-6.7239 -0.7522 -2.0810 0.9721
-6.6319 -1.3480 -2.0815 0.9721
-6.2942 -2.5050 -2.0837 0.9720
-6.0509 -3.0576 -2.0852 0.9720
-5.7601 -3.5874 -2.0872 0.9720
-5.4238 -4.0903 -2.0894 0.9720
-4.6246 -5.0001 -2.0949 0.9719
-3.1468 -6.0586 -2.0999 0.9718
-2.5505 -6.2063 -2.0638 0.9723
-1.3425 -6.2474 -1.9654 0.9736
-0.7827 -6.3548 -1.9694 0.9736
0.3579 -6.4191 -1.9774 0.9735
0.9297 -6.3748 -1.9815 0.9734
1.4965 -6.2795 -1.9855 0.9733
2.6776 -6.1239 -2.0558 0.9724
3.3236 -6.0648 -2.1271 0.9715
5.3254 -4.6051 -2.1655 0.9710
5.7219 -4.1184 -2.1684 0.9709
6.0730 -3.5971 -2.1710 0.9709
7.0552 -0.6305 -2.1787 0.9708
6.5177 0.5824 -2.1752 0.9728
6.4388 1.1600 -2.1747 0.9728
6.3077 1.7278 -2.1740 0.9728
6.1256 2.2812 -2.1728 0.9728
5.8942 2.8154 -2.1713 0.9728
5.6154 3.3260 -2.1694 0.9729
4.9261 4.2598 -2.1648 0.9729
3.1117 5.6781 -2.1523 0.9731
1.4931 6.2653 -2.1409 0.9732
0.3572 6.4067 -2.1329 0.9733
-4.6782 4.2311 -2.0967 0.9738
-5.0299 3.7933 -2.0941 0.9738
-5.3417 3.3268 -2.0918 0.9738
-5.6111 2.8354 -2.0898 0.9738
-6.1485 1.2497 -2.0856 0.9739
-6.2693 0.1397 -2.0845 0.9739
-6.2567 -0.4189 -2.0844 0.9739
-5.9292 -2.0589 -2.0864 0.9739
-5.4780 -3.0819 -2.0893 0.9739
-4.4835 -4.4338 -2.0960 0.9738
-3.6364 -5.1729 -2.1018 0.9737
-2.6700 -5.7538 -2.1085 0.9736
-2.1473 -5.9686 -2.1085 0.9736
-1.0464 -6.2032 -2.0911 0.9738
-0.4851 -6.2079 -2.0698 0.9741
1.1859 -6.1868 -2.0940 0.9738
2.3120 -6.0031 -2.1383 0.9732
4.7237 -4.4677 -2.1612 0.9730
5.1093 -4.0348 -2.1641 0.9729
6.0125 -2.5495 -2.1708 0.9728
6.2201 -2.0057 -2.1724 0.9728
6.3776 -1.4450 -2.1737 0.9728
6.5370 -0.2915 -2.1751 0.9728
6.4848 0.8721 -2.1750 0.9728
6.2229 2.0066 -2.1734 0.9728
6.0159 2.5510 -2.1721 0.9728
5.4590 3.5711 -2.1684 0.9729
5.1140 4.0385 -2.1661 0.9729
4.7285 4.4722 -2.1634 0.9729
4.3059 4.8688 -2.1605 0.9730
2.8533 5.8062 -2.1505 0.9731
2.3211 6.0267 -2.1467 0.9731
0.6429 6.3904 -2.1349 0.9733
0.0714 6.4101 -2.1309 0.9733
-0.4985 6.3789 -2.1269 0.9734
-3.1704 5.4913 -2.1077 0.9736
-3.6407 5.1789 -2.1043 0.9737
-4.4880 4.4383 -2.0981 0.9737
-4.8589 4.0160 -2.0954 0.9738
-5.1910 3.5634 -2.0929 0.9738
-5.9320 2.0598 -2.0873 0.9739
-6.2573 0.4189 -2.0846 0.9739
-6.2691 -0.1397 -2.0844 0.9739
-6.1468 -1.2494 -2.0850 0.9739
-5.0256 -3.7900 -2.0923 0.9738
-4.2843 -4.6322 -2.0974 0.9738
-3.8604 -5.0021 -2.1003 0.9737
-3.4050 -5.3338 -2.1034 0.9737
-1.3323 -6.1998 -2.1079 0.9736
1.4712 -6.1735 -2.1096 0.9736
2.0393 -6.0911 -2.1352 0.9733
2.5812 -5.9033 -2.1417 0.9732
3.1067 -5.6690 -2.1488 0.9731
4.0772 -5.0464 -2.1565 0.9730
4.5168 -4.6704 -2.1597 0.9730
5.2872 -3.8055 -2.1654 0.9729
5.6111 -3.3235 -2.1678 0.9729
6.1224 -2.2800 -2.1717 0.9728
6.3052 -1.7272 -2.1731 0.9728
6.4371 -1.1597 -2.1742 0.9728
6.0491 0.5405 -2.1718 0.9745
5.9759 1.0766 -2.1714 0.9745
5.6856 2.1173 -2.1696 0.9746
5.4711 2.6133 -2.1682 0.9746
5.2126 3.0875 -2.1665 0.9746
4.9126 3.5359 -2.1645 0.9746
4.5735 3.9549 -2.1622 0.9746
3.3531 5.0031 -2.1538 0.9747
2.8901 5.2738 -2.1506 0.9748
1.3873 5.8214 -2.1401 0.9749
0.8622 5.9116 -2.1364 0.9749
0.3320 5.9544 -2.1326 0.9750
-0.1989 5.9498 -2.1289 0.9750
-2.2473 5.4685 -2.1143 0.9752
-2.7207 5.2383 -2.1108 0.9752
-3.9905 4.3144 -2.1016 0.9753
-4.9713 3.0962 -2.0944 0.9754
-5.2225 2.6390 -2.0925 0.9754
-5.4325 2.1621 -2.0909 0.9755
-5.7234 1.1633 -2.0886 0.9755
-5.8023 0.6491 -2.0879 0.9755
-5.8244 -0.3899 -2.0875 0.9755
-5.7673 -0.9069 -2.0878 0.9755
-5.6653 -1.4170 -2.0884 0.9755
-4.8273 -3.3137 -2.0939 0.9754
-4.5177 -3.7339 -2.0959 0.9754
-2.9456 -5.1020 -2.1068 0.9753
-1.5002 -5.7262 -2.1168 0.9752
-0.9855 -5.8427 -2.1189 0.9751
-0.4621 -5.9141 -2.1214 0.9751
1.1230 -5.8587 -2.1333 0.9750
1.6440 -5.7496 -2.1385 0.9749
2.1535 -5.5916 -2.1428 0.9749
2.6470 -5.3866 -2.1463 0.9748
3.5712 -4.8470 -2.1530 0.9747
5.0639 -3.3126 -2.1639 0.9746
5.5810 -2.3665 -2.1678 0.9746
5.9194 -1.3412 -2.1705 0.9745
6.0670 -0.2705 -2.1718 0.9745
6.0186 0.8094 -2.1717 0.9745
5.9212 1.3416 -2.1711 0.9745
5.7759 1.8625 -2.1702 0.9745
5.0677 3.3151 -2.1656 0.9746
4.3902 4.1523 -2.1610 0.9747
3.9983 4.5209 -2.1583 0.9747
3.5752 4.8523 -2.1553 0.9747
3.1246 5.1438 -2.1522 0.9748
1.1256 5.8724 -2.1382 0.9749
0.5975 5.9389 -2.1345 0.9750
-0.4634 5.9298 -2.1270 0.9750
-0.9876 5.8547 -2.1233 0.9751
-2.9490 5.1079 -2.1092 0.9753
-3.3869 4.8179 -2.1060 0.9753
-3.7968 4.4909 -2.1030 0.9753
-5.1019 2.8703 -2.0934 0.9754
-5.3327 2.4028 -2.0917 0.9755
-5.5216 1.9173 -2.0902 0.9755
-5.6672 1.4175 -2.0890 0.9755
-5.7685 0.9071 -2.0882 0.9755
-5.2193 -2.6375 -2.0912 0.9755
-4.3492 -3.9336 -2.0971 0.9754
-3.1677 -4.9621 -2.1052 0.9753
-2.7175 -5.2321 -2.1083 0.9753
-1.7523 -5.6490 -2.1151 0.9752
0.3311 -5.9373 -2.1265 0.9751
3.3493 -4.9975 -2.1514 0.9748
4.5694 -3.9513 -2.1603 0.9747
4.9086 -3.5331 -2.1628 0.9746
5.2090 -3.0853 -2.1650 0.9746
5.4678 -2.6118 -2.1670 0.9746
5.8523 -1.6031 -2.1699 0.9746
6.0484 -0.5405 -2.1716 0.9745
5.6598 -0.0000 -2.1689 0.9760
5.6373 0.5037 -2.1689 0.9760
5.5691 1.0033 -2.1685 0.9761
5.4560 1.4945 -2.1679 0.9761
5.2989 1.9733 -2.1669 0.9761
4.8585 2.8777 -2.1640 0.9761
4.5791 3.2959 -2.1621 0.9761
4.2634 3.6867 -2.1599 0.9761
3.5340 4.3740 -2.1549 0.9762
2.2434 5.1309 -2.1460 0.9763
1.2941 5.4305 -2.1393 0.9764
-0.1856 5.5522 -2.1289 0.9765
-0.6779 5.5045 -2.1254 0.9765
-1.1633 5.4135 -2.1219 0.9766
-1.6379 5.2800 -2.1185 0.9766
-2.5403 4.8909 -2.1120 0.9767
-3.7270 4.0296 -2.1034 0.9768
-4.0660 3.6775 -2.1009 0.9768
-4.3725 3.2974 -2.0987 0.9768
-4.8790 2.4655 -2.0949 0.9769
-5.0754 2.0200 -2.0934 0.9769
-5.3888 -0.8474 -2.0905 0.9769
-5.2934 -1.3240 -2.0910 0.9769
-5.1567 -1.7906 -2.0919 0.9769
-4.7634 -2.6798 -2.0945 0.9769
-4.5096 -3.0957 -2.0962 0.9768
-4.2201 -3.4880 -2.0981 0.9768
-3.8970 -3.8538 -2.1003 0.9768
-3.5426 -4.1902 -2.1027 0.9768
-3.1596 -4.4945 -2.1054 0.9767
-2.7507 -4.7643 -2.1082 0.9767
-2.3190 -4.9973 -2.1112 0.9767
-1.4005 -5.3455 -2.1176 0.9766
-0.9206 -5.4576 -2.1210 0.9766
1.0488 -5.4715 -2.1350 0.9764
1.5341 -5.3651 -2.1384 0.9764
2.4688 -5.0239 -2.1451 0.9763
2.9105 -4.7913 -2.1483 0.9763
4.4221 -3.4921 -2.1593 0.9762
5.3807 -1.7351 -2.1666 0.9761
5.5166 -1.2499 -2.1676 0.9761
5.6079 -0.7542 -2.1684 0.9761
5.6543 0.2521 -2.1690 0.9760
5.6089 0.7543 -2.1688 0.9760
5.5181 1.2502 -2.1682 0.9761
5.3829 1.7357 -2.1674 0.9761
5.2042 2.2068 -2.1663 0.9761
3.7276 4.2149 -2.1563 0.9762
3.3335 4.5242 -2.1536 0.9762
2.4716 5.0296 -2.1476 0.9763
-0.4324 5.5338 -2.1271 0.9765
-0.9217 5.4644 -2.1236 0.9765
-1.4022 5.3520 -2.1202 0.9766
-1.8700 5.1977 -2.1169 0.9766
-2.3216 5.0030 -2.1136 0.9767
-3.1628 4.4991 -2.1075 0.9767
-3.5460 4.1942 -2.1047 0.9767
-3.9004 3.8572 -2.1022 0.9768
-4.2234 3.4908 -2.0998 0.9768
-4.5128 3.0978 -2.0976 0.9768
-4.7663 2.6814 -2.0957 0.9768
-4.9821 2.2448 -2.0941 0.9769
-5.1588 1.7913 -2.0927 0.9769
-5.2950 1.3244 -2.0917 0.9769
-5.3899 0.8475 -2.0909 0.9769
-5.4208 -0.6064 -2.0903 0.9769
-5.3464 -1.0867 -2.0907 0.9769
-5.2302 -1.5588 -2.0914 0.9769
-5.0731 -2.0191 -2.0924 0.9769
-4.8763 -2.4641 -2.0937 0.9769
-4.6411 -2.8905 -2.0953 0.9769
-4.3692 -3.2950 -2.0971 0.9768
-4.0626 -3.6744 -2.0992 0.9768
-3.3545 -4.3466 -2.1040 0.9768
-2.9582 -4.6339 -2.1068 0.9767
-2.5375 -4.8855 -2.1097 0.9767
-2.0956 -5.0994 -2.1128 0.9767
-1.6359 -5.2737 -2.1160 0.9766
-1.1619 -5.4069 -2.1193 0.9766
-0.6771 -5.4977 -2.1227 0.9766
0.8034 -5.5083 -2.1332 0.9764
1.7730 -5.2957 -2.1401 0.9764
3.9104 -4.0433 -2.1556 0.9762
4.5757 -3.2934 -2.1605 0.9761
4.8554 -2.8759 -2.1626 0.9761
5.0963 -2.4343 -2.1644 0.9761
5.4541 -1.4941 -2.1671 0.9761
5.6366 -0.5037 -2.1687 0.9760
5.2720 0.4711 -2.1663 0.9774
5.2084 0.9383 -2.1660 0.9774
4.9559 1.8456 -2.1644 0.9774
4.5444 2.6917 -2.1617 0.9774
3.9882 3.4488 -2.1579 0.9775
3.3064 4.0924 -2.1533 0.9775
2.9255 4.3651 -2.1506 0.9775
2.5220 4.6021 -2.1478 0.9776
1.6614 4.9625 -2.1418 0.9776
1.2114 5.0831 -2.1387 0.9777
-0.1738 5.1987 -2.1289 0.9778
-0.6349 5.1546 -2.1256 0.9778
-1.0895 5.0699 -2.1224 0.9778
-2.3798 4.5819 -2.1131 0.9779
-3.1462 4.0766 -2.1075 0.9780
-3.4923 3.7759 -2.1050 0.9780
-3.8103 3.4462 -2.1027 0.9780
-4.0978 3.0903 -2.1006 0.9781
-4.3526 2.7108 -2.0987 0.9781
-4.5730 2.3108 -2.0970 0.9781
-4.7574 1.8934 -2.0956 0.9781
-2.1261 0.2378 -0.8756 0.9908
-2.1285 0.0474 -0.8714 0.9908
-2.1345 -0.3356 -0.8843 0.9907
-2.1308 -0.5330 -0.8989 0.9906
-4.8337 -1.6785 -2.0942 0.9781
-4.6676 -2.1031 -2.0953 0.9781
-3.9551 -3.2690 -2.1000 0.9781
-3.3197 -3.9265 -2.1044 0.9780
-2.9605 -4.2114 -2.1069 0.9780
-2.1725 -4.6816 -2.1123 0.9779
-1.7496 -4.8632 -2.1153 0.9779
-1.3117 -5.0069 -2.1184 0.9779
-0.4044 -5.1757 -2.1247 0.9778
0.0579 -5.1991 -2.1280 0.9778
0.5212 -5.1813 -2.1313 0.9777
0.9818 -5.1222 -2.1346 0.9777
1.4360 -5.0221 -2.1378 0.9777
2.7236 -4.4836 -2.1471 0.9776
3.1159 -4.2290 -2.1499 0.9776
3.8256 -3.6182 -2.1551 0.9775
4.1368 -3.2668 -2.1574 0.9775
5.0325 -1.6228 -2.1641 0.9774
5.1594 -1.1690 -2.1651 0.9774
5.2879 0.2358 -2.1664 0.9774
5.2455 0.7054 -2.1662 0.9774
5.1607 1.1693 -2.1657 0.9774
4.4183 2.8903 -2.1608 0.9774
4.1399 3.2692 -2.1590 0.9775
3.8287 3.6212 -2.1568 0.9775
3.1189 4.2331 -2.1520 0.9775
2.7263 4.4882 -2.1492 0.9776
2.3130 4.7067 -2.1464 0.9776
0.5219 5.1874 -2.1338 0.9777
0.0580 5.2053 -2.1305 0.9778
-0.8632 5.1173 -2.1240 0.9778
-1.7516 4.8686 -2.1176 0.9779
-2.5798 4.4683 -2.1117 0.9779
-3.6550 3.6145 -2.1038 0.9780
-3.9580 3.2714 -2.1016 0.9781
-4.4672 2.5132 -2.0978 0.9781
-4.6698 2.1041 -2.0963 0.9781
-4.8356 1.6791 -2.0950 0.9781
-2.1345 0.3356 -0.8843 0.9907
-2.1302 0.1426 -0.8738 0.9908
-2.1261 -0.2378 -0.8756 0.9908
-4.9027 -1.4612 -2.0938 0.9781
-4.7553 -1.8926 -2.0947 0.9781
-4.3500 -2.7092 -2.0974 0.9781
-4.0949 -3.0881 -2.0991 0.9781
-1.0882 -5.0641 -2.1199 0.9779
-0.6341 -5.1486 -2.1231 0.9778
0.2897 -5.1954 -2.1297 0.9778
0.7521 -5.1569 -2.1329 0.9777
2.0972 -4.7965 -2.1426 0.9776
3.6585 -3.7829 -2.1539 0.9775
4.2804 -3.0808 -2.1584 0.9775
4.5417 -2.6900 -2.1604 0.9774
4.7668 -2.2769 -2.1621 0.9774
4.9538 -1.8448 -2.1635 0.9774
5.2073 -0.9381 -2.1655 0.9774
4.9457 0.4419 -2.1640 0.9786
4.8860 0.8803 -2.1637 0.9786
4.4744 2.1372 -2.1611 0.9786
4.2637 2.5254 -2.1597 0.9786
3.7422 3.2360 -2.1561 0.9786
3.1029 3.8405 -2.1518 0.9787
1.9708 4.5072 -2.1439 0.9788
1.1373 4.7722 -2.1381 0.9788
0.7070 4.8476 -2.1350 0.9789
0.2723 4.8843 -2.1320 0.9789
-0.1632 4.8820 -2.1289 0.9789
-0.5962 4.8411 -2.1258 0.9789
-1.0233 4.7620 -2.1228 0.9790
-2.6068 4.0835 -2.1114 0.9791
-2.9564 3.8307 -2.1088 0.9791
-3.2819 3.5483 -2.1065 0.9791
-3.8513 2.9044 -2.1023 0.9792
-1.8741 0.5585 -0.8523 0.9915
-1.9433 0.2174 -0.8522 0.9915
-1.9470 0.0434 -0.8487 0.9915
-1.8290 -0.6351 -0.8438 0.9916
-4.1967 -2.3610 -2.0986 0.9792
-3.9727 -2.7271 -2.1001 0.9792
-3.4322 -3.3942 -2.1037 0.9792
-3.1197 -3.6900 -2.1059 0.9791
-2.4215 -4.1942 -2.1107 0.9791
-0.8098 -4.8011 -2.1220 0.9790
0.0544 -4.8826 -2.1281 0.9789
0.4895 -4.8654 -2.1311 0.9789
3.2699 -3.6973 -2.1511 0.9787
3.5899 -3.3953 -2.1535 0.9787
3.8817 -3.0654 -2.1556 0.9786
4.7213 -1.5224 -2.1619 0.9786
4.8401 -1.0966 -2.1629 0.9786
4.9201 -0.6617 -2.1635 0.9786
4.9606 0.2212 -2.1640 0.9786
4.8413 1.0969 -2.1634 0.9786
4.7229 1.5229 -2.1627 0.9786
4.5665 1.9363 -2.1617 0.9786
4.1454 2.7118 -2.1589 0.9786
3.8844 3.0675 -2.1571 0.9786
3.5927 3.3979 -2.1551 0.9787
2.1710 4.4178 -2.1453 0.9788
1.7668 4.5875 -2.1425 0.9788
0.4900 4.8708 -2.1335 0.9789
0.0545 4.8880 -2.1304 0.9789
-0.8107 4.8063 -2.1243 0.9790
-1.2335 4.7084 -2.1212 0.9790
-2.0432 4.4030 -2.1154 0.9790
-2.4238 4.1982 -2.1127 0.9791
-2.7844 3.9609 -2.1101 0.9791
-3.1223 3.6930 -2.1076 0.9791
-3.4349 3.3968 -2.1053 0.9791
-3.7199 3.0745 -2.1032 0.9792
-4.3895 1.9778 -2.0982 0.9792
-1.8290 0.6351 -0.8438 0.9916
-1.9397 0.3050 -0.8557 0.9915
-1.9479 0.1304 -0.8508 0.9915
-1.9470 -0.0434 -0.8487 0.9915
-1.8741 -0.5585 -0.8523 0.9915
-4.4701 -1.7790 -2.0968 0.9792
-4.2963 -2.1710 -2.0979 0.9792
-4.0887 -2.5465 -2.0993 0.9792
-3.8488 -2.9025 -2.1009 0.9792
-3.5783 -3.2364 -2.1027 0.9792
-3.2792 -3.5455 -2.1048 0.9791
-2.9538 -3.8273 -2.1070 0.9791
-1.8444 -4.4881 -2.1147 0.9791
-1.4395 -4.6406 -2.1175 0.9790
1.5580 -4.6536 -2.1388 0.9788
2.3648 -4.3153 -2.1446 0.9788
2.7430 -4.0929 -2.1473 0.9787
3.1002 -3.8371 -2.1499 0.9787
3.7395 -3.2337 -2.1546 0.9787
4.0163 -2.8908 -2.1566 0.9786
4.2612 -2.5239 -2.1584 0.9786
4.4723 -2.1362 -2.1600 0.9786
4.6475 -1.7308 -2.1614 0.9786
4.7855 -1.3109 -2.1624 0.9786
4.9452 -0.4419 -2.1638 0.9786
4.6706 0.0000 -2.1619 0.9796
4.6520 0.4157 -2.1619 0.9796
4.5959 0.8280 -2.1616 0.9796
3.7809 2.7213 -2.1563 0.9797
3.5208 3.0445 -2.1545 0.9797
1.8548 4.2419 -2.1430 0.9798
1.4680 4.3846 -2.1403 0.9798
0.6656 4.5634 -2.1347 0.9799
-0.1537 4.5966 -2.1289 0.9799
-1.7389 4.2313 -2.1176 0.9800
-2.4556 3.8465 -2.1124 0.9801
-2.7850 3.6086 -2.1100 0.9801
-3.0919 3.3429 -2.1078 0.9801
-3.6288 2.7366 -2.1038 0.9802
-1.5257 0.6072 -0.7601 0.9928
-1.6716 0.0372 -0.7739 0.9927
-1.6165 -0.4043 -0.7713 0.9927
-4.1345 -1.8629 -2.0991 0.9802
-3.9545 -2.2248 -2.1003 0.9802
-3.7433 -2.5697 -2.1017 0.9802
-3.2337 -3.1979 -2.1052 0.9802
-2.6207 -3.7281 -2.1094 0.9801
-1.9226 -4.1432 -2.1142 0.9801
-1.5481 -4.3032 -2.1168 0.9800
-1.1605 -4.4295 -2.1196 0.9800
-0.7626 -4.5212 -2.1224 0.9800
0.4608 -4.5806 -2.1310 0.9799
0.8679 -4.5276 -2.1339 0.9799
1.2691 -4.4383 -2.1368 0.9799
2.0412 -4.1537 -2.1423 0.9798
3.0768 -3.4790 -2.1498 0.9797
3.3777 -3.1946 -2.1520 0.9797
3.6521 -2.8840 -2.1540 0.9797
3.8975 -2.5497 -2.1558 0.9797
4.2938 -1.8207 -2.1588 0.9797
4.5528 -1.0315 -2.1609 0.9796
4.6658 -0.2081 -2.1619 0.9796
4.6286 0.6225 -2.1618 0.9796
4.5539 1.0318 -2.1614 0.9796
4.4426 1.4325 -2.1607 0.9796
4.2956 1.8215 -2.1597 0.9796
3.8998 2.5511 -2.1571 0.9797
3.3801 3.1969 -2.1536 0.9797
3.0792 3.4817 -2.1515 0.9797
2.0431 4.1576 -2.1443 0.9798
0.4613 4.5854 -2.1332 0.9799
0.0513 4.6020 -2.1303 0.9799
-1.5497 4.3073 -2.1189 0.9800
-1.9244 4.1470 -2.1162 0.9801
-2.6230 3.7312 -2.1112 0.9801
-3.5048 2.8968 -2.1047 0.9802
-3.7455 2.5711 -2.1029 0.9802
-4.1363 1.8637 -2.1000 0.9802
-1.5621 0.5424 -0.7654 0.9927
-1.6521 0.2598 -0.7741 0.9927
-1.6738 0.1120 -0.7765 0.9926
-1.6716 -0.0373 -0.7739 0.9927
-1.6675 -0.1865 -0.7767 0.9926
-1.6373 -0.3328 -0.7734 0.9927
-1.5924 -0.4746 -0.7692 0.9927
-1.5258 -0.6072 -0.7601 0.9928
-4.0485 -2.0458 -2.0997 0.9802
-3.6265 -2.7349 -2.1025 0.9802
-3.0895 -3.3404 -2.1062 0.9801
-2.1040 -4.0510 -2.1130 0.9801
-1.7372 -4.2273 -2.1155 0.9801
-0.1535 -4.5918 -2.1267 0.9800
0.2561 -4.5935 -2.1296 0.9799
0.6649 -4.5587 -2.1325 0.9799
1.0694 -4.4875 -2.1353 0.9799
2.2256 -4.0612 -2.1436 0.9798
2.5813 -3.8516 -2.1462 0.9798
2.9172 -3.6107 -2.1486 0.9797
3.2304 -3.3402 -2.1509 0.9797
3.5183 -3.0424 -2.1530 0.9797
3.7785 -2.7196 -2.1550 0.9797
4.2071 -2.0096 -2.1582 0.9797
4.5015 -1.2331 -2.1604 0.9796
4.4036 0.0000 -2.1600 0.9806
4.3332 0.7807 -2.1597 0.9806
4.1236 1.5357 -2.1584 0.9806
3.9687 1.8957 -2.1574 0.9806
3.7821 2.2401 -2.1562 0.9806
3.5652 2.5661 -2.1547 0.9806
3.3201 2.8710 -2.1531 0.9806
3.0488 3.1524 -2.1512 0.9807
1.0100 4.2379 -2.1370 0.9808
0.2419 4.3388 -2.1316 0.9808
-0.5298 4.3019 -2.1261 0.9809
-1.2809 4.1294 -2.1208 0.9809
-1.6414 3.9941 -2.1182 0.9809
-1.9880 3.8276 -2.1157 0.9810
-2.6294 3.4070 -2.1110 0.9810
-2.9193 3.1563 -2.1089 0.9810
-3.6402 2.2672 -2.1036 0.9811
-3.8250 1.9329 -2.1022 0.9811
-1.3200 0.3934 -0.6756 0.9939
-1.3536 0.0302 -0.6641 0.9940
-1.3149 -0.3289 -0.6649 0.9940
-1.3171 -0.4574 -0.6839 0.9938
-2.7751 -3.2824 -2.1084 0.9810
-2.4744 -3.5198 -2.1105 0.9810
-2.1535 -3.7300 -2.1127 0.9810
-1.8150 -3.9112 -2.1151 0.9810
-1.4614 -4.0620 -2.1175 0.9810
-0.7198 -4.2672 -2.1227 0.9809
0.8189 -4.2719 -2.1336 0.9808
1.5672 -4.0692 -2.1390 0.9808
1.9255 -3.9183 -2.1415 0.9807
2.2692 -3.7357 -2.1440 0.9807
2.5956 -3.5228 -2.1464 0.9807
3.6753 -2.4043 -2.1543 0.9806
3.8774 -2.0691 -2.1558 0.9806
4.0486 -1.7168 -2.1571 0.9806
4.1874 -1.3503 -2.1582 0.9806
4.3634 -0.5868 -2.1596 0.9806
4.3990 -0.1962 -2.1600 0.9806
4.3992 0.1962 -2.1601 0.9806
4.3640 0.5869 -2.1599 0.9806
4.2936 0.9728 -2.1595 0.9806
4.1887 1.3507 -2.1589 0.9806
3.4461 2.7214 -2.1539 0.9806
3.1876 3.0148 -2.1522 0.9806
2.9040 3.2836 -2.1502 0.9807
2.5977 3.5256 -2.1481 0.9807
1.9272 3.9218 -2.1435 0.9807
1.1985 4.1913 -2.1384 0.9808
0.8197 4.2760 -2.1357 0.9808
0.4353 4.3265 -2.1330 0.9808
-1.0964 4.1849 -2.1221 0.9809
-1.4627 4.0657 -2.1195 0.9809
-2.1553 3.7331 -2.1145 0.9810
-2.4763 3.5226 -2.1122 0.9810
-3.0555 3.0217 -2.1079 0.9810
-1.2865 0.5797 -0.6922 0.9937
-1.3171 0.4573 -0.6839 0.9938
-1.3257 0.2084 -0.6583 0.9940
-1.3513 0.0905 -0.6643 0.9940
-1.3536 -0.0302 -0.6641 0.9940
-1.3047 -0.2652 -0.6531 0.9941
-1.3200 -0.3934 -0.6756 0.9939
-1.3059 -0.5198 -0.6895 0.9938
-3.1836 -2.8794 -2.1056 0.9811
-2.9172 -3.1540 -2.1074 0.9810
-1.9863 -3.8243 -2.1139 0.9810
-1.6399 -3.9905 -2.1163 0.9810
-1.2798 -4.1255 -2.1188 0.9809
-0.9086 -4.2282 -2.1214 0.9809
-0.5293 -4.2977 -2.1241 0.9809
0.6273 -4.3014 -2.1323 0.9808
1.0090 -4.2339 -2.1350 0.9808
2.4348 -3.6329 -2.1452 0.9807
3.0466 -3.1502 -2.1497 0.9807
3.5632 -2.5646 -2.1535 0.9806
3.7801 -2.2390 -2.1551 0.9806
4.1222 -1.5351 -2.1577 0.9806
4.2443 -1.1627 -2.1586 0.9806
4.3856 -0.3919 -2.1598 0.9806
3.8961 1.4509 -2.1568 0.9814
3.7498 1.7911 -2.1558 0.9814
3.5736 2.1166 -2.1547 0.9815
3.3688 2.4247 -2.1533 0.9815
3.1374 2.7130 -2.1517 0.9815
2.6022 3.2208 -2.1481 0.9815
1.9859 3.6239 -2.1438 0.9816
1.6537 3.7822 -2.1415 0.9816
1.3091 3.9100 -2.1391 0.9816
-0.1371 4.1013 -2.1289 0.9817
-0.5010 4.0679 -2.1263 0.9817
-0.8600 4.0023 -2.1237 0.9817
-1.2114 3.9053 -2.1212 0.9817
-1.5524 3.7776 -2.1188 0.9818
-1.8804 3.6204 -2.1164 0.9818
-2.1928 3.4350 -2.1141 0.9818
-2.4873 3.2229 -2.1120 0.9818
-3.4442 2.1451 -2.1050 0.9819
-1.0665 0.5389 -0.6199 0.9946
-1.1333 0.2303 -0.5999 0.9948
-1.1649 0.1303 -0.6081 0.9947
-1.1785 0.0263 -0.6115 0.9947
-1.1275 -0.2820 -0.6029 0.9948
-2.3407 -3.3297 -2.1115 0.9818
-2.0371 -3.5283 -2.1136 0.9818
-1.7167 -3.6995 -2.1158 0.9818
-1.0359 -3.9541 -2.1206 0.9817
-0.3192 -4.0849 -2.1256 0.9817
0.0457 -4.1021 -2.1282 0.9817
0.7742 -4.0388 -2.1334 0.9816
1.4815 -3.8466 -2.1384 0.9816
1.8200 -3.7037 -2.1409 0.9816
2.1448 -3.5308 -2.1432 0.9816
3.0102 -2.8471 -2.1495 0.9815
3.2544 -2.5700 -2.1513 0.9815
3.6637 -1.9550 -2.1543 0.9815
3.9564 -1.2758 -2.1566 0.9814
4.1225 -0.5544 -2.1579 0.9814
4.1561 -0.1853 -2.1582 0.9814
4.0566 0.9191 -2.1578 0.9814
3.9575 1.2761 -2.1572 0.9814
3.8268 1.6227 -2.1564 0.9814
3.2563 2.5715 -2.1525 0.9815
2.7443 3.1031 -2.1490 0.9815
2.4550 3.3319 -2.1470 0.9815
2.1465 3.5337 -2.1449 0.9815
1.8216 3.7068 -2.1427 0.9816
1.4828 3.8499 -2.1403 0.9816
0.7749 4.0424 -2.1353 0.9816
0.4115 4.0904 -2.1328 0.9816
0.0457 4.1058 -2.1302 0.9817
-0.3195 4.0886 -2.1276 0.9817
-0.6813 4.0391 -2.1250 0.9817
-1.0369 3.9577 -2.1225 0.9817
-1.3834 3.8452 -2.1200 0.9818
-2.3424 3.3322 -2.1131 0.9818
-2.6272 3.1074 -2.1110 0.9818
-3.3464 2.2971 -2.1057 0.9819
-1.0898 0.4910 -0.6201 0.9946
-1.1275 0.2820 -0.6029 0.9948
-1.1649 -0.1303 -0.6081 0.9947
-1.1266 -0.3358 -0.6099 0.9947
-1.1070 -0.4406 -0.6181 0.9946
-3.4425 -2.1440 -2.1039 0.9819
-3.0120 -2.7242 -2.1069 0.9819
-2.7598 -2.9839 -2.1086 0.9819
-2.1911 -3.4323 -2.1125 0.9818
-1.8788 -3.6174 -2.1147 0.9818
-1.5511 -3.7744 -2.1170 0.9818
-1.2104 -3.9018 -2.1193 0.9818
-0.8593 -3.9987 -2.1218 0.9817
-0.5005 -4.0641 -2.1243 0.9817
-0.1370 -4.0975 -2.1269 0.9817
0.2285 -4.0984 -2.1295 0.9817
0.5931 -4.0668 -2.1321 0.9817
0.9539 -4.0027 -2.1346 0.9816
1.3079 -3.9065 -2.1372 0.9816
1.6523 -3.7789 -2.1396 0.9816
1.9843 -3.6209 -2.1420 0.9816
2.3012 -3.4336 -2.1443 0.9815
3.3670 -2.4234 -2.1521 0.9815
3.5718 -2.1156 -2.1536 0.9815
3.8948 -1.4504 -2.1561 0.9814
2.0429 0.0000 -1.1189 0.9907
2.0356 0.1819 -1.1193 0.9907
1.9715 0.7342 -1.1522 0.9905
3.3827 2.0036 -2.1533 0.9822
3.1890 2.2953 -2.1520 0.9822
2.9700 2.5682 -2.1505 0.9823
2.7275 2.8202 -2.1489 0.9823
2.1804 3.2534 -2.1451 0.9823
0.2166 3.8853 -2.1313 0.9824
-0.4746 3.8533 -2.1264 0.9824
-0.8147 3.7915 -2.1240 0.9825
-1.1477 3.6997 -2.1216 0.9825
-1.4708 3.5790 -2.1193 0.9825
-2.0778 3.2548 -2.1149 0.9825
-2.3570 3.0540 -2.1129 0.9826
-2.6171 2.8295 -2.1110 0.9826
-0.9364 0.4732 -0.5746 0.9952
-0.9825 0.2928 -0.5615 0.9953
-1.0000 0.2032 -0.5589 0.9954
-1.0293 0.1151 -0.5673 0.9953
-1.0166 -0.1599 -0.5637 0.9953
-0.9756 -0.3388 -0.5656 0.9953
-0.9472 -0.4268 -0.5690 0.9953
-2.9656 -2.4511 -2.1073 0.9826
-2.2180 -3.1552 -2.1124 0.9826
-1.9302 -3.3432 -2.1144 0.9825
-0.9814 -3.7461 -2.1210 0.9825
-0.6448 -3.8228 -2.1234 0.9825
0.0433 -3.8855 -2.1282 0.9824
0.3894 -3.8707 -2.1307 0.9824
0.7332 -3.8250 -2.1331 0.9824
2.0308 -3.3432 -2.1424 0.9823
2.5964 -2.9358 -2.1465 0.9823
3.0808 -2.4329 -2.1501 0.9823
1.9895 -0.6415 -1.1449 0.9905
2.0041 -0.4541 -1.1255 0.9907
2.0226 -0.2720 -1.1178 0.9907
2.0434 -0.0911 -1.1203 0.9907
2.0042 0.4541 -1.1255 0.9907
1.9895 0.6415 -1.1449 0.9905
1.9407 0.8229 -1.1546 0.9904
3.4695 1.8514 -2.1539 0.9822
3.2891 2.1516 -2.1527 0.9822
3.0825 2.4343 -2.1513 0.9822
2.3243 3.1545 -2.1461 0.9823
0.7338 3.8283 -2.1350 0.9824
0.0433 3.8889 -2.1301 0.9824
-0.6454 3.8262 -2.1252 0.9825
-0.9823 3.7493 -2.1228 0.9825
-1.3106 3.6429 -2.1204 0.9825
-1.9317 3.3458 -2.1160 0.9825
-2.2196 3.1574 -2.1139 0.9826
-2.4895 2.9446 -2.1119 0.9826
-3.1715 2.1771 -2.1069 0.9826
-0.9847 0.2463 -0.5559 0.9954
-1.0166 0.1599 -0.5637 0.9953
-1.0376 0.0695 -0.5696 0.9953
-1.0415 -0.0232 -0.5706 0.9953
-1.0293 -0.1152 -0.5673 0.9953
-1.0000 -0.2033 -0.5589 0.9954
-0.9825 -0.2928 -0.5615 0.9953
-0.9638 -0.3836 -0.5681 0.9953
-0.9364 -0.4732 -0.5746 0.9952
-3.0708 -2.3158 -2.1065 0.9826
-2.6154 -2.8277 -2.1096 0.9826
-2.3553 -3.0519 -2.1114 0.9826
-1.7802 -3.4276 -2.1154 0.9825
-0.8140 -3.7882 -2.1222 0.9825
-0.4742 -3.8500 -2.1246 0.9825
1.8789 -3.4286 -2.1413 0.9823
2.4619 -3.0471 -2.1456 0.9823
3.1873 -2.2941 -2.1509 0.9822
3.3811 -2.0027 -2.1523 0.9822
1.9714 -0.7342 -1.1522 0.9905
2.0004 -0.5480 -1.1360 0.9906
2.0036 -0.3610 -1.1150 0.9908
1.8267 0.5004 -1.0935 0.9913
1.7869 0.6654 -1.1009 0.9912
1.7194 0.8213 -1.1001 0.9912
3.2071 1.8996 -2.1520 0.9829
3.0235 2.1762 -2.1508 0.9829
2.8160 2.4351 -2.1494 0.9830
2.3361 2.8914 -2.1461 0.9830
2.0677 3.0852 -2.1442 0.9830
1.7832 3.2539 -2.1423 0.9830
1.1757 3.5116 -2.1380 0.9830
-0.1232 3.6852 -2.1289 0.9831
-0.4502 3.6557 -2.1265 0.9831
-0.7730 3.5972 -2.1242 0.9831
-1.0889 3.5104 -2.1220 0.9832
-1.6906 3.2550 -2.1177 0.9832
-1.9717 3.0887 -2.1156 0.9832
-2.4838 2.6854 -2.1119 0.9832
-2.9161 2.1992 -2.1087 0.9833
-0.8932 0.3555 -0.5550 0.9956
-0.9120 0.1853 -0.5373 0.9957
-0.9189 -0.1445 -0.5370 0.9957
-0.9030 -0.2259 -0.5374 0.9957
-0.8984 -0.3120 -0.5490 0.9956
-3.0088 -2.0654 -2.1070 0.9833
-2.8148 -2.3265 -2.1084 0.9833
-2.5984 -2.5696 -2.1098 0.9833
0.3694 -3.6718 -2.1306 0.9831
0.6955 -3.6283 -2.1329 0.9831
1.0167 -3.5558 -2.1352 0.9831
1.6345 -3.3260 -2.1396 0.9830
2.2025 -2.9893 -2.1437 0.9830
2.7022 -2.5557 -2.1474 0.9830
3.1170 -2.0391 -2.1504 0.9829
1.6861 -0.8997 -1.1034 0.9912
1.7564 -0.7448 -1.1014 0.9912
1.8592 -0.2500 -1.0831 0.9914
1.8755 -0.0836 -1.0839 0.9914
1.7564 0.7448 -1.1014 0.9912
1.6860 0.8997 -1.1034 0.9912
2.9227 2.3080 -2.1501 0.9829
2.7038 2.5572 -2.1486 0.9830
2.4636 2.7856 -2.1470 0.9830
2.2040 2.9913 -2.1452 0.9830
1.0176 3.5586 -2.1369 0.9830
-0.2871 3.6741 -2.1277 0.9831
-0.6123 3.6300 -2.1254 0.9831
-1.2436 3.4566 -2.1209 0.9832
-1.5447 3.3288 -2.1187 0.9832
-1.8331 3.1749 -2.1166 0.9832
-2.3626 2.7945 -2.1128 0.9832
-0.8858 0.3991 -0.5609 0.9955
-0.9120 -0.1854 -0.5373 0.9957
-0.9012 -0.2686 -0.5429 0.9957
-0.8932 -0.3555 -0.5550 0.9956
-0.8760 -0.4427 -0.5667 0.9955
-0.8491 -0.5289 -0.5776 0.9954
-2.7093 -2.4504 -2.1091 0.9833
-0.7724 -3.5943 -2.1225 0.9832
-0.4499 -3.6526 -2.1248 0.9831
-0.1231 -3.6822 -2.1271 0.9831
1.1747 -3.5088 -2.1363 0.9831
2.3345 -2.8895 -2.1447 0.9830
1.7194 -0.8213 -1.1001 0.9912
1.8267 -0.5004 -1.0935 0.9913
1.8700 -0.1671 -1.0839 0.9914
