ply
format ascii 1.0
element vertex 1314
property float32 x
property float32 y
property float32 z
property float32 I
end_header
-17.5680 -7.9158 -1.8499 0.9255
-17.8835 -7.1174 -1.8479 0.9256
18.9824 1.6963 -2.2638 0.9261
18.7456 3.3772 -2.2626 0.9261
18.3513 5.0269 -2.2602 0.9262
17.8035 6.6301 -2.2567 0.9263
17.1082 8.1719 -2.2521 0.9265
16.2727 9.6383 -2.2466 0.9266
15.3058 11.0164 -2.2401 0.9269
10.8825 13.4694 -2.0569 0.9326
-10.8738 11.7566 -1.9023 0.9375
-12.8910 9.7215 -1.9179 0.9370
-15.7881 6.2835 -2.0185 0.9338
-16.8170 1.8813 -2.0101 0.9341
-16.7133 -2.6280 -2.0097 0.9341
-16.4266 -4.1086 -2.0114 0.9341
-16.0160 -5.5614 -2.0139 0.9340
-14.3752 -6.4772 -1.8729 0.9385
17.5216 -2.3564 -2.1001 0.9313
19.0370 -0.8489 -2.2636 0.9261
19.0408 0.8491 -2.2640 0.9261
18.8839 2.5396 -2.2633 0.9261
18.5679 4.2069 -2.2615 0.9262
14.7761 11.6685 -2.2365 0.9270
11.4953 12.9979 -2.0612 0.9325
10.2498 13.9111 -2.0526 0.9328
-11.3651 11.2392 -1.8987 0.9376
-12.2766 10.1469 -1.8919 0.9379
-14.8616 8.3610 -2.0256 0.9336
-16.0368 5.5686 -2.0165 0.9339
-16.8788 1.1299 -2.0095 0.9341
-16.8096 -1.8804 -2.0092 0.9341
-16.5856 -3.3712 -2.0104 0.9341
-16.2367 -4.8390 -2.0125 0.9340
-14.0866 -7.1183 -1.8748 0.9384
-13.4283 -8.3632 -1.8792 0.9383
17.3899 -3.1329 -2.0989 0.9313
18.7175 -1.6726 -2.2322 0.9271
15.7525 1.4076 -2.2409 0.9381
15.5575 2.8028 -2.2398 0.9381
14.2097 6.7874 -2.2313 0.9384
13.5214 8.0087 -2.2267 0.9385
10.8356 11.2039 -2.2084 0.9390
8.0003 11.9373 -2.0361 0.9436
-9.1717 9.9163 -1.9139 0.9469
-11.5468 8.7079 -2.0491 0.9432
-12.2448 7.6261 -2.0439 0.9434
-14.3059 0.3188 -2.0275 0.9438
-14.2767 -0.9557 -2.0274 0.9438
-13.8953 -3.4755 -2.0295 0.9438
-11.0341 -7.5745 -1.8963 0.9474
14.9401 -3.3850 -2.1705 0.9400
15.6636 -2.1066 -2.2394 0.9381
15.7981 -0.7045 -2.2407 0.9381
15.8007 0.7046 -2.2410 0.9381
15.6714 2.1076 -2.2405 0.9381
15.4112 3.4917 -2.2390 0.9382
15.0231 4.8443 -2.2365 0.9382
14.5108 6.1531 -2.2332 0.9383
13.8796 7.4064 -2.2291 0.9384
12.2872 9.7031 -2.2184 0.9387
11.3417 10.7269 -2.2119 0.9389
10.2927 11.6381 -2.2014 0.9392
-8.7354 10.3323 -1.9171 0.9468
-11.1630 9.2264 -2.0520 0.9432
-13.1098 5.9070 -2.0374 0.9436
-13.9066 3.4783 -2.0311 0.9437
-14.3048 -0.3188 -2.0273 0.9438
-14.0308 -2.8519 -2.0287 0.9438
-13.7334 -4.0930 -2.0305 0.9438
-12.2966 -6.2137 -1.9521 0.9459
-11.3480 -7.0675 -1.8942 0.9474
-10.6984 -8.0680 -1.8986 0.9473
14.1286 -3.8702 -2.0756 0.9425
13.5035 -0.0000 -2.2246 0.9467
13.2838 2.3932 -2.2236 0.9468
13.0084 3.5634 -2.2219 0.9468
12.1398 5.7987 -2.2163 0.9469
10.1139 8.7458 -2.2027 0.9472
8.3570 10.3435 -2.1906 0.9475
7.2199 10.7729 -2.1364 0.9488
5.8954 10.7578 -2.0209 0.9515
3.8673 11.5510 -2.0067 0.9518
-1.4610 11.8627 -1.9690 0.9527
-2.5016 11.6415 -1.9616 0.9529
-4.4931 10.9333 -1.9473 0.9532
-8.5345 9.2274 -2.0706 0.9503
-9.2967 8.4083 -2.0650 0.9505
-9.9835 7.5289 -2.0599 0.9506
-10.5906 6.5959 -2.0554 0.9507
-11.5511 4.5972 -2.0481 0.9508
-12.1546 2.4705 -2.0433 0.9510
-12.3868 0.2760 -2.0411 0.9510
-12.2423 -1.9250 -2.0416 0.9510
-11.7250 -4.0714 -2.0447 0.9509
-11.3302 -5.1051 -2.0472 0.9509
-10.8185 -6.0864 -2.0449 0.9509
-9.5443 -6.5518 -1.9071 0.9542
-8.9423 -7.3910 -1.9112 0.9541
10.4060 -6.8073 -2.0485 0.9508
10.9942 -5.8667 -2.0529 0.9507
11.4939 -4.8739 -2.0567 0.9506
13.4905 0.6016 -2.2246 0.9467
13.1597 2.9816 -2.2229 0.9468
12.3954 5.2561 -2.2180 0.9469
11.2277 7.3448 -2.2103 0.9471
10.5062 8.2966 -2.2054 0.9472
8.8224 9.9756 -2.1939 0.9474
7.8653 10.6749 -2.1844 0.9477
5.4011 10.9909 -2.0175 0.9516
2.2804 11.8968 -1.9956 0.9521
-3.0121 11.4971 -1.9579 0.9530
-4.0087 11.1425 -1.9508 0.9531
-8.1049 9.5866 -2.0681 0.9504
-8.9247 8.8258 -2.0678 0.9504
-10.2973 7.0687 -2.0576 0.9506
-10.8631 6.1115 -2.0533 0.9507
-11.3437 5.1112 -2.0497 0.9508
-11.7362 4.0752 -2.0466 0.9509
-12.3137 -1.3775 -2.0412 0.9510
-12.1476 -2.4691 -2.0421 0.9510
-11.8887 -3.5432 -2.0437 0.9510
-9.9862 -6.2194 -1.9381 0.9534
-8.6142 -7.7911 -1.9134 0.9540
11.9270 -4.4417 -2.0967 0.9497
12.9976 -3.5604 -2.2201 0.9468
11.7228 1.0475 -2.2122 0.9532
11.5790 2.0861 -2.2114 0.9532
10.5862 5.0566 -2.2051 0.9534
10.0787 5.9696 -2.2018 0.9534
9.4903 6.8307 -2.1978 0.9535
7.2983 9.0333 -2.1828 0.9538
6.4479 9.6210 -2.1769 0.9540
4.4200 10.1089 -2.0738 0.9561
3.3831 10.1048 -2.0029 0.9576
0.5874 10.5348 -1.9832 0.9580
-2.1946 10.2127 -1.9634 0.9584
-3.0848 9.9445 -1.9570 0.9585
-5.0412 9.7060 -2.0557 0.9565
-7.5055 8.1148 -2.0776 0.9560
-8.1784 7.3969 -2.0727 0.9561
-9.3219 5.8057 -2.0642 0.9563
-10.4793 3.1232 -2.0553 0.9565
-10.7844 -1.6958 -2.0520 0.9565
-10.5964 -2.6503 -2.0531 0.9565
-9.9776 -4.4957 -2.0570 0.9564
-9.5509 -5.3732 -2.0598 0.9564
-9.0176 -6.1903 -2.0559 0.9565
7.8474 -7.4220 -2.0302 0.9570
8.4968 -6.7099 -2.0350 0.9569
9.0795 -5.9396 -2.0393 0.9568
9.5901 -5.1174 -2.0431 0.9567
10.7732 -4.5682 -2.1995 0.9535
11.4643 -2.5975 -2.2095 0.9533
11.6586 -1.5679 -2.2111 0.9532
11.7570 -0.5243 -2.2120 0.9532
11.1854 3.6068 -2.2090 0.9533
10.3429 5.5191 -2.2035 0.9534
9.7943 6.4071 -2.1999 0.9535
8.4683 8.0093 -2.1909 0.9537
7.7033 8.7103 -2.1856 0.9538
6.0045 9.8847 -2.1739 0.9540
5.0184 10.2122 -2.1387 0.9547
1.9963 10.4146 -1.9932 0.9578
1.0579 10.5158 -1.9865 0.9579
0.1173 10.5328 -1.9799 0.9580
-0.8178 10.4662 -1.9732 0.9582
-1.7403 10.3174 -1.9667 0.9583
-5.5485 9.6102 -2.0858 0.9558
-7.1456 8.4518 -2.0803 0.9560
-9.5629 5.3800 -2.0624 0.9563
-10.8475 -1.2135 -2.0516 0.9565
-9.7738 -4.9389 -2.0583 0.9564
-9.3059 -5.7957 -2.0606 0.9564
-6.9550 -7.5196 -1.9253 0.9592
8.1800 -7.0736 -2.0327 0.9569
9.3441 -5.5345 -2.0413 0.9568
10.2621 -4.9018 -2.1376 0.9548
11.7199 -1.0473 -2.2117 0.9532
8.9282 5.2882 -2.1934 0.9585
7.1747 7.4186 -2.1815 0.9587
4.0941 9.3635 -2.1602 0.9591
2.3384 9.8125 -2.1322 0.9596
1.4222 9.7513 -2.0830 0.9605
-0.3247 9.7123 -2.0541 0.9610
-2.0848 9.7020 -2.0976 0.9602
-3.7840 9.2078 -2.1043 0.9601
-4.5761 8.8105 -2.0986 0.9602
-5.3282 8.3465 -2.0931 0.9603
-6.6917 7.2350 -2.0832 0.9605
-8.7319 4.4124 -2.0680 0.9608
-9.0783 3.6131 -2.0654 0.9608
-9.3541 2.7878 -2.0632 0.9609
-9.7422 0.2171 -2.0598 0.9609
-9.7225 -0.6508 -2.0597 0.9609
-9.6281 -1.5139 -2.0602 0.9609
-9.4597 -2.3660 -2.0612 0.9609
-9.2183 -3.2009 -2.0627 0.9609
-8.5234 -4.7952 -2.0672 0.9608
-8.0744 -5.5428 -2.0702 0.9608
-4.5934 -7.9559 -1.9419 0.9631
-3.8769 -8.3545 -1.9469 0.9630
5.6534 -7.6729 -2.0146 0.9618
6.9570 -6.5799 -2.0241 0.9616
7.5307 -5.9469 -2.0283 0.9615
8.2277 -5.3823 -2.0782 0.9606
10.1516 -2.3000 -2.2002 0.9583
10.4093 -0.4642 -2.2025 0.9583
9.5719 4.0588 -2.1977 0.9584
9.1614 4.8886 -2.1950 0.9584
8.1235 6.4151 -2.1880 0.9586
6.8297 7.7224 -2.1792 0.9587
6.1011 8.2805 -2.1741 0.9588
5.3267 8.7690 -2.1688 0.9589
3.6677 9.5230 -2.1571 0.9591
1.8740 9.7764 -2.1042 0.9601
0.1082 9.7143 -2.0535 0.9611
-0.7588 9.7108 -2.0589 0.9610
-2.5258 9.6410 -2.1067 0.9601
-3.3715 9.3713 -2.1052 0.9601
-6.3700 7.5345 -2.0855 0.9605
-9.6315 1.5145 -2.0609 0.9609
-9.7240 0.6509 -2.0601 0.9609
-9.5531 -1.9418 -2.0606 0.9609
-9.0707 -3.6100 -2.0636 0.9609
-8.3071 -5.1737 -2.0687 0.9608
-4.9372 -7.7339 -1.9395 0.9632
-4.2397 -8.1629 -1.9443 0.9631
5.2992 -7.9070 -2.0120 0.9618
7.2509 -6.2701 -2.0263 0.9616
9.7400 -3.6272 -2.1970 0.9584
10.0347 -2.7488 -2.1993 0.9584
10.2477 -1.8462 -2.2010 0.9583
10.3767 -0.9273 -2.2022 0.9583
9.3397 0.0000 -2.1950 0.9624
9.3024 0.8313 -2.1950 0.9624
9.1890 1.6555 -2.1944 0.9624
9.0005 2.4655 -2.1933 0.9624
8.4061 4.0152 -2.1894 0.9624
7.5410 5.4277 -2.1836 0.9625
7.0165 6.0674 -2.1801 0.9626
6.4369 6.6557 -2.1761 0.9627
5.1335 7.6598 -2.1671 0.9628
4.4213 8.0678 -2.1622 0.9629
3.6768 8.4091 -2.1570 0.9630
2.9065 8.6812 -2.1516 0.9631
2.1168 8.8825 -2.1460 0.9632
0.5057 9.0687 -2.1347 0.9634
-1.1043 8.9664 -2.1232 0.9636
-3.4073 8.2911 -2.1067 0.9638
-5.4385 7.0468 -2.0920 0.9641
-6.0316 6.5212 -2.0877 0.9642
-7.0663 5.3290 -2.0801 0.9643
-7.5009 4.6716 -2.0768 0.9643
-8.1896 3.2594 -2.0716 0.9644
-8.6234 1.7528 -2.0681 0.9645
-8.7408 0.9778 -2.0671 0.9645
-8.7908 0.1959 -2.0666 0.9645
-8.7731 -0.5873 -2.0665 0.9645
-8.5353 -2.1348 -2.0678 0.9645
-6.8187 -5.6358 -2.0791 0.9643
-6.2691 -6.1997 -2.0722 0.9644
-5.3215 -6.2943 -1.9371 0.9667
-4.1385 -7.1682 -1.9453 0.9666
-3.4922 -7.5254 -1.9498 0.9665
-2.8153 -7.8253 -1.9545 0.9664
-1.3903 -8.2424 -1.9645 0.9662
2.3289 -8.1447 -1.9909 0.9658
4.4314 -7.2950 -2.0060 0.9655
5.6801 -6.4226 -2.0151 0.9654
6.2420 -5.9036 -2.0192 0.9653
7.0795 -5.5906 -2.1201 0.9636
7.7666 -5.0807 -2.1812 0.9626
8.5738 -3.6356 -2.1887 0.9625
8.8727 -2.8611 -2.1910 0.9624
9.3297 -0.4160 -2.1949 0.9624
9.2551 1.2447 -2.1948 0.9624
8.8786 2.8630 -2.1925 0.9624
8.5811 3.6387 -2.1906 0.9624
7.2860 5.7536 -2.1819 0.9626
6.7333 6.3683 -2.1781 0.9626
6.1280 6.9291 -2.1740 0.9627
5.4756 7.4316 -2.1695 0.9628
4.0527 8.2470 -2.1596 0.9629
3.2945 8.5539 -2.1543 0.9630
0.9104 9.0493 -2.1375 0.9633
-0.7047 9.0188 -2.1261 0.9635
-2.2805 8.7046 -2.1148 0.9637
-3.0384 8.4453 -2.1094 0.9638
-3.7686 8.1211 -2.1041 0.9639
-4.4657 7.7349 -2.0991 0.9640
-5.1247 7.2900 -2.0943 0.9640
-7.2908 5.0049 -2.0784 0.9643
-8.0407 3.6230 -2.0727 0.9644
-8.5396 2.1359 -2.0688 0.9645
-8.6905 1.3665 -2.0676 0.9645
-8.7743 0.5874 -2.0668 0.9645
-8.7904 -0.1959 -2.0665 0.9645
-8.7388 -0.9776 -2.0666 0.9645
-8.6199 -1.7521 -2.0673 0.9645
-8.1834 -3.2569 -2.0700 0.9645
-7.8688 -3.9763 -2.0721 0.9644
-7.0576 -5.3223 -2.0775 0.9643
-6.5569 -5.9303 -2.0778 0.9643
-4.4488 -6.9690 -1.9432 0.9666
-3.1572 -7.6827 -1.9521 0.9664
-1.7538 -8.1617 -1.9620 0.9663
-1.0231 -8.3071 -1.9671 0.9662
2.6929 -8.0434 -1.9935 0.9657
4.0970 -7.4762 -2.0036 0.9656
4.7575 -7.0987 -2.0084 0.9655
5.9668 -6.1696 -2.0172 0.9653
7.9967 -4.7365 -2.1843 0.9625
8.4535 0.0000 -2.1888 0.9657
8.3173 1.4984 -2.1882 0.9657
8.1471 2.2317 -2.1871 0.9657
7.6103 3.6351 -2.1837 0.9658
6.8288 4.9151 -2.1785 0.9658
5.2616 6.5124 -2.1678 0.9660
1.9200 8.0567 -2.1444 0.9664
1.1924 8.1760 -2.1393 0.9664
-0.2748 8.2178 -2.1289 0.9666
-1.0026 8.1409 -2.1237 0.9667
-2.4186 7.7968 -2.1136 0.9668
-4.3634 6.8351 -2.0996 0.9670
-5.4847 5.9300 -2.0914 0.9672
-6.4278 4.8474 -2.0845 0.9673
-6.8240 4.2500 -2.0815 0.9673
-7.1663 3.6213 -2.0789 0.9674
-7.4523 2.9660 -2.0767 0.9674
-7.6801 2.2889 -2.0750 0.9674
-7.8482 1.5952 -2.0736 0.9675
-7.9555 0.8900 -2.0727 0.9675
-8.0012 0.1783 -2.0722 0.9675
-7.9072 -1.2434 -2.0725 0.9675
-7.7682 -1.9430 -2.0733 0.9675
-7.5690 -2.6282 -2.0745 0.9674
-7.3109 -3.2941 -2.0762 0.9674
-6.9956 -3.9357 -2.0783 0.9674
-6.6254 -4.5481 -2.0807 0.9673
-6.2028 -5.1268 -2.0836 0.9673
-5.7307 -5.6672 -2.0868 0.9672
-2.5581 -7.1104 -1.9565 0.9693
-1.9195 -7.3266 -1.9610 0.9692
0.0850 -7.6280 -1.9751 0.9690
0.7654 -7.6087 -1.9800 0.9689
3.4048 -6.9286 -1.9988 0.9686
4.5991 -6.2420 -2.0075 0.9685
6.0691 -5.7401 -2.1629 0.9661
7.7624 -3.2915 -2.1830 0.9658
8.2370 -1.8663 -2.1868 0.9657
8.3749 -1.1263 -2.1879 0.9657
8.4445 -0.3766 -2.1886 0.9657
8.3771 1.1266 -2.1885 0.9657
8.2406 1.8671 -2.1877 0.9657
8.0371 2.5916 -2.1865 0.9657
7.0457 4.6091 -2.1799 0.9658
5.5516 6.2773 -2.1698 0.9660
2.2797 7.9726 -2.1470 0.9663
0.8260 8.2111 -2.1367 0.9665
-2.0713 7.9061 -2.1161 0.9668
-2.7603 7.6724 -2.1112 0.9669
-4.6588 6.6272 -2.0975 0.9671
-5.2199 6.1742 -2.0934 0.9671
-6.2103 5.1329 -2.0861 0.9673
-6.6325 4.5529 -2.0829 0.9673
-7.0021 3.9393 -2.0802 0.9673
-7.3165 3.2966 -2.0778 0.9674
-7.5736 2.6298 -2.0758 0.9674
-7.9095 1.2437 -2.0731 0.9675
-7.9538 -0.8898 -2.0722 0.9675
-7.8453 -1.5946 -2.0728 0.9675
-7.6760 -2.2877 -2.0738 0.9674
-6.4205 -4.8419 -2.0821 0.9673
-4.7921 -6.2093 -2.0308 0.9681
-4.0446 -6.3357 -1.9462 0.9694
-3.4717 -6.6842 -1.9502 0.9694
-2.8691 -6.9816 -1.9544 0.9693
-2.2414 -7.2254 -1.9587 0.9692
-1.5931 -7.4135 -1.9633 0.9692
-0.9291 -7.5437 -1.9680 0.9691
-0.2546 -7.6149 -1.9727 0.9690
0.4252 -7.6259 -1.9775 0.9689
1.7792 -7.4659 -1.9872 0.9688
3.0893 -7.0654 -1.9966 0.9686
3.7142 -6.7776 -2.0011 0.9686
4.3120 -6.4340 -2.0054 0.9685
6.3352 -5.4783 -2.1685 0.9660
7.9053 -2.9440 -2.1841 0.9657
8.1429 -2.2306 -2.1860 0.9657
8.3144 -1.4979 -2.1874 0.9657
8.4183 -0.7523 -2.1883 0.9657
7.7131 0.0000 -2.1835 0.9684
7.6823 0.6865 -2.1835 0.9684
7.4340 2.0364 -2.1820 0.9685
6.9451 3.3174 -2.1789 0.9685
5.8014 5.0166 -2.1712 0.9686
5.3238 5.5048 -2.1679 0.9687
3.6608 6.6801 -2.1564 0.9688
2.4086 7.1940 -2.1477 0.9690
0.4196 7.5253 -2.1337 0.9692
-0.2513 7.5160 -2.1289 0.9692
-0.9172 7.4472 -2.1242 0.9693
-1.5729 7.3198 -2.1195 0.9694
-2.2134 7.1353 -2.1149 0.9694
-2.8337 6.8954 -2.1105 0.9695
-3.4292 6.6024 -2.1062 0.9695
-3.9955 6.2588 -2.1021 0.9696
-4.5283 5.8675 -2.0982 0.9697
-5.0239 5.4318 -2.0946 0.9697
-5.4786 4.9551 -2.0912 0.9698
-5.8893 4.4414 -2.0882 0.9698
-6.5675 3.3187 -2.0831 0.9699
-7.0395 2.0980 -2.0795 0.9699
-7.1939 1.4622 -2.0782 0.9699
-7.3198 -0.4900 -2.0768 0.9700
-7.2483 -1.1398 -2.0772 0.9700
-7.1207 -1.7810 -2.0779 0.9699
-6.9377 -2.4090 -2.0791 0.9699
-6.7007 -3.0192 -2.0806 0.9699
-6.0714 -4.1678 -2.0848 0.9698
-5.2502 -5.1920 -2.0903 0.9698
-4.7747 -5.6475 -2.0936 0.9697
-4.2502 -6.0460 -2.0922 0.9697
-3.5859 -6.2110 -2.0303 0.9706
-2.9058 -6.2619 -1.9543 0.9717
-1.1554 -6.8498 -1.9665 0.9715
-0.5424 -6.9407 -1.9709 0.9715
0.0777 -6.9769 -1.9752 0.9714
3.6799 -6.0579 -2.0066 0.9710
5.0513 -5.7116 -2.1585 0.9688
5.5612 -5.2598 -2.1669 0.9687
6.0166 -4.7512 -2.1703 0.9686
6.4245 -4.2028 -2.1733 0.9686
7.0841 -3.0039 -2.1783 0.9685
7.3297 -2.3635 -2.1802 0.9685
7.6416 -1.0277 -2.1827 0.9685
7.7049 -0.3436 -2.1834 0.9684
7.6434 1.0279 -2.1833 0.9684
7.3338 2.3648 -2.1814 0.9685
7.0891 3.0060 -2.1798 0.9685
6.7872 3.6217 -2.1778 0.9685
6.0233 4.7565 -2.1727 0.9686
5.0692 5.7319 -2.1662 0.9687
3.9585 6.5166 -2.1585 0.9688
2.7295 7.0870 -2.1499 0.9689
-0.5852 7.4890 -2.1265 0.9693
-1.2467 7.3908 -2.1218 0.9693
-1.8954 7.2346 -2.1172 0.9694
-2.5264 7.0222 -2.1127 0.9695
-3.7163 6.4367 -2.1041 0.9696
-4.7810 5.6549 -2.0963 0.9697
-5.2566 5.1983 -2.0929 0.9697
-7.3343 -0.1634 -2.0768 0.9700
-7.1915 -1.4617 -2.0775 0.9700
-6.2475 -3.8909 -2.0836 0.9699
-5.4723 -4.9494 -2.0888 0.9698
-3.9585 -6.2009 -2.0826 0.9699
-1.4578 -6.7842 -1.9644 0.9716
0.3889 -6.9743 -1.9775 0.9714
1.0103 -6.9275 -1.9819 0.9713
2.8230 -6.4564 -1.9948 0.9711
4.0328 -6.0173 -2.0506 0.9703
4.7800 -5.9163 -2.1532 0.9689
5.7946 -5.0108 -2.1687 0.9687
6.2267 -4.4817 -2.1719 0.9686
6.9397 -3.3148 -2.1772 0.9685
7.2142 -2.6866 -2.1793 0.9685
7.4305 -2.0354 -2.1810 0.9685
7.6810 -0.6864 -2.1831 0.9684
6.6312 2.4695 -2.1765 0.9708
6.3803 3.0476 -2.1748 0.9708
6.0781 3.6001 -2.1728 0.9709
5.3311 4.6100 -2.1678 0.9709
4.8929 5.0592 -2.1648 0.9710
4.4164 5.4663 -2.1615 0.9710
3.9060 5.8282 -2.1580 0.9711
2.8007 6.4054 -2.1503 0.9712
2.2153 6.6167 -2.1462 0.9712
1.0030 6.8772 -2.1377 0.9713
0.3861 6.9250 -2.1333 0.9714
-0.2313 6.9177 -2.1289 0.9714
-0.8443 6.8555 -2.1246 0.9715
-2.0383 6.5707 -2.1160 0.9716
-2.6099 6.3509 -2.1119 0.9717
-3.1589 6.0820 -2.1080 0.9717
-4.1726 5.4066 -2.1006 0.9718
-5.4288 4.0940 -2.0914 0.9719
-6.2977 2.5064 -2.0848 0.9720
-6.6338 1.3484 -2.0821 0.9721
-6.7249 0.7523 -2.0813 0.9721
-6.7502 -0.4519 -2.0809 0.9721
-6.6842 -1.0510 -2.0812 0.9721
-6.1784 -2.7839 -2.0843 0.9720
-5.2391 -4.3302 -2.0906 0.9720
-3.9258 -5.5845 -2.0996 0.9718
-2.8732 -6.1915 -2.0994 0.9718
-2.2352 -6.2128 -2.0308 0.9727
-1.0639 -6.3071 -1.9673 0.9736
-0.4993 -6.3896 -1.9713 0.9735
1.2140 -6.3333 -1.9835 0.9734
1.7765 -6.2127 -1.9875 0.9733
3.6233 -5.9648 -2.1466 0.9712
5.5290 -4.3663 -2.1669 0.9709
5.9033 -3.8618 -2.1697 0.9709
6.5081 -2.7597 -2.1743 0.9708
6.7333 -2.1712 -2.1760 0.9708
7.0191 -0.9440 -2.1784 0.9708
7.0776 0.3156 -2.1791 0.9708
7.0206 0.9442 -2.1788 0.9708
6.9067 1.5648 -2.1782 0.9708
6.7367 2.1723 -2.1771 0.9708
6.2355 3.3273 -2.1739 0.9709
3.6394 5.9912 -2.1561 0.9711
3.0862 6.2802 -2.1523 0.9711
2.5102 6.5177 -2.1482 0.9712
1.9165 6.7022 -2.1441 0.9712
1.3097 6.8326 -2.1398 0.9713
0.6950 6.9080 -2.1355 0.9714
0.0772 6.9282 -2.1311 0.9714
-0.5387 6.8934 -2.1267 0.9715
-1.7453 6.6616 -2.1181 0.9716
-2.3267 6.4671 -2.1139 0.9716
-4.4057 5.2111 -2.0989 0.9718
-5.2444 4.3346 -2.0927 0.9719
-6.1824 2.7857 -2.0857 0.9720
-6.7636 -0.1507 -2.0808 0.9721
-6.4881 -1.9337 -2.0824 0.9721
-6.0507 -3.0575 -2.0852 0.9720
-5.7599 -3.5873 -2.0871 0.9720
-5.4236 -4.0901 -2.0894 0.9720
-5.0442 -4.5622 -2.0919 0.9719
-4.6245 -4.9999 -2.0948 0.9719
-4.1673 -5.3998 -2.0979 0.9719
-2.5505 -6.2062 -2.0638 0.9723
-1.3424 -6.2472 -1.9654 0.9736
-0.2144 -6.4121 -1.9733 0.9735
0.3579 -6.4189 -1.9774 0.9735
2.0662 -6.1716 -2.0018 0.9731
3.3236 -6.0647 -2.1271 0.9715
4.8871 -5.0532 -2.1622 0.9710
5.7218 -4.1183 -2.1684 0.9709
6.3757 -3.0454 -2.1733 0.9709
6.9687 -1.2555 -2.1779 0.9708
6.4388 1.1600 -2.1748 0.9728
5.8942 2.8154 -2.1713 0.9728
4.5217 4.6754 -2.1621 0.9730
4.0819 5.0522 -2.1590 0.9730
3.6106 5.3874 -2.1558 0.9730
3.1117 5.6782 -2.1523 0.9731
0.9278 6.3616 -2.1370 0.9733
0.3572 6.4068 -2.1330 0.9733
-0.7814 6.3445 -2.1249 0.9734
-1.3405 6.2380 -2.1209 0.9735
-1.8869 6.0827 -2.1170 0.9735
-2.4164 5.8800 -2.1132 0.9736
-2.9251 5.6318 -2.1095 0.9736
-3.4091 5.3402 -2.1060 0.9736
-3.8648 5.0077 -2.1027 0.9737
-4.6781 4.2311 -2.0967 0.9738
-5.0299 3.7932 -2.0941 0.9738
-5.6111 2.8354 -2.0898 0.9738
-5.8363 2.3228 -2.0880 0.9739
-6.0159 1.7929 -2.0866 0.9739
-6.1484 1.2497 -2.0856 0.9739
-6.2692 0.1397 -2.0844 0.9739
-6.1953 -0.9742 -2.0847 0.9739
-6.0859 -1.5222 -2.0853 0.9739
-5.9291 -2.0588 -2.0863 0.9739
-5.7259 -2.5800 -2.0876 0.9739
-5.1866 -3.5604 -2.0912 0.9738
-4.8543 -4.0122 -2.0934 0.9738
-4.4834 -4.4337 -2.0959 0.9738
-3.6363 -5.1727 -2.1018 0.9737
-2.1473 -5.9684 -2.1084 0.9736
-1.6082 -6.1384 -2.1093 0.9736
-1.0464 -6.2032 -2.0911 0.9738
0.0692 -6.2088 -2.0640 0.9742
2.3120 -6.0029 -2.1383 0.9732
3.3600 -5.5313 -2.1513 0.9731
5.1093 -4.0347 -2.1640 0.9729
5.7565 -3.0718 -2.1689 0.9729
6.2201 -2.0057 -2.1724 0.9728
6.5370 -0.2915 -2.1751 0.9728
6.5375 0.2915 -2.1753 0.9728
6.3798 1.4455 -2.1744 0.9728
6.2230 2.0067 -2.1734 0.9728
6.0160 2.5510 -2.1721 0.9728
5.7606 3.0740 -2.1704 0.9729
5.1141 4.0385 -2.1661 0.9729
4.7286 4.4723 -2.1635 0.9729
4.3060 4.8689 -2.1606 0.9730
3.8499 5.2252 -2.1574 0.9730
3.3643 5.5385 -2.1541 0.9731
2.3212 6.0268 -2.1468 0.9731
1.7724 6.1983 -2.1429 0.9732
0.0714 6.4102 -2.1309 0.9733
-0.4985 6.3790 -2.1269 0.9734
-2.1540 5.9872 -2.1151 0.9735
-3.1704 5.4913 -2.1077 0.9736
-3.6407 5.1789 -2.1043 0.9737
-4.0809 4.8269 -2.1011 0.9737
-4.8589 4.0160 -2.0954 0.9738
-5.1909 3.5634 -2.0929 0.9738
-5.4818 3.0840 -2.0907 0.9738
-5.9319 2.0598 -2.0873 0.9739
-6.0881 1.5227 -2.0861 0.9739
-6.2320 -0.6972 -2.0845 0.9739
-6.1466 -1.2494 -2.0849 0.9739
-5.6074 -2.8335 -2.0884 0.9739
-5.0255 -3.7899 -2.0923 0.9738
-4.6735 -4.2269 -2.0947 0.9738
-2.4109 -5.8665 -2.1083 0.9736
-1.3322 -6.1997 -2.1079 0.9736
-0.7643 -6.2059 -2.0785 0.9740
0.3460 -6.2054 -2.0659 0.9741
0.9037 -6.1962 -2.0815 0.9740
2.0393 -6.0909 -2.1351 0.9733
2.5811 -5.9032 -2.1416 0.9732
3.1066 -5.6689 -2.1488 0.9731
5.2871 -3.8055 -2.1654 0.9729
5.6111 -3.3235 -2.1678 0.9729
5.8904 -2.8136 -2.1699 0.9729
6.1224 -2.2800 -2.1717 0.9728
6.4371 -1.1597 -2.1742 0.9728
6.0734 -0.0000 -2.1719 0.9745
6.0492 0.5406 -2.1719 0.9745
5.8545 1.6037 -2.1707 0.9745
5.4712 2.6133 -2.1683 0.9746
5.2127 3.0875 -2.1666 0.9746
4.9127 3.5359 -2.1645 0.9746
4.5736 3.9549 -2.1622 0.9746
4.1984 4.3411 -2.1597 0.9747
3.7905 4.6915 -2.1569 0.9747
3.3531 5.0032 -2.1538 0.9747
2.4055 5.5016 -2.1473 0.9748
1.9032 5.6845 -2.1437 0.9749
1.3873 5.8215 -2.1401 0.9749
0.8622 5.9116 -2.1364 0.9749
-1.2463 5.7999 -2.1214 0.9751
-1.7546 5.6562 -2.1178 0.9752
-2.2473 5.4685 -2.1143 0.9752
-3.1712 4.9676 -2.1076 0.9753
-3.5955 4.6589 -2.1045 0.9753
-3.9904 4.3144 -2.1016 0.9753
-4.3531 3.9371 -2.0990 0.9754
-4.9713 3.0961 -2.0944 0.9754
-5.4324 2.1620 -2.0909 0.9755
-5.5997 1.6689 -2.0896 0.9755
-5.8242 -0.3899 -2.0874 0.9755
-5.6652 -1.4170 -2.0883 0.9755
-5.5190 -1.9164 -2.0892 0.9755
-5.3296 -2.4014 -2.0905 0.9755
-4.8271 -3.3136 -2.0938 0.9754
-4.5175 -3.7338 -2.0959 0.9754
-3.3831 -4.8124 -2.1037 0.9753
-2.9455 -5.1018 -2.1067 0.9753
-1.5002 -5.7260 -2.1168 0.9752
1.1230 -5.8586 -2.1332 0.9750
2.1535 -5.5914 -2.1427 0.9749
3.1209 -5.1377 -2.1497 0.9748
3.9941 -4.5162 -2.1560 0.9747
4.3861 -4.1483 -2.1589 0.9747
5.3437 -2.8515 -2.1660 0.9746
6.0670 -0.2706 -2.1718 0.9745
5.9212 1.3416 -2.1711 0.9745
5.5840 2.3678 -2.1690 0.9746
5.3473 2.8534 -2.1674 0.9746
5.0677 3.3151 -2.1656 0.9746
2.1563 5.5987 -2.1455 0.9748
1.1257 5.8725 -2.1383 0.9749
-0.4634 5.9299 -2.1270 0.9750
-0.9876 5.8548 -2.1233 0.9751
-1.5022 5.7337 -2.1196 0.9751
-4.1760 4.1297 -2.1003 0.9754
-5.3326 2.4028 -2.0916 0.9755
-5.8358 -0.1300 -2.0874 0.9755
-5.8013 -0.6490 -2.0875 0.9755
-5.5976 -1.6682 -2.0887 0.9755
-5.2192 -2.6374 -2.0912 0.9755
-4.6770 -3.5271 -2.0948 0.9754
-3.9864 -4.3101 -2.0995 0.9754
-3.5916 -4.6538 -2.1022 0.9753
-2.2444 -5.4615 -2.1116 0.9752
-1.7523 -5.6488 -2.1150 0.9752
-0.7247 -5.8837 -2.1200 0.9751
-0.1984 -5.9330 -2.1228 0.9751
1.3845 -5.8096 -2.1357 0.9749
1.9007 -5.6770 -2.1409 0.9749
3.3492 -4.9974 -2.1513 0.9748
4.5694 -3.9513 -2.1602 0.9747
4.9086 -3.5330 -2.1628 0.9746
5.2090 -3.0853 -2.1650 0.9746
5.4678 -2.6118 -2.1669 0.9746
5.8523 -1.6031 -2.1699 0.9746
5.6373 0.5037 -2.1689 0.9760
4.5792 3.2959 -2.1621 0.9761
4.2634 3.6867 -2.1600 0.9761
3.9141 4.0471 -2.1576 0.9762
3.5340 4.3741 -2.1550 0.9762
2.2435 5.1309 -2.1460 0.9763
1.7752 5.3021 -2.1427 0.9763
1.2942 5.4305 -2.1394 0.9764
0.8044 5.5153 -2.1359 0.9764
-0.6780 5.5046 -2.1254 0.9765
-1.1633 5.4136 -2.1219 0.9766
-1.6379 5.2801 -2.1185 0.9766
-3.3578 4.3508 -2.1061 0.9767
-3.7269 4.0295 -2.1034 0.9768
-4.6441 2.8924 -2.0966 0.9768
-5.0754 2.0199 -2.0934 0.9769
-5.3887 -0.8473 -2.0904 0.9769
-4.5095 -3.0956 -2.0961 0.9768
-4.2200 -3.4879 -2.0980 0.9768
-3.8969 -3.8537 -2.1002 0.9768
-1.8677 -5.1915 -2.1143 0.9766
0.0619 -5.5523 -2.1279 0.9765
0.5567 -5.5339 -2.1314 0.9765
1.0488 -5.4714 -2.1349 0.9764
2.0087 -5.2155 -2.1418 0.9763
4.0891 -3.8674 -2.1569 0.9762
4.4221 -3.4921 -2.1593 0.9762
4.7202 -3.0878 -2.1615 0.9761
4.9808 -2.6578 -2.1635 0.9761
5.2016 -2.2057 -2.1652 0.9761
5.5166 -1.2499 -2.1676 0.9761
5.5182 1.2502 -2.1683 0.9761
4.7236 3.0900 -2.1631 0.9761
3.7277 4.2149 -2.1563 0.9762
3.3335 4.5243 -2.1536 0.9762
2.9137 4.7966 -2.1507 0.9762
0.5574 5.5411 -2.1342 0.9764
0.0619 5.5596 -2.1307 0.9765
-0.4324 5.5339 -2.1271 0.9765
-2.7537 4.7695 -2.1105 0.9767
-3.5460 4.1942 -2.1047 0.9767
-3.9004 3.8572 -2.1021 0.9768
-4.2234 3.4907 -2.0998 0.9768
-4.7662 2.6814 -2.0957 0.9768
-5.1587 1.7913 -2.0927 0.9769
-5.2949 1.3244 -2.0916 0.9769
-5.3898 0.8475 -2.0908 0.9769
-5.4528 -0.1215 -2.0901 0.9769
-5.3462 -1.0867 -2.0907 0.9769
-5.0730 -2.0190 -2.0924 0.9769
-4.8761 -2.4640 -2.0937 0.9769
-4.6409 -2.8904 -2.0952 0.9769
-4.3691 -3.2949 -2.0970 0.9768
-4.0625 -3.6743 -2.0991 0.9768
-2.5374 -4.8854 -2.1096 0.9767
-1.1618 -5.4067 -2.1193 0.9766
1.7730 -5.2956 -2.1401 0.9764
2.2408 -5.1248 -2.1434 0.9763
2.6921 -4.9125 -2.1467 0.9763
3.1232 -4.6601 -2.1498 0.9763
4.2598 -3.6836 -2.1581 0.9762
5.0963 -2.4343 -2.1644 0.9761
5.2965 -1.9724 -2.1659 0.9761
5.2721 0.4711 -2.1663 0.9774
5.1027 1.3978 -2.1654 0.9774
4.9559 1.8456 -2.1644 0.9774
4.7693 2.2781 -2.1632 0.9774
3.3064 4.0924 -2.1533 0.9775
2.5221 4.6022 -2.1479 0.9776
1.6615 4.9625 -2.1418 0.9776
1.2114 5.0832 -2.1387 0.9777
0.7530 5.1630 -2.1355 0.9777
0.2900 5.2016 -2.1322 0.9777
-0.1738 5.1987 -2.1289 0.9778
-1.0895 5.0699 -2.1224 0.9778
-1.5341 4.9454 -2.1192 0.9779
-2.3798 4.5819 -2.1131 0.9779
-3.1462 4.0766 -2.1075 0.9780
-3.8103 3.4462 -2.1027 0.9780
-4.0977 3.0903 -2.1006 0.9781
-4.5730 2.3108 -2.0970 0.9781
-4.9042 1.4616 -2.0944 0.9781
-2.1285 0.0474 -0.8714 0.9908
-2.1302 -0.1426 -0.8738 0.9908
-4.6674 -2.1031 -2.0952 0.9781
-4.4646 -2.5117 -2.0966 0.9781
-3.9549 -3.2688 -2.1000 0.9781
-3.3196 -3.9264 -2.1043 0.9780
-2.9604 -4.2112 -2.1068 0.9780
-2.5771 -4.4636 -2.1095 0.9780
-2.1724 -4.6815 -2.1123 0.9779
-1.3117 -5.0067 -2.1183 0.9779
-0.8622 -5.1112 -2.1214 0.9778
0.0579 -5.1990 -2.1279 0.9778
0.5212 -5.1812 -2.1312 0.9777
1.4360 -5.0220 -2.1378 0.9777
1.8801 -4.8815 -2.1409 0.9776
2.3104 -4.7016 -2.1440 0.9776
2.7235 -4.4835 -2.1470 0.9776
3.4843 -3.9397 -2.1526 0.9775
3.8255 -3.6182 -2.1551 0.9775
4.4154 -2.8884 -2.1594 0.9775
4.6589 -2.4860 -2.1612 0.9774
5.0325 -1.6228 -2.1641 0.9774
5.2447 -0.7053 -2.1658 0.9774
5.2880 0.2358 -2.1664 0.9774
5.0344 1.6234 -2.1649 0.9774
4.6616 2.4875 -2.1625 0.9774
4.4183 2.8903 -2.1609 0.9774
3.8288 3.6212 -2.1569 0.9775
3.1190 4.2331 -2.1520 0.9775
2.3130 4.7068 -2.1464 0.9776
1.8822 4.8871 -2.1434 0.9776
0.0580 5.2053 -2.1305 0.9778
-0.8632 5.1173 -2.1240 0.9778
-1.3132 5.0126 -2.1208 0.9779
-1.7516 4.8686 -2.1176 0.9779
-2.1748 4.6866 -2.1146 0.9779
-3.9580 3.2713 -2.1016 0.9781
-4.2294 2.9033 -2.0996 0.9781
-4.8355 1.6791 -2.0950 0.9781
-2.1345 0.3356 -0.8843 0.9907
-2.1302 0.1426 -0.8738 0.9908
-2.1285 -0.0474 -0.8714 0.9908
-2.1261 -0.2378 -0.8756 0.9908
-4.9026 -1.4611 -2.0937 0.9781
-4.5705 -2.3096 -2.0959 0.9781
-4.3498 -2.7091 -2.0973 0.9781
-2.7716 -4.3416 -2.1081 0.9780
-2.3772 -4.5770 -2.1108 0.9780
-1.0882 -5.0640 -2.1199 0.9779
-0.6341 -5.1485 -2.1231 0.9778
0.2897 -5.1953 -2.1296 0.9778
0.7521 -5.1568 -2.1329 0.9777
1.2099 -5.0772 -2.1361 0.9777
2.0972 -4.7964 -2.1425 0.9776
3.3033 -4.0885 -2.1512 0.9775
3.6585 -3.7828 -2.1538 0.9775
3.9851 -3.4460 -2.1562 0.9775
4.2803 -3.0808 -2.1584 0.9775
4.5416 -2.6900 -2.1604 0.9774
4.7668 -2.2769 -2.1621 0.9774
5.1011 -1.3973 -2.1646 0.9774
5.2073 -0.9381 -2.1655 0.9774
5.2715 -0.4711 -2.1661 0.9774
4.9655 0.0000 -2.1640 0.9786
4.7870 1.3113 -2.1631 0.9786
4.0190 2.8927 -2.1580 0.9786
3.7423 3.2361 -2.1562 0.9786
3.1029 3.8405 -2.1518 0.9787
2.7456 4.0967 -2.1493 0.9787
2.3672 4.3196 -2.1467 0.9787
1.9708 4.5073 -2.1439 0.9788
1.5597 4.6586 -2.1410 0.9788
1.1373 4.7723 -2.1381 0.9788
0.7070 4.8477 -2.1351 0.9789
-0.1632 4.8821 -2.1289 0.9789
-0.5962 4.8412 -2.1258 0.9789
-1.4411 4.6455 -2.1198 0.9790
-1.8463 4.4927 -2.1169 0.9790
-2.2358 4.3048 -2.1141 0.9791
-2.6068 4.0835 -2.1114 0.9791
-3.5809 3.2387 -2.1043 0.9792
-4.2984 2.1721 -2.0989 0.9792
-1.8741 0.5585 -0.8523 0.9915
-1.9300 0.3923 -0.8583 0.9914
-1.9080 -0.4772 -0.8571 0.9915
-1.8290 -0.6351 -0.8438 0.9916
-4.3874 -1.9769 -2.0972 0.9792
-4.1965 -2.3609 -2.0985 0.9792
-3.9726 -2.7270 -2.1000 0.9792
-3.4321 -3.3941 -2.1037 0.9792
-3.1196 -3.6899 -2.1058 0.9791
-2.7818 -3.9572 -2.1081 0.9791
-2.0411 -4.3985 -2.1133 0.9791
-0.8098 -4.8010 -2.1219 0.9790
-0.3798 -4.8609 -2.1249 0.9790
1.3482 -4.7150 -2.1372 0.9788
2.1688 -4.4134 -2.1431 0.9788
2.9244 -3.9690 -2.1486 0.9787
4.1428 -2.7101 -2.1575 0.9786
4.7212 -1.5224 -2.1619 0.9786
4.9606 0.2212 -2.1641 0.9786
4.9208 0.6618 -2.1639 0.9786
4.8414 1.0969 -2.1634 0.9786
4.7229 1.5229 -2.1627 0.9786
4.5665 1.9364 -2.1617 0.9786
3.2727 3.7005 -2.1530 0.9787
2.9271 3.9727 -2.1506 0.9787
2.5588 4.2124 -2.1480 0.9787
1.7669 4.5876 -2.1425 0.9788
1.3497 4.7202 -2.1396 0.9788
0.4900 4.8708 -2.1335 0.9789
0.0545 4.8881 -2.1304 0.9789
-1.2335 4.7084 -2.1213 0.9790
-1.6454 4.5736 -2.1183 0.9790
-2.4238 4.1982 -2.1127 0.9791
-2.7844 3.9609 -2.1101 0.9791
-3.4348 3.3968 -2.1053 0.9791
-3.7198 3.0745 -2.1032 0.9792
-3.9751 2.7288 -2.1013 0.9792
-4.1989 2.3622 -2.0997 0.9792
-4.3894 1.9778 -2.0982 0.9792
-1.9080 0.4772 -0.8571 0.9915
-1.9397 0.3050 -0.8557 0.9915
-1.9479 0.1304 -0.8508 0.9915
-1.9300 -0.3923 -0.8583 0.9914
-4.4700 -1.7790 -2.0967 0.9792
-4.2962 -2.1710 -2.0978 0.9792
-4.0886 -2.5464 -2.0992 0.9792
-3.8487 -2.9024 -2.1008 0.9792
-3.2791 -3.5454 -2.1047 0.9791
-2.6043 -4.0796 -2.1094 0.9791
-2.2336 -4.3005 -2.1119 0.9791
-1.8443 -4.4879 -2.1146 0.9791
-1.4395 -4.6405 -2.1175 0.9790
-0.1630 -4.8765 -2.1265 0.9789
1.1360 -4.7670 -2.1357 0.9788
2.7430 -4.0928 -2.1473 0.9787
3.1001 -3.8371 -2.1499 0.9787
3.4332 -3.5499 -2.1523 0.9787
3.7395 -3.2336 -2.1545 0.9787
4.0162 -2.8907 -2.1566 0.9786
4.2612 -2.5239 -2.1584 0.9786
4.6475 -1.7308 -2.1613 0.9786
4.8850 -0.8801 -2.1632 0.9786
4.9452 -0.4419 -2.1638 0.9786
4.6706 0.0000 -2.1619 0.9796
4.6520 0.4157 -2.1619 0.9796
4.5959 0.8280 -2.1616 0.9796
4.5028 1.2334 -2.1611 0.9796
4.2091 2.0105 -2.1592 0.9796
3.7809 2.7213 -2.1563 0.9797
3.5208 3.0446 -2.1545 0.9797
3.2329 3.3428 -2.1526 0.9797
2.9196 3.6137 -2.1504 0.9797
2.2277 4.0650 -2.1456 0.9798
1.8548 4.2420 -2.1430 0.9798
1.4680 4.3847 -2.1403 0.9798
1.0705 4.4921 -2.1375 0.9799
0.6656 4.5634 -2.1347 0.9799
0.2564 4.5983 -2.1318 0.9799
-0.5614 4.5585 -2.1260 0.9800
-1.3571 4.3750 -2.1203 0.9800
-1.7389 4.2313 -2.1176 0.9800
-3.0918 3.3429 -2.1077 0.9801
-3.3738 3.0514 -2.1057 0.9801
-3.6287 2.7366 -2.1038 0.9802
-4.0504 2.0467 -2.1006 0.9802
-1.5257 0.6072 -0.7601 0.9928
-1.5924 0.4746 -0.7692 0.9927
-1.6165 -0.4043 -0.7713 0.9927
-1.5621 -0.5424 -0.7654 0.9927
-4.1344 -1.8629 -2.0991 0.9802
-3.9544 -2.2247 -2.1002 0.9802
-3.7432 -2.5696 -2.1017 0.9802
-3.5024 -2.8948 -2.1033 0.9802
-2.9390 -3.4763 -2.1071 0.9801
-2.6207 -3.7279 -2.1093 0.9801
-1.9226 -4.1430 -2.1142 0.9801
-1.5481 -4.3030 -2.1168 0.9800
1.2691 -4.4382 -2.1367 0.9799
1.6612 -4.3133 -2.1395 0.9798
2.0412 -4.1537 -2.1423 0.9798
3.0768 -3.4790 -2.1498 0.9797
3.6520 -2.8840 -2.1540 0.9797
4.1120 -2.1942 -2.1574 0.9797
4.2938 -1.8207 -2.1588 0.9797
4.6279 -0.6224 -2.1615 0.9796
4.6658 -0.2081 -2.1619 0.9796
4.6660 0.2081 -2.1620 0.9796
4.6286 0.6225 -2.1618 0.9796
4.5539 1.0318 -2.1614 0.9796
4.4426 1.4326 -2.1607 0.9796
4.1141 2.1954 -2.1585 0.9797
3.3802 3.1970 -2.1536 0.9797
1.2704 4.4428 -2.1389 0.9798
0.4613 4.5854 -2.1332 0.9799
0.0513 4.6020 -2.1303 0.9799
-0.7634 4.5259 -2.1245 0.9800
-1.5497 4.3074 -2.1189 0.9800
-1.9244 4.1470 -2.1162 0.9801
-3.5048 2.8968 -2.1047 0.9802
-4.1362 1.8637 -2.1000 0.9802
-1.6165 0.4043 -0.7713 0.9927
-1.5924 -0.4746 -0.7692 0.9927
-1.5257 -0.6072 -0.7601 0.9928
-3.8527 -2.3994 -2.1009 0.9802
-3.6264 -2.7348 -2.1024 0.9802
-3.0894 -3.3403 -2.1061 0.9801
-2.7827 -3.6056 -2.1082 0.9801
-0.1535 -4.5917 -2.1266 0.9800
0.6648 -4.5586 -2.1324 0.9799
1.0694 -4.4873 -2.1353 0.9799
2.2255 -4.0611 -2.1436 0.9798
2.5813 -3.8515 -2.1462 0.9798
3.2304 -3.3402 -2.1509 0.9797
3.7785 -2.7196 -2.1549 0.9797
4.2071 -2.0096 -2.1582 0.9797
4.3718 -1.6281 -2.1594 0.9796
4.5015 -1.2331 -2.1604 0.9796
4.5950 -0.8278 -2.1612 0.9796
4.3332 0.7807 -2.1597 0.9806
3.9687 1.8957 -2.1574 0.9806
3.3202 2.8711 -2.1531 0.9806
2.4368 3.6359 -2.1470 0.9807
2.1012 3.8342 -2.1447 0.9807
1.7496 4.0015 -2.1422 0.9807
-0.1450 4.3376 -2.1289 0.9808
-0.9095 4.2323 -2.1234 0.9809
-1.6414 3.9941 -2.1182 0.9809
-2.6294 3.4070 -2.1110 0.9810
-2.9193 3.1563 -2.1089 0.9810
-3.1856 2.8812 -2.1070 0.9810
-3.6402 2.2671 -2.1036 0.9811
-3.8250 1.9328 -2.1022 0.9811
-1.3200 0.3934 -0.6756 0.9939
-1.3047 0.2652 -0.6531 0.9941
-1.3419 0.1501 -0.6624 0.9940
-1.3536 0.0302 -0.6641 0.9940
-1.3513 -0.0905 -0.6643 0.9940
-1.3149 -0.3289 -0.6649 0.9940
-1.3171 -0.4573 -0.6839 0.9938
-3.3073 -2.7336 -2.1047 0.9811
-3.0534 -3.0195 -2.1064 0.9810
-2.7750 -3.2823 -2.1083 0.9810
-1.8149 -3.9111 -2.1150 0.9810
-1.0953 -4.1809 -2.1200 0.9809
-0.7198 -4.2671 -2.1227 0.9809
-0.3375 -4.3197 -2.1254 0.9809
0.0483 -4.3382 -2.1281 0.9809
0.4348 -4.3222 -2.1308 0.9808
0.8188 -4.2718 -2.1336 0.9808
1.1973 -4.1873 -2.1363 0.9808
1.9255 -3.9182 -2.1415 0.9807
2.2692 -3.7356 -2.1440 0.9807
2.9018 -3.2811 -2.1486 0.9807
3.6753 -2.4043 -2.1543 0.9806
3.8774 -2.0691 -2.1558 0.9806
4.0486 -1.7168 -2.1571 0.9806
4.1874 -1.3503 -2.1582 0.9806
4.3634 -0.5868 -2.1596 0.9806
4.3992 0.1962 -2.1601 0.9806
4.2936 0.9728 -2.1595 0.9806
4.1888 1.3507 -2.1589 0.9806
3.6773 2.4056 -2.1555 0.9806
3.4461 2.7214 -2.1539 0.9806
2.9040 3.2836 -2.1502 0.9807
2.5977 3.5256 -2.1481 0.9807
2.2712 3.7389 -2.1459 0.9807
0.8197 4.2761 -2.1357 0.9808
0.4353 4.3266 -2.1330 0.9808
-0.3379 4.3240 -2.1275 0.9809
-1.0964 4.1850 -2.1221 0.9809
-1.4627 4.0657 -2.1195 0.9809
-1.8166 3.9147 -2.1169 0.9810
-3.3094 2.7353 -2.1061 0.9811
-3.5369 2.4279 -2.1044 0.9811
-3.7363 2.1020 -2.1029 0.9811
-1.2865 0.5797 -0.6922 0.9937
-1.3149 0.3289 -0.6649 0.9940
-1.3513 0.0905 -0.6643 0.9940
-1.3419 -0.1501 -0.6624 0.9940
-1.3047 -0.2652 -0.6531 0.9941
-1.3200 -0.3934 -0.6756 0.9939
-1.3059 -0.5198 -0.6895 0.9938
-3.6383 -2.2659 -2.1025 0.9811
-2.9171 -3.1540 -2.1074 0.9810
-2.6273 -3.4043 -2.1094 0.9810
-2.3162 -3.6283 -2.1115 0.9810
-1.6399 -3.9904 -2.1162 0.9810
-1.2797 -4.1254 -2.1187 0.9809
0.6273 -4.3013 -2.1322 0.9808
1.0090 -4.2338 -2.1349 0.9808
1.3835 -4.1324 -2.1376 0.9808
3.0466 -3.1501 -2.1496 0.9807
3.3179 -2.8691 -2.1516 0.9806
3.9670 -1.8949 -2.1565 0.9806
4.1221 -1.5351 -2.1577 0.9806
4.2443 -1.1626 -2.1586 0.9806
4.3324 -0.7805 -2.1594 0.9806
4.3856 -0.3919 -2.1598 0.9806
4.1438 0.3703 -2.1583 0.9814
3.8961 1.4509 -2.1568 0.9814
3.7498 1.7911 -2.1559 0.9814
3.5736 2.1166 -2.1547 0.9815
3.3689 2.4248 -2.1533 0.9815
2.3030 3.4363 -2.1460 0.9815
1.6537 3.7822 -2.1415 0.9816
0.5937 4.0705 -2.1341 0.9816
0.2287 4.1023 -2.1315 0.9817
-0.5010 4.0679 -2.1263 0.9817
-1.2114 3.9053 -2.1212 0.9817
-1.8804 3.6204 -2.1164 0.9818
-2.7617 2.9859 -2.1100 0.9818
-3.0138 2.7258 -2.1081 0.9819
-1.0665 0.5389 -0.6199 0.9946
-1.1266 0.3358 -0.6099 0.9947
-1.1649 0.1303 -0.6081 0.9947
-1.1785 0.0263 -0.6115 0.9947
-1.1275 -0.2820 -0.6029 0.9948
-1.1198 -0.3889 -0.6150 0.9947
-3.5335 -1.9879 -2.1033 0.9819
-3.3445 -2.2959 -2.1046 0.9819
-2.6252 -3.1051 -2.1094 0.9818
-2.3406 -3.3296 -2.1114 0.9818
-2.0370 -3.5282 -2.1135 0.9818
-1.3821 -3.8417 -2.1181 0.9818
-0.6807 -4.0353 -2.1230 0.9817
0.4111 -4.0866 -2.1307 0.9817
0.7741 -4.0387 -2.1333 0.9816
2.1448 -3.5308 -2.1432 0.9816
2.4531 -3.3293 -2.1454 0.9815
2.7424 -3.1008 -2.1475 0.9815
3.0102 -2.8471 -2.1495 0.9815
3.4728 -2.2718 -2.1529 0.9815
3.6637 -1.9550 -2.1543 0.9815
3.9564 -1.2758 -2.1566 0.9814
4.0557 -0.9189 -2.1574 0.9814
4.1561 -0.1853 -2.1582 0.9814
4.0566 0.9191 -2.1578 0.9814
3.6654 1.9559 -2.1553 0.9815
3.4747 2.2730 -2.1540 0.9815
3.2563 2.5715 -2.1526 0.9815
3.0122 2.8489 -2.1509 0.9815
2.7443 3.1031 -2.1491 0.9815
2.4550 3.3319 -2.1471 0.9815
2.1465 3.5337 -2.1449 0.9815
1.4828 3.8500 -2.1403 0.9816
0.7749 4.0425 -2.1353 0.9816
0.0457 4.1059 -2.1302 0.9817
-0.3195 4.0887 -2.1276 0.9817
-1.0369 3.9577 -2.1225 0.9817
-2.0387 3.5311 -2.1153 0.9818
-2.6271 3.1074 -2.1110 0.9818
-3.3463 2.2971 -2.1057 0.9819
-3.5351 1.9888 -2.1043 0.9819
-1.1517 0.1811 -0.6048 0.9948
-1.1785 -0.0263 -0.6115 0.9947
-1.1649 -0.1303 -0.6081 0.9947
-1.0665 -0.5390 -0.6199 0.9946
-3.2400 -2.4434 -2.1053 0.9819
-2.7598 -2.9838 -2.1085 0.9819
-2.4854 -3.2205 -2.1104 0.9818
-2.1911 -3.4322 -2.1124 0.9818
-1.8788 -3.6173 -2.1146 0.9818
-1.2103 -3.9017 -2.1193 0.9818
-0.8593 -3.9986 -2.1217 0.9817
-0.5005 -4.0640 -2.1243 0.9817
0.2285 -4.0983 -2.1294 0.9817
0.9539 -4.0026 -2.1346 0.9816
1.3079 -3.9064 -2.1371 0.9816
1.6523 -3.7789 -2.1396 0.9816
2.6002 -3.2184 -2.1465 0.9815
2.8791 -2.9770 -2.1485 0.9815
3.7483 -1.7904 -2.1550 0.9815
3.8948 -1.4504 -2.1561 0.9814
4.0101 -1.0985 -2.1570 0.9814
4.1435 -0.3703 -2.1581 0.9814
1.9715 0.7342 -1.1522 0.9905
3.5494 1.6954 -2.1544 0.9822
3.1890 2.2953 -2.1520 0.9822
2.7275 2.8203 -2.1489 0.9823
2.1804 3.2534 -2.1451 0.9823
1.5659 3.5813 -2.1408 0.9823
0.5622 3.8551 -2.1338 0.9824
-0.4746 3.8533 -2.1264 0.9824
-1.1477 3.6997 -2.1216 0.9825
-1.4708 3.5790 -2.1193 0.9825
-1.7816 3.4302 -2.1171 0.9825
-2.0778 3.2548 -2.1149 0.9825
-2.3569 3.0540 -2.1129 0.9826
-3.0724 2.3170 -2.1076 0.9826
-3.2642 2.0330 -2.1062 0.9826
-0.9364 0.4732 -0.5746 0.9952
-1.0000 0.2032 -0.5589 0.9954
-1.0293 0.1152 -0.5673 0.9953
-1.0415 0.0232 -0.5706 0.9953
-1.0376 -0.0695 -0.5696 0.9953
-1.0166 -0.1599 -0.5637 0.9953
-0.9847 -0.2463 -0.5559 0.9954
-0.9240 -0.5198 -0.5806 0.9952
-2.7376 -2.7073 -2.1088 0.9826
-2.2180 -3.1551 -2.1123 0.9826
-1.9302 -3.3432 -2.1143 0.9825
-1.6266 -3.5052 -2.1164 0.9825
-1.3095 -3.6399 -2.1186 0.9825
-0.9814 -3.7460 -2.1209 0.9825
0.0433 -3.8854 -2.1282 0.9824
0.3894 -3.8706 -2.1306 0.9824
1.0719 -3.7488 -2.1355 0.9824
2.5963 -2.9357 -2.1465 0.9823
2.8498 -2.6953 -2.1484 0.9823
3.0808 -2.4329 -2.1501 0.9823
3.2875 -2.1506 -2.1516 0.9822
2.0041 -0.4541 -1.1255 0.9907
2.0434 -0.0911 -1.1203 0.9907
2.0434 0.0911 -1.1203 0.9907
2.0226 0.2720 -1.1178 0.9907
1.9407 0.8229 -1.1546 0.9904
3.2891 2.1517 -2.1527 0.9822
3.0826 2.4343 -2.1513 0.9822
2.8516 2.6970 -2.1497 0.9823
2.0324 3.3457 -2.1441 0.9823
1.7248 3.5099 -2.1419 0.9823
1.4041 3.6456 -2.1397 0.9823
0.3897 3.8741 -2.1326 0.9824
0.0433 3.8889 -2.1301 0.9824
-0.9823 3.7493 -2.1228 0.9825
-1.3106 3.6429 -2.1204 0.9825
-1.9317 3.3457 -2.1160 0.9825
-2.4895 2.9446 -2.1119 0.9826
-0.9847 0.2463 -0.5559 0.9954
-1.0166 0.1599 -0.5637 0.9953
-1.0415 -0.0232 -0.5706 0.9953
-1.0293 -0.1152 -0.5673 0.9953
-1.0000 -0.2033 -0.5589 0.9954
-0.9825 -0.2928 -0.5615 0.9953
-0.9638 -0.3836 -0.5681 0.9953
-0.9364 -0.4732 -0.5746 0.9952
-3.2627 -2.0320 -2.1052 0.9826
-3.0707 -2.3157 -2.1065 0.9826
-2.8544 -2.5817 -2.1080 0.9826
-2.6153 -2.8277 -2.1096 0.9826
-1.7802 -3.4275 -2.1154 0.9825
-1.4696 -3.5760 -2.1175 0.9825
-1.1467 -3.6965 -2.1198 0.9825
-0.8140 -3.7881 -2.1221 0.9825
-0.4742 -3.8499 -2.1245 0.9825
0.2164 -3.8818 -2.1294 0.9824
0.5617 -3.8516 -2.1319 0.9824
0.9034 -3.7906 -2.1343 0.9824
1.5646 -3.5784 -2.1390 0.9823
2.4618 -3.0471 -2.1455 0.9823
2.7257 -2.8184 -2.1475 0.9823
3.1873 -2.2941 -2.1509 0.9822
3.5480 -1.6947 -2.1536 0.9822
1.9714 -0.7342 -1.1522 0.9905
2.0036 -0.3610 -1.1150 0.9908
2.0356 -0.1819 -1.1193 0.9907
1.8754 -0.0000 -1.0828 0.9914
1.8426 0.3319 -1.0810 0.9914
1.7869 0.6655 -1.1009 0.9912
1.7194 0.8213 -1.1001 0.9912
2.5862 2.6741 -2.1478 0.9830
2.0677 3.0852 -2.1443 0.9830
1.7832 3.2540 -2.1423 0.9830
1.4851 3.3965 -2.1402 0.9830
0.5333 3.6567 -2.1335 0.9831
0.2055 3.6856 -2.1312 0.9831
-0.1232 3.6853 -2.1289 0.9831
-0.4502 3.6557 -2.1265 0.9831
-0.7730 3.5972 -2.1242 0.9831
-1.3956 3.3960 -2.1198 0.9832
-2.2368 2.8983 -2.1137 0.9832
-2.7108 2.4517 -2.1102 0.9833
-0.8760 0.4427 -0.5667 0.9955
-0.8932 0.3555 -0.5550 0.9956
-0.9274 -0.0621 -0.5366 0.9957
-0.9189 -0.1445 -0.5370 0.9957
-0.9030 -0.2259 -0.5374 0.9957
-0.8984 -0.3119 -0.5490 0.9956
-0.8858 -0.3991 -0.5609 0.9955
-3.0087 -2.0654 -2.1070 0.9833
-2.5983 -2.5695 -2.1098 0.9833
-2.1049 -2.9943 -2.1132 0.9832
-1.8317 -3.1726 -2.1151 0.9832
-0.9312 -3.5543 -2.1213 0.9832
-0.2869 -3.6710 -2.1259 0.9831
0.0411 -3.6859 -2.1282 0.9831
0.3694 -3.6717 -2.1305 0.9831
1.0167 -3.5557 -2.1352 0.9831
1.9259 -3.1704 -2.1417 0.9830
2.4620 -2.7838 -2.1456 0.9830
3.1169 -2.0390 -2.1504 0.9829
1.6861 -0.8997 -1.1034 0.9912
1.7564 -0.7448 -1.1014 0.9912
1.8108 -0.5839 -1.0985 0.9913
1.8592 -0.2500 -1.0831 0.9914
1.7564 0.7448 -1.1014 0.9912
1.6860 0.8997 -1.1034 0.9912
3.1184 2.0400 -2.1514 0.9829
2.7038 2.5572 -2.1486 0.9830
2.4636 2.7856 -2.1470 0.9830
1.9273 3.1728 -2.1433 0.9830
1.0176 3.5586 -2.1369 0.9830
0.3697 3.6748 -2.1324 0.9831
0.0411 3.6891 -2.1300 0.9831
-0.2871 3.6741 -2.1277 0.9831
-0.6123 3.6300 -2.1254 0.9831
-1.5447 3.3287 -2.1187 0.9832
-1.8331 3.1749 -2.1166 0.9832
-2.1064 2.9964 -2.1146 0.9832
-2.3626 2.7945 -2.1128 0.9832
-2.8162 2.3277 -2.1094 0.9833
-0.8638 0.4859 -0.5722 0.9954
-0.8858 0.3991 -0.5609 0.9955
-0.8984 0.3119 -0.5490 0.9956
-0.9189 0.1445 -0.5370 0.9957
-0.9274 0.0621 -0.5366 0.9957
-0.9237 -0.1033 -0.5366 0.9957
-0.9120 -0.1854 -0.5373 0.9957
-0.8760 -0.4427 -0.5667 0.9955
-0.8491 -0.5289 -0.5776 0.9954
-2.7092 -2.4503 -2.1090 0.9833
-2.4822 -2.6837 -2.1106 0.9833
-1.9703 -3.0864 -2.1141 0.9832
-1.3945 -3.3933 -2.1181 0.9832
-0.7723 -3.5942 -2.1225 0.9832
0.5329 -3.6536 -2.1317 0.9831
1.7819 -3.2515 -2.1407 0.9830
2.5846 -2.6725 -2.1465 0.9830
2.8144 -2.4337 -2.1482 0.9830
3.0220 -2.1751 -2.1497 0.9829
3.2057 -1.8987 -2.1511 0.9829
1.7194 -0.8213 -1.1001 0.9912
1.7869 -0.6654 -1.1009 0.9912
1.8267 -0.5004 -1.0935 0.9913
1.8700 -0.1671 -1.0839 0.9914
