ply
format ascii 1.0
element vertex 718
property float32 x
property float32 y
property float32 z
property float32 I
end_header
18.2931 0.0000 -4.7364 0.9272
15.7394 9.3225 -4.7364 0.9272
14.8472 10.6864 -4.7364 0.9272
13.8371 11.9654 -4.7364 0.9272
11.1265 13.7714 -4.5840 0.9295
-14.1355 10.6601 -4.5840 0.9295
-16.3269 8.2504 -4.7364 0.9272
-16.9965 6.7644 -4.7364 0.9272
-17.5311 5.2248 -4.7364 0.9272
-18.1797 2.0337 -4.7364 0.9272
-18.2886 0.4076 -4.7364 0.9272
-18.0711 -2.8415 -4.7364 0.9272
-17.2658 -5.9953 -4.7322 0.9273
17.2669 -3.9122 -4.5840 0.9295
17.5465 -2.3598 -4.5840 0.9295
18.2750 -0.8149 -4.7364 0.9272
18.1299 2.4382 -4.7364 0.9272
16.8416 7.1414 -4.7364 0.9272
16.1391 8.6121 -4.7364 0.9272
-13.6466 11.2792 -4.5840 0.9295
-15.9432 8.9695 -4.7364 0.9272
-17.2809 6.0006 -4.7364 0.9272
-17.7464 4.4387 -4.7364 0.9272
-18.0711 2.8416 -4.7364 0.9272
-18.2886 -0.4076 -4.7364 0.9272
-18.1797 -2.0337 -4.7364 0.9272
-17.5311 -5.2248 -4.7364 0.9272
-15.8016 -7.9849 -4.5840 0.9295
17.0755 -4.6775 -4.5840 0.9295
18.2086 -1.6271 -4.7333 0.9272
16.7309 0.0000 -4.7364 0.9328
16.6646 1.4892 -4.7364 0.9328
16.1365 4.4202 -4.7364 0.9328
15.6790 5.8389 -4.7364 0.9328
10.1763 12.5954 -4.5840 0.9349
9.0149 13.4511 -4.5840 0.9349
-12.9284 9.7497 -4.5840 0.9349
-14.2018 8.8450 -4.7364 0.9328
-16.6272 1.8600 -4.7364 0.9328
-16.7268 0.3727 -4.7364 0.9328
-16.5279 -2.5989 -4.7364 0.9328
-15.8052 -5.4882 -4.7364 0.9328
-14.7632 -6.6520 -4.5840 0.9349
-14.1125 -7.9396 -4.5840 0.9349
15.4112 -4.9695 -4.5840 0.9349
15.7923 -3.5781 -4.5840 0.9349
16.7143 -0.7453 -4.7364 0.9328
16.7143 0.7453 -4.7364 0.9328
16.5817 2.2300 -4.7364 0.9328
16.3174 3.6970 -4.7364 0.9328
15.9235 5.1347 -4.7364 0.9328
14.7609 7.8766 -4.7364 0.9328
9.6051 13.0362 -4.5840 0.9349
-12.4812 10.3160 -4.5840 0.9349
-14.5817 8.2035 -4.7364 0.9328
-15.2540 6.8731 -4.7364 0.9328
-16.2310 4.0596 -4.7364 0.9328
-16.5279 2.5989 -4.7364 0.9328
-16.7268 -0.3727 -4.7364 0.9328
-16.6272 -1.8600 -4.7364 0.9328
-16.3957 -3.3326 -4.7364 0.9328
-15.5213 -6.1773 -4.7292 0.9329
-14.4522 -7.3030 -4.5840 0.9349
15.6173 -4.2780 -4.5840 0.9349
15.3379 1.3706 -4.7364 0.9376
15.1551 2.7303 -4.7364 0.9376
14.8519 4.0684 -4.7364 0.9376
14.4308 5.3741 -4.7364 0.9376
13.8953 6.6372 -4.7364 0.9376
13.2494 7.8476 -4.7364 0.9376
11.6480 10.0724 -4.7364 0.9376
8.2972 12.3803 -4.5840 0.9395
-9.1056 11.7985 -4.5840 0.9395
-12.2939 9.2712 -4.7361 0.9376
-13.7439 6.9451 -4.7364 0.9376
-15.3952 0.3431 -4.7364 0.9376
-14.9388 -3.7365 -4.7364 0.9376
-13.7900 -6.2135 -4.6522 0.9387
-12.9891 -7.3075 -4.5840 0.9395
14.1843 -4.5739 -4.5840 0.9395
14.9303 -3.3828 -4.7086 0.9379
15.0184 3.4027 -4.7364 0.9376
14.6559 4.7259 -4.7364 0.9376
14.1771 6.0116 -4.7364 0.9376
12.8866 8.4300 -4.7364 0.9376
11.1878 10.5813 -4.7364 0.9376
8.8405 11.9984 -4.5840 0.9395
7.7375 12.7376 -4.5840 0.9395
-9.6221 11.3811 -4.5840 0.9395
-10.5969 10.4795 -4.5840 0.9395
-12.6956 8.7150 -4.7364 0.9376
-13.4209 7.5505 -4.7364 0.9376
-14.0397 6.3260 -4.7364 0.9376
-14.5470 5.0513 -4.7364 0.9376
-14.9389 3.7365 -4.7364 0.9376
-15.2121 2.3920 -4.7364 0.9376
-15.0905 -3.0673 -4.7364 0.9376
-14.7576 -4.3982 -4.7364 0.9376
-12.6507 -7.8789 -4.5840 0.9395
15.1551 -2.7303 -4.7364 0.9376
15.3379 -1.3706 -4.7364 0.9376
14.2489 0.0000 -4.7364 0.9417
14.1923 1.2682 -4.7364 0.9417
14.0231 2.5264 -4.7364 0.9417
12.8574 6.1415 -4.7364 0.9417
11.5648 8.3239 -4.7364 0.9417
10.7780 9.3201 -4.7364 0.9417
9.9057 10.2425 -4.7364 0.9417
6.6274 12.0935 -4.5840 0.9435
-7.4204 11.6238 -4.5840 0.9435
-8.4255 10.9173 -4.5840 0.9435
-9.3638 10.1240 -4.5840 0.9435
-11.3765 8.5794 -4.7364 0.9417
-12.0949 7.5328 -4.7364 0.9417
-12.7174 6.4264 -4.7364 0.9417
-13.6553 4.0697 -4.7364 0.9417
-14.2454 0.3175 -4.7364 0.9417
-14.2171 -0.9517 -4.7364 0.9417
-12.9863 -5.8514 -4.7347 0.9417
-12.0189 -6.7617 -4.5840 0.9435
-11.3694 -7.8046 -4.5840 0.9435
12.1666 -6.4923 -4.5840 0.9435
12.6961 -5.3836 -4.5840 0.9435
13.1264 -4.2327 -4.5845 0.9435
13.8967 -3.1486 -4.7364 0.9417
14.2347 -0.6348 -4.7364 0.9417
14.2348 0.6347 -4.7364 0.9417
14.1218 1.8992 -4.7364 0.9417
12.5711 6.7081 -4.7364 0.9417
11.9241 7.8004 -4.7364 0.9417
-7.9308 11.2817 -4.5840 0.9435
-8.9035 10.5311 -4.5840 0.9435
-9.8331 9.7242 -4.5969 0.9434
-10.9830 9.0777 -4.7364 0.9417
-12.4185 6.9865 -4.7364 0.9417
-13.4605 4.6740 -4.7364 0.9417
-13.8231 3.4574 -4.7364 0.9417
-14.0760 2.2133 -4.7364 0.9417
-14.2171 0.9517 -4.7364 0.9417
-14.1606 -1.5841 -4.7364 0.9417
-13.6553 -4.0697 -4.7364 0.9417
-13.2389 -5.2690 -4.7364 0.9417
-12.3227 -6.2269 -4.5894 0.9435
-11.7058 -7.2904 -4.5840 0.9435
12.4437 -5.9439 -4.5840 0.9435
13.7237 -3.7593 -4.7299 0.9418
14.0231 -2.5264 -4.7364 0.9417
12.7741 3.4992 -4.7364 0.9453
11.9513 5.7087 -4.7364 0.9453
11.3958 6.7497 -4.7364 0.9453
10.0185 8.6633 -4.7364 0.9453
9.2076 9.5206 -4.7364 0.9453
8.3237 10.3024 -4.7364 0.9453
6.1604 11.2413 -4.5840 0.9470
4.0696 12.1554 -4.5840 0.9470
-4.8724 11.8564 -4.5840 0.9470
-6.8975 10.8047 -4.5840 0.9470
-10.5748 7.9748 -4.7364 0.9453
-12.3059 4.8977 -4.7364 0.9453
-12.6930 3.7829 -4.7364 0.9453
-13.1626 1.4725 -4.7364 0.9453
-12.0755 -5.4410 -4.7364 0.9453
-11.1719 -6.2852 -4.5840 0.9470
-9.8805 -8.1665 -4.5840 0.9470
10.7272 -7.0174 -4.5840 0.9470
11.8014 -5.0042 -4.5840 0.9470
12.5918 -4.0603 -4.7312 0.9453
13.1266 -1.7654 -4.7364 0.9453
13.2316 -0.5900 -4.7364 0.9453
11.0838 7.2507 -4.7364 0.9453
10.3945 8.2084 -4.7364 0.9453
9.6226 9.1010 -4.7364 0.9453
7.8521 10.6569 -4.7337 0.9453
6.6550 10.9557 -4.5840 0.9470
-5.3958 11.6276 -4.5840 0.9470
-7.3719 10.4867 -4.5840 0.9470
-9.4154 9.3111 -4.7354 0.9453
-10.2090 8.4380 -4.7364 0.9453
-12.0755 5.4410 -4.7364 0.9453
-12.5119 4.3446 -4.7364 0.9453
-12.8489 3.2137 -4.7364 0.9453
-13.0840 2.0574 -4.7364 0.9453
-13.2414 -0.2951 -4.7364 0.9453
-13.1626 -1.4725 -4.7364 0.9453
-12.6930 -3.7829 -4.7364 0.9453
-12.3059 -4.8976 -4.7364 0.9453
-11.8119 -5.9688 -4.7327 0.9453
12.0126 -4.4736 -4.5840 0.9470
13.1922 -1.1789 -4.7364 0.9453
11.9204 3.2654 -4.7364 0.9484
11.5825 4.3134 -4.7364 0.9484
11.1526 5.3271 -4.7364 0.9484
7.7674 9.6139 -4.7364 0.9484
4.7922 10.9600 -4.5840 0.9501
2.7730 11.6360 -4.5840 0.9501
-2.5131 11.6949 -4.5840 0.9501
-4.5468 11.0641 -4.5840 0.9501
-5.5135 10.6155 -4.5840 0.9501
-6.4365 10.0826 -4.5840 0.9501
-7.4903 9.7054 -4.6981 0.9488
-8.3922 9.0736 -4.7364 0.9484
-9.1665 8.2906 -4.7364 0.9484
-9.8680 7.4418 -4.7364 0.9484
-11.8447 3.5301 -4.7364 0.9484
-12.1119 2.4619 -4.7364 0.9484
-12.2830 1.3741 -4.7364 0.9484
-12.3565 0.2754 -4.7364 0.9484
-12.3320 -0.8255 -4.7364 0.9484
-12.2096 -1.9199 -4.7364 0.9484
-11.9902 -2.9990 -4.7364 0.9484
-11.6757 -4.0542 -4.7364 0.9484
-9.8619 -6.7698 -4.5840 0.9501
10.5534 -5.6315 -4.5840 0.9501
12.0541 -2.7311 -4.7364 0.9484
12.0541 2.7311 -4.7364 0.9484
11.7631 3.7931 -4.7364 0.9484
11.3789 4.8250 -4.7364 0.9484
10.9042 5.8187 -4.7364 0.9484
9.6998 7.6598 -4.7364 0.9484
8.1880 9.2583 -4.7364 0.9484
7.3314 9.9503 -4.7364 0.9484
5.2757 10.7357 -4.5840 0.9501
1.1973 11.9018 -4.5840 0.9501
-1.9896 11.7953 -4.5840 0.9501
-3.0316 11.5714 -4.5840 0.9500
-4.0494 11.2556 -4.5840 0.9501
-5.0352 10.8505 -4.5840 0.9501
-5.9809 10.3593 -4.5840 0.9501
-6.8792 9.7858 -4.5840 0.9501
-11.6757 4.0542 -4.7364 0.9484
-12.2096 1.9199 -4.7364 0.9484
-12.3565 -0.2754 -4.7364 0.9484
10.7938 -5.1557 -4.5840 0.9501
11.5725 -4.3097 -4.7323 0.9485
11.9204 -3.2653 -4.7364 0.9484
12.3105 -1.1001 -4.7364 0.9484
11.5727 -0.0000 -4.7364 0.9512
11.3893 2.0519 -4.7364 0.9512
11.1615 3.0575 -4.7364 0.9512
10.4426 4.9880 -4.7364 0.9512
9.3927 6.7605 -4.7364 0.9512
8.0452 8.3187 -4.7364 0.9512
5.5563 10.1389 -4.7319 0.9513
4.4871 10.2622 -4.5840 0.9527
3.5559 10.6209 -4.5840 0.9527
1.6164 11.0831 -4.5840 0.9527
-1.3691 11.1163 -4.5840 0.9527
-2.3531 10.9504 -4.5840 0.9527
-3.3184 10.6975 -4.5840 0.9527
-4.2573 10.3597 -4.5840 0.9527
-6.1941 9.7029 -4.7114 0.9515
-7.0705 9.1616 -4.7364 0.9512
-7.8579 8.4959 -4.7364 0.9512
-9.2398 6.9681 -4.7364 0.9512
-10.7524 4.2794 -4.7364 0.9512
-2.1285 0.0474 -0.8714 0.9908
-2.1308 -0.5329 -0.8989 0.9906
-10.9324 -3.7961 -4.7364 0.9512
-9.2340 -6.3388 -4.5840 0.9527
-8.6332 -7.1355 -4.5840 0.9527
9.8815 -5.2729 -4.5840 0.9527
10.6473 -4.5148 -4.7333 0.9512
11.0142 -3.5516 -4.7364 0.9512
11.4694 -1.5425 -4.7364 0.9512
11.5612 -0.5155 -4.7364 0.9512
11.5612 0.5155 -4.7364 0.9512
11.4694 1.5425 -4.7364 0.9512
11.0142 3.5516 -4.7364 0.9512
9.6846 6.3353 -4.7364 0.9512
9.0822 7.1722 -4.7364 0.9512
8.4078 7.9521 -4.7364 0.9512
7.6667 8.6688 -4.7364 0.9512
6.8647 9.3168 -4.7364 0.9512
6.0082 9.8908 -4.7364 0.9512
5.0229 10.2213 -4.6612 0.9520
3.0792 10.7687 -4.5840 0.9527
1.1211 11.1441 -4.5840 0.9527
0.1248 11.1996 -4.5840 0.9527
-3.7916 10.5390 -4.5840 0.9527
-4.7146 10.1597 -4.5840 0.9527
-6.6504 9.4603 -4.7329 0.9512
-7.4716 8.8375 -4.7364 0.9512
-8.2286 8.1374 -4.7364 0.9512
-9.5410 6.5495 -4.7364 0.9512
-10.9324 3.7961 -4.7364 0.9512
-2.1308 0.5329 -0.8989 0.9906
-2.1285 -0.0474 -0.8714 0.9908
-2.1261 -0.2378 -0.8756 0.9908
-2.1365 -0.4343 -0.8923 0.9906
-11.0906 -3.3053 -4.7364 0.9512
-10.7524 -4.2794 -4.7364 0.9512
-10.3289 -5.2194 -4.7364 0.9512
-9.8106 -6.1101 -4.7303 0.9513
-8.9425 -6.7438 -4.5840 0.9527
8.4721 -7.3261 -4.5840 0.9527
9.0905 -6.5429 -4.5840 0.9527
10.2675 -4.9044 -4.6570 0.9520
10.8451 -4.0387 -4.7364 0.9512
11.1615 -3.0575 -4.7364 0.9512
10.8679 0.0000 -4.7364 0.9537
10.8248 0.9673 -4.7364 0.9537
10.1846 3.7928 -4.7364 0.9537
9.8066 4.6842 -4.7364 0.9537
9.3508 5.5385 -4.7364 0.9537
7.5553 7.8121 -4.7364 0.9537
6.0505 9.0279 -4.7364 0.9537
4.3490 9.9463 -4.7310 0.9537
2.4383 10.2317 -4.5840 0.9551
1.5180 10.4081 -4.5840 0.9551
-2.2098 10.2835 -4.5840 0.9551
-3.9992 9.7314 -4.5853 0.9551
-5.0024 9.6314 -4.7299 0.9537
-5.8478 9.1605 -4.7364 0.9537
-6.6399 8.6036 -4.7364 0.9537
-8.0602 7.2900 -4.7364 0.9537
-9.2250 5.7454 -4.7364 0.9537
-10.0976 4.0187 -4.7364 0.9537
-1.9300 0.3923 -0.8583 0.9914
-1.9433 0.2174 -0.8522 0.9915
-1.9397 -0.3050 -0.8557 0.9915
-1.9080 -0.4772 -0.8571 0.9915
-1.8290 -0.6351 -0.8438 0.9916
-8.1074 -6.7009 -4.5840 0.9551
-7.4788 -7.3960 -4.5840 0.9551
-6.7909 -8.0322 -4.5840 0.9551
7.6417 -7.2275 -4.5840 0.9551
8.2547 -6.5187 -4.5840 0.9551
10.0055 -4.2427 -4.7364 0.9537
10.7709 -1.4486 -4.7364 0.9537
10.8571 -0.4841 -4.7364 0.9537
10.8571 0.4841 -4.7364 0.9537
10.7709 1.4486 -4.7364 0.9537
10.5993 2.4015 -4.7364 0.9537
10.3434 3.3353 -4.7364 0.9537
10.0055 4.2427 -4.7364 0.9537
9.5882 5.1164 -4.7364 0.9537
8.5291 6.7354 -4.7364 0.9537
6.4466 8.7494 -4.7364 0.9537
4.7924 9.7522 -4.7357 0.9537
3.8549 10.0091 -4.6745 0.9543
2.8917 10.1129 -4.5840 0.9551
1.9801 10.3301 -4.5840 0.9551
0.1172 10.5176 -4.5840 0.9551
-0.8194 10.4862 -4.5840 0.9551
-3.5607 9.8972 -4.5840 0.9551
-5.4309 9.4066 -4.7338 0.9537
-6.2501 8.8909 -4.7364 0.9537
-8.3769 6.9237 -4.7364 0.9537
-1.9479 0.1304 -0.8508 0.9915
-1.9433 -0.2174 -0.8522 0.9915
-1.9300 -0.3923 -0.8583 0.9914
-1.8741 -0.5585 -0.8523 0.9915
-9.2250 -5.7454 -4.7364 0.9537
-8.3979 -6.3331 -4.5840 0.9551
-6.4263 -8.3268 -4.5840 0.9551
7.3122 -7.5607 -4.5840 0.9551
8.5369 -6.1445 -4.5840 0.9551
9.8019 -4.6819 -4.7341 0.9537
10.1846 -3.7928 -4.7364 0.9537
10.4818 -2.8713 -4.7364 0.9537
10.6957 -1.9269 -4.7364 0.9537
10.2324 0.0000 -4.7364 0.9559
10.1918 0.9107 -4.7364 0.9559
9.5890 3.5710 -4.7364 0.9559
9.2331 4.4103 -4.7364 0.9559
8.8040 5.2146 -4.7364 0.9559
8.3049 5.9775 -4.7364 0.9559
7.7399 6.6929 -4.7364 0.9559
7.1135 7.3553 -4.7364 0.9559
3.2459 9.6949 -4.7324 0.9559
2.3405 9.8211 -4.6733 0.9565
1.4292 9.7995 -4.5840 0.9573
0.5513 9.8878 -4.5840 0.9573
-0.3309 9.8976 -4.5840 0.9573
-3.8865 9.4573 -4.7329 0.9559
-5.5059 8.6248 -4.7364 0.9559
-6.2517 8.1005 -4.7364 0.9559
-6.9478 7.5119 -4.7364 0.9559
-7.5889 6.8637 -4.7364 0.9559
-8.1697 6.1610 -4.7364 0.9559
-8.6856 5.4094 -4.7364 0.9559
-1.5257 0.6072 -0.7601 0.9928
-1.5924 0.4746 -0.7692 0.9927
-1.6373 0.3328 -0.7734 0.9927
-1.6716 0.0373 -0.7739 0.9927
-1.6738 -0.1120 -0.7765 0.9926
-1.6521 -0.2598 -0.7741 0.9927
-1.6165 -0.4043 -0.7713 0.9927
-8.9179 -5.0171 -4.7364 0.9559
-8.4348 -5.7901 -4.7357 0.9559
-7.6333 -6.3091 -4.5840 0.9573
-5.6953 -8.1016 -4.5840 0.9573
7.1949 -6.8049 -4.5840 0.9573
8.2874 -5.4214 -4.5840 0.9573
9.4204 -3.9946 -4.7364 0.9559
9.7386 -3.1403 -4.7364 0.9559
10.2222 -0.4558 -4.7364 0.9559
10.2222 0.4558 -4.7364 0.9559
10.1411 1.3638 -4.7364 0.9559
9.4204 3.9946 -4.7364 0.9559
8.5629 5.6016 -4.7364 0.9559
8.0304 6.3415 -4.7364 0.9559
7.4341 7.0311 -4.7364 0.9559
6.7788 7.6648 -4.7364 0.9559
2.8090 9.8235 -4.7294 0.9560
1.8768 9.7913 -4.6148 0.9570
0.9913 9.8534 -4.5840 0.9573
-0.7715 9.8730 -4.5840 0.9573
-2.5451 9.7145 -4.6485 0.9567
-5.1162 8.8615 -4.7364 0.9559
-6.6063 7.8140 -4.7364 0.9559
-7.2756 7.1950 -4.7364 0.9559
-8.9179 5.0171 -4.7364 0.9559
-9.3291 4.2035 -4.7364 0.9559
-1.5621 0.5424 -0.7654 0.9927
-1.6165 0.4043 -0.7713 0.9927
-1.6521 0.2598 -0.7741 0.9927
-1.6738 0.1120 -0.7765 0.9926
-1.6675 -0.1865 -0.7767 0.9926
-8.6856 -5.4094 -4.7364 0.9559
-8.1579 -6.1521 -4.7296 0.9560
-6.7243 -7.2702 -4.5840 0.9573
-6.0505 -7.8399 -4.5840 0.9573
6.8846 -7.1186 -4.5840 0.9573
8.0377 -5.7852 -4.5840 0.9573
9.8688 -2.7034 -4.7364 0.9559
10.0703 -1.8143 -4.7364 0.9559
10.1918 -0.9107 -4.7364 0.9559
9.6558 0.0000 -4.7364 0.9579
9.6175 0.8594 -4.7364 0.9579
9.3128 2.5510 -4.7364 0.9579
9.0487 3.3698 -4.7364 0.9579
8.3079 4.9208 -4.7364 0.9579
7.8369 5.6407 -4.7364 0.9579
7.3038 6.3158 -4.7364 0.9579
6.7127 6.9408 -4.7364 0.9579
5.3757 8.0211 -4.7364 0.9579
4.6404 8.4677 -4.7364 0.9579
3.8683 8.8471 -4.7364 0.9579
1.3922 9.5460 -4.7321 0.9579
0.5369 9.6281 -4.7301 0.9579
-0.3222 9.6371 -4.7299 0.9579
-1.1789 9.5724 -4.7309 0.9579
-2.8608 9.2223 -4.7364 0.9579
-3.6703 8.9311 -4.7364 0.9579
-4.4506 8.5690 -4.7364 0.9579
-6.5564 7.0887 -4.7364 0.9579
-1.3200 0.3934 -0.6756 0.9939
-1.3047 0.2652 -0.6531 0.9941
-1.3513 -0.0905 -0.6643 0.9940
-1.3257 -0.2085 -0.6583 0.9940
-1.3171 -0.4573 -0.6839 0.9938
-1.2865 -0.5797 -0.6922 0.9937
-8.4155 -4.7345 -4.7364 0.9579
-7.4322 -6.1429 -4.7298 0.9580
-6.6447 -6.5711 -4.5840 0.9592
-5.3744 -7.6451 -4.5840 0.9592
-4.6726 -8.0931 -4.5840 0.9592
5.5433 -7.5235 -4.5840 0.9592
6.1910 -7.0003 -4.5840 0.9592
6.7895 -6.4214 -4.5840 0.9592
8.5189 -4.5458 -4.7364 0.9579
9.1899 -2.9633 -4.7364 0.9579
9.6463 0.4301 -4.7364 0.9579
8.0804 5.2860 -4.7364 0.9579
4.2586 8.6660 -4.7364 0.9579
1.8167 9.4777 -4.7337 0.9579
0.9654 9.5961 -4.7309 0.9579
0.1074 9.6417 -4.7298 0.9580
-0.7512 9.6139 -4.7302 0.9579
-2.4464 9.3377 -4.7349 0.9579
-6.8656 6.7896 -4.7364 0.9579
-8.4155 4.7345 -4.7364 0.9579
-1.3171 0.4573 -0.6839 0.9938
-1.3257 0.2085 -0.6583 0.9940
-1.3513 0.0905 -0.6643 0.9940
-1.3536 -0.0302 -0.6641 0.9940
-1.3047 -0.2652 -0.6531 0.9941
-1.3200 -0.3934 -0.6756 0.9939
-8.6180 -4.3549 -4.7364 0.9579
-8.1962 -5.1046 -4.7364 0.9579
-5.7096 -7.3981 -4.5840 0.9592
-4.3074 -8.2933 -4.5840 0.9592
5.8730 -7.2691 -4.5840 0.9592
7.6394 -5.4985 -4.6170 0.9589
8.3069 -4.9202 -4.7359 0.9579
8.7129 -4.1618 -4.7364 0.9579
9.3128 -2.5510 -4.7364 0.9579
9.5029 -1.7120 -4.7364 0.9579
9.6175 -0.8594 -4.7364 0.9579
9.1299 -0.0000 -4.7364 0.9597
8.8055 2.4121 -4.7364 0.9597
8.5559 3.1862 -4.7364 0.9597
7.4101 5.3335 -4.7364 0.9597
6.9060 5.9718 -4.7364 0.9597
5.0829 7.5842 -4.7364 0.9597
4.3877 8.0065 -4.7364 0.9597
3.6576 8.3652 -4.7364 0.9597
2.8986 8.6576 -4.7364 0.9597
2.1165 8.8812 -4.7364 0.9597
0.5083 9.1158 -4.7364 0.9597
-0.3051 9.1248 -4.7364 0.9597
-1.1160 9.0615 -4.7364 0.9597
-1.9181 8.9262 -4.7364 0.9597
-4.2082 8.1022 -4.7364 0.9597
-4.9127 7.6955 -4.7364 0.9597
-5.5781 7.2277 -4.7364 0.9597
-6.1993 6.7026 -4.7364 0.9597
-6.7712 6.1242 -4.7364 0.9597
-7.7498 4.8266 -4.7364 0.9597
-1.1070 0.4406 -0.6181 0.9946
-1.1266 0.3358 -0.6099 0.9947
-1.1649 0.1303 -0.6081 0.9947
-1.1785 0.0263 -0.6115 0.9947
-1.1739 -0.0786 -0.6103 0.9947
-1.1198 -0.3888 -0.6150 0.9947
-7.9571 -4.4766 -4.7364 0.9597
-7.5271 -5.1670 -4.7364 0.9597
-6.2944 -6.2247 -4.5925 0.9609
-5.7049 -6.7477 -4.5840 0.9610
-4.4181 -7.6523 -4.5840 0.9610
-3.7194 -8.0152 -4.5840 0.9610
6.4197 -6.0717 -4.5840 0.9610
7.0799 -5.5909 -4.6801 0.9602
7.6403 -4.9981 -4.7364 0.9597
8.0549 -4.2982 -4.7364 0.9597
8.9042 -2.0174 -4.7364 0.9597
9.1209 -0.4067 -4.7364 0.9597
8.6893 2.8019 -4.7364 0.9597
8.4055 3.5642 -4.7364 0.9597
8.0549 4.2982 -4.7364 0.9597
7.6403 4.9981 -4.7364 0.9597
6.6331 6.2735 -4.7364 0.9597
6.0484 6.8390 -4.7364 0.9597
4.7400 7.8031 -4.7364 0.9597
4.0267 8.1940 -4.7364 0.9597
0.9139 9.0841 -4.7364 0.9597
-2.3138 8.8319 -4.7364 0.9597
-3.0907 8.5909 -4.7364 0.9597
-3.8431 8.2817 -4.7364 0.9597
-4.5650 7.9067 -4.7364 0.9597
-5.2506 7.4691 -4.7364 0.9597
-6.4917 6.4198 -4.7364 0.9597
-7.5271 5.1671 -4.7364 0.9597
-1.1649 -0.1303 -0.6081 0.9947
-1.1332 -0.2303 -0.5999 0.9948
-1.1070 -0.4406 -0.6181 0.9946
-7.7498 -4.8266 -4.7364 0.9597
-7.2894 -5.4972 -4.7364 0.9597
-6.7624 -6.1162 -4.7302 0.9597
3.5399 -8.0961 -4.5840 0.9610
4.9193 -7.3401 -4.5840 0.9610
5.5531 -6.8732 -4.5840 0.9610
6.1428 -6.3516 -4.5840 0.9610
7.4032 -5.3285 -4.7320 0.9597
7.8554 -4.6528 -4.7364 0.9597
8.2383 -3.9351 -4.7364 0.9597
8.8055 -2.4121 -4.7364 0.9597
8.9853 -1.6188 -4.7364 0.9597
9.0937 -0.8126 -4.7364 0.9597
2.0036 0.3610 -1.1150 0.9908
1.9714 0.7342 -1.1522 0.9905
7.0188 5.0518 -4.7364 0.9613
6.0119 6.2162 -4.7364 0.9613
5.4347 6.7266 -4.7364 0.9613
2.7455 8.2004 -4.7364 0.9613
2.0047 8.4122 -4.7364 0.9613
1.2480 8.5572 -4.7364 0.9613
-1.0571 8.5829 -4.7364 0.9613
-3.2871 7.9987 -4.7364 0.9613
-4.6532 7.2891 -4.7364 0.9613
-6.9045 5.2069 -4.7364 0.9613
-0.9825 0.2928 -0.5615 0.9953
-1.0000 0.2033 -0.5589 0.9954
-1.0293 0.1151 -0.5673 0.9953
-1.0415 0.0232 -0.5706 0.9953
-1.0376 -0.0695 -0.5696 0.9953
-1.0166 -0.1599 -0.5637 0.9953
-0.9847 -0.2463 -0.5559 0.9954
-0.9472 -0.4268 -0.5690 0.9953
-0.9240 -0.5198 -0.5806 0.9952
-6.6657 -5.5093 -4.7364 0.9613
-5.4036 -6.3914 -4.5840 0.9625
-4.8133 -6.8470 -4.5840 0.9625
-4.1848 -7.2482 -4.5840 0.9625
-3.5230 -7.5919 -4.5840 0.9625
-2.1211 -8.0963 -4.5840 0.9625
-1.3921 -8.2529 -4.5840 0.9625
-0.6520 -8.3441 -4.5840 0.9625
0.8377 -8.3275 -4.5840 0.9625
3.0081 -7.8103 -4.5840 0.9625
4.9646 -6.7380 -4.5840 0.9625
6.0975 -5.7670 -4.5967 0.9624
7.2368 -4.7341 -4.7364 0.9613
7.6295 -4.0712 -4.7364 0.9613
1.9895 -0.6415 -1.1449 0.9905
2.0041 -0.4541 -1.1255 0.9907
2.0434 -0.0911 -1.1203 0.9907
2.0434 0.0911 -1.1203 0.9907
2.0226 0.2720 -1.1178 0.9907
2.0041 0.4541 -1.1255 0.9907
1.9407 0.8229 -1.1546 0.9904
5.1297 6.9621 -4.7364 0.9613
4.4897 7.3910 -4.7364 0.9613
0.8656 8.6043 -4.7364 0.9613
0.0963 8.6472 -4.7364 0.9613
-0.6737 8.6215 -4.7364 0.9613
-2.1916 8.3654 -4.7364 0.9613
-5.5832 6.6039 -4.7364 0.9613
-6.1489 6.0807 -4.7364 0.9613
-0.9240 0.5198 -0.5806 0.9952
-0.9472 0.4268 -0.5690 0.9953
-0.9847 0.2463 -0.5559 0.9954
-1.0166 0.1599 -0.5637 0.9953
-1.0415 -0.0232 -0.5706 0.9953
-0.9825 -0.2928 -0.5615 0.9953
-0.9364 -0.4732 -0.5746 0.9952
-7.3405 -4.5717 -4.7364 0.9613
-5.1135 -6.6258 -4.5840 0.9625
-4.5035 -7.0546 -4.5840 0.9625
-3.8577 -7.4274 -4.5840 0.9625
-2.4797 -7.9937 -4.5840 0.9625
-1.0231 -8.3067 -4.5840 0.9625
-0.2797 -8.3648 -4.5840 0.9625
0.4660 -8.3565 -4.5840 0.9625
1.2079 -8.2819 -4.5840 0.9625
1.9402 -8.1415 -4.5840 0.9625
2.6572 -7.9365 -4.5840 0.9625
4.0222 -7.3396 -4.5840 0.9625
4.6595 -6.9525 -4.5840 0.9625
5.8184 -6.0162 -4.5840 0.9625
6.5313 -5.6479 -4.7292 0.9614
7.4406 -4.4071 -4.7364 0.9613
1.9715 -0.7342 -1.1522 0.9905
2.0356 -0.1819 -1.1193 0.9907
1.8700 0.1671 -1.0839 0.9914
1.8426 0.3320 -1.0810 0.9914
1.7869 0.6655 -1.1009 0.9912
1.7194 0.8213 -1.1001 0.9912
7.0585 4.1808 -4.7364 0.9628
6.2054 5.3660 -4.7364 0.9628
5.7032 5.8970 -4.7364 0.9628
4.5672 6.8148 -4.7364 0.9628
3.9425 7.1942 -4.7364 0.9628
3.2866 7.5166 -4.7364 0.9628
1.9018 7.9802 -4.7364 0.9628
0.4567 8.1910 -4.7364 0.9628
-0.2741 8.1991 -4.7364 0.9628
-2.4306 7.8354 -4.7364 0.9628
-3.7813 7.2803 -4.7364 0.9628
-4.4143 6.9148 -4.7364 0.9628
-5.5704 6.0226 -4.7364 0.9628
-6.0843 5.5029 -4.7364 0.9628
-0.8491 0.5288 -0.5776 0.9954
-0.8760 0.4427 -0.5667 0.9955
-0.8932 0.3555 -0.5550 0.9956
-0.9012 0.2686 -0.5429 0.9957
-0.9120 0.1854 -0.5373 0.9957
-0.9306 0.0207 -0.5374 0.9957
-0.9273 -0.0621 -0.5366 0.9957
-0.9189 -0.1445 -0.5370 0.9957
-0.9030 -0.2259 -0.5374 0.9957
-0.8858 -0.3991 -0.5609 0.9955
-0.8638 -0.4859 -0.5722 0.9954
-6.3234 -5.2264 -4.7364 0.9628
-5.8327 -5.7681 -4.7361 0.9628
-5.2471 -6.2062 -4.6922 0.9632
-3.9699 -6.8760 -4.5840 0.9640
0.7947 -7.8999 -4.5840 0.9640
4.1221 -6.7859 -4.5840 0.9640
5.2599 -5.9475 -4.5840 0.9640
6.8652 -4.4910 -4.7364 0.9628
1.6861 -0.8997 -1.1034 0.9912
1.7564 -0.7448 -1.1014 0.9912
1.8108 -0.5839 -1.0985 0.9913
1.8316 -0.4150 -1.0843 0.9914
1.8592 -0.2500 -1.0831 0.9914
1.8755 -0.0836 -1.0839 0.9914
1.8755 0.0836 -1.0839 0.9914
1.8592 0.2500 -1.0831 0.9914
1.6860 0.8997 -1.1034 0.9912
6.8652 4.4910 -4.7364 0.9628
5.4348 6.1452 -4.7364 0.9628
4.8663 6.6046 -4.7364 0.9628
4.2591 7.0115 -4.7364 0.9628
3.6182 7.3627 -4.7364 0.9628
2.2554 7.8876 -4.7364 0.9628
1.5444 8.0570 -4.7364 0.9628
0.8212 8.1625 -4.7364 0.9628
0.0914 8.2032 -4.7364 0.9628
-1.3645 8.0894 -4.7364 0.9628
-2.0791 7.9359 -4.7364 0.9628
-4.1019 7.1046 -4.7364 0.9628
-4.7179 6.7113 -4.7364 0.9628
-5.2965 6.2648 -4.7364 0.9628
-0.8858 0.3991 -0.5609 0.9955
-0.8983 0.3119 -0.5490 0.9956
-0.9030 0.2259 -0.5374 0.9957
-0.9189 0.1445 -0.5370 0.9957
-0.9273 0.0621 -0.5366 0.9957
-0.9306 -0.0207 -0.5374 0.9957
-0.8932 -0.3555 -0.5550 0.9956
-5.5650 -6.0169 -4.7319 0.9629
-3.6596 -7.0460 -4.5840 0.9640
-3.0180 -7.3438 -4.5840 0.9640
-0.9705 -7.8802 -4.5840 0.9640
-0.2653 -7.9353 -4.5840 0.9640
0.4420 -7.9274 -4.5840 0.9640
1.8406 -7.7235 -4.5840 0.9640
3.8157 -6.9628 -4.5840 0.9640
4.9898 -6.1759 -4.5840 0.9640
5.6270 -5.8183 -4.6732 0.9633
6.2033 -5.3642 -4.7349 0.9628
7.0585 -4.1808 -4.7364 0.9628
1.7194 -0.8213 -1.1001 0.9912
1.7869 -0.6654 -1.1009 0.9912
1.8426 -0.3320 -1.0810 0.9914
1.8700 -0.1671 -1.0839 0.9914
