ply
format ascii 1.0
element vertex 657
property float32 x
property float32 y
property float32 z
property float32 I
end_header
19.2055 0.0000 -4.9727 0.9237
18.5231 5.0740 -4.9727 0.9237
17.9980 6.7025 -4.9727 0.9237
17.3300 8.2778 -4.9727 0.9237
16.5245 9.7875 -4.9727 0.9237
15.5877 11.2194 -4.9727 0.9237
12.9423 13.3823 -4.8203 0.9260
-17.8442 7.1018 -4.9727 0.9237
-18.8207 3.8255 -4.9727 0.9237
-19.0865 2.1352 -4.9727 0.9237
-19.2008 0.4279 -4.9727 0.9237
-17.8864 -6.2108 -4.9024 0.9247
-16.9735 -7.6479 -4.8203 0.9260
18.1567 -4.1138 -4.8203 0.9260
13.9533 13.1969 -4.9727 0.9237
12.3334 13.9455 -4.8203 0.9260
-15.3486 10.5362 -4.8203 0.9260
-16.7292 9.4117 -4.9699 0.9238
-17.5102 7.8897 -4.9727 0.9237
-18.6316 4.6601 -4.9727 0.9237
-18.9724 2.9833 -4.9727 0.9237
-19.1626 1.2828 -4.9727 0.9237
-19.2008 -0.4279 -4.9727 0.9237
-19.0865 -2.1351 -4.9727 0.9237
-18.4055 -5.4854 -4.9727 0.9237
18.3220 -3.3009 -4.8203 0.9260
17.5654 0.0000 -4.9727 0.9296
16.9413 4.6407 -4.9727 0.9296
15.8501 7.5709 -4.9727 0.9296
14.2566 10.2613 -4.9727 0.9296
12.2020 12.6167 -4.9688 0.9296
10.7007 13.2445 -4.8203 0.9317
-14.9084 9.2850 -4.9721 0.9296
-15.6775 7.9222 -4.9727 0.9296
-16.3204 6.4954 -4.9727 0.9296
-17.2135 3.4988 -4.9727 0.9296
-17.5611 0.3913 -4.9727 0.9296
-17.0405 -4.2621 -4.9727 0.9296
-16.5929 -5.7617 -4.9725 0.9296
-15.5240 -6.9948 -4.8203 0.9317
17.3613 -2.3349 -4.9591 0.9298
17.5480 -0.7825 -4.9727 0.9296
17.4087 2.3413 -4.9727 0.9296
16.1716 6.8574 -4.9727 0.9296
15.4971 8.2695 -4.9727 0.9296
14.6996 9.6160 -4.9727 0.9296
13.7854 10.8862 -4.9727 0.9296
10.1001 13.7080 -4.8203 0.9317
-15.3090 8.6127 -4.9727 0.9296
-16.0148 7.2159 -4.9727 0.9296
-17.0405 4.2621 -4.9727 0.9296
-17.3523 2.7285 -4.9727 0.9296
-17.5611 -0.3913 -4.9727 0.9296
-17.2135 -3.4988 -4.9727 0.9296
-16.8338 -5.0170 -4.9727 0.9296
-15.1970 -7.6794 -4.8203 0.9317
16.7573 -3.0190 -4.8203 0.9317
16.1671 0.0000 -4.9727 0.9346
16.1029 1.4390 -4.9727 0.9346
15.5927 4.2713 -4.9727 0.9346
13.1217 9.4444 -4.9727 0.9346
12.2290 10.5748 -4.9727 0.9346
11.2393 11.6213 -4.9727 0.9346
9.8489 12.1901 -4.8203 0.9365
8.7248 13.0183 -4.8203 0.9365
-10.6411 11.5051 -4.8203 0.9365
-12.8644 9.7015 -4.9559 0.9348
-14.4295 7.2915 -4.9727 0.9346
-16.0669 1.7973 -4.9727 0.9346
-16.1631 0.3602 -4.9727 0.9346
-15.9709 -2.5113 -4.9727 0.9346
-13.6585 -7.6841 -4.8203 0.9365
14.9153 -4.8096 -4.8203 0.9365
15.2842 -3.4630 -4.8203 0.9365
16.0229 2.1549 -4.9727 0.9346
14.8843 6.3115 -4.9727 0.9346
13.5294 8.8505 -4.9727 0.9346
12.6879 10.0196 -4.9727 0.9346
11.7458 11.1091 -4.9727 0.9346
10.6942 12.0921 -4.9651 0.9347
9.2961 12.6168 -4.8203 0.9365
-11.1431 11.0196 -4.8203 0.9365
-12.0796 9.9841 -4.8203 0.9365
-15.2726 5.3032 -4.9727 0.9346
-16.1310 1.0798 -4.9727 0.9346
-16.0669 -1.7973 -4.9727 0.9346
-15.0097 -5.9737 -4.9689 0.9346
-13.9872 -7.0680 -4.8203 0.9365
-13.3026 -8.2849 -4.8203 0.9365
15.1148 -4.1404 -4.8203 0.9365
15.8928 -2.8632 -4.9670 0.9347
16.1029 -1.4390 -4.9727 0.9346
14.9002 1.3315 -4.9727 0.9389
14.0190 5.2207 -4.9727 0.9389
12.8713 7.6237 -4.9727 0.9389
11.3156 9.7850 -4.9727 0.9389
10.3998 10.7533 -4.9727 0.9389
9.2884 11.4964 -4.9129 0.9396
6.9690 12.7168 -4.8203 0.9407
-10.7590 9.7309 -4.8221 0.9407
-11.9439 9.0073 -4.9727 0.9389
-12.6982 7.9085 -4.9727 0.9389
-13.3517 6.7469 -4.9727 0.9389
-14.3364 4.2727 -4.9727 0.9389
-14.6598 2.9797 -4.9727 0.9389
-14.7780 -2.3237 -4.9727 0.9389
-14.1319 -4.9071 -4.9727 0.9389
-12.6383 -7.1102 -4.8203 0.9407
-11.9553 -8.2069 -4.8203 0.9407
14.9448 0.6664 -4.9727 0.9389
14.5898 3.3056 -4.9727 0.9389
14.2377 4.5911 -4.9727 0.9389
12.5189 8.1895 -4.9727 0.9389
11.7403 9.2712 -4.9727 0.9389
10.8685 10.2794 -4.9727 0.9389
9.9105 11.2059 -4.9727 0.9389
8.6018 11.6744 -4.8203 0.9407
7.5286 12.3937 -4.8203 0.9407
-10.3108 10.1966 -4.8203 0.9407
-12.3333 8.4664 -4.9727 0.9389
-13.0379 7.3350 -4.9727 0.9389
-14.1319 4.9071 -4.9727 0.9389
-14.5125 3.6298 -4.9727 0.9389
-14.9559 -0.3333 -4.9727 0.9389
-14.8669 -1.6631 -4.9727 0.9389
-14.3364 -4.2727 -4.9727 0.9389
-12.9425 -6.5401 -4.8203 0.9407
13.0850 -6.2502 -4.8203 0.9407
14.7226 -2.6524 -4.9727 0.9389
13.0311 4.8528 -4.9727 0.9426
11.9642 7.0864 -4.9727 0.9426
7.5042 11.1971 -4.8203 0.9443
5.4000 12.3502 -4.8203 0.9443
-8.2354 10.6709 -4.8203 0.9443
-9.1524 9.8955 -4.8203 0.9443
-10.3103 9.3251 -4.9714 0.9427
-11.8033 7.3512 -4.9727 0.9426
-12.9197 5.1419 -4.9727 0.9426
-13.9019 0.3098 -4.9727 0.9426
-13.8743 -0.9288 -4.9727 0.9426
-13.4898 -3.3740 -4.9727 0.9426
-13.1360 -4.5613 -4.9727 0.9426
-12.6779 -5.7124 -4.9727 0.9426
12.4096 -5.2621 -4.8203 0.9443
12.8656 -4.1486 -4.8341 0.9442
13.5616 -3.0727 -4.9727 0.9426
13.7813 -1.8534 -4.9727 0.9426
13.8915 0.6194 -4.9727 0.9426
13.5616 3.0727 -4.9727 0.9426
13.2343 4.2675 -4.9727 0.9426
12.2680 6.5464 -4.9727 0.9426
10.1026 9.5549 -4.9727 0.9426
9.2120 10.4162 -4.9727 0.9426
8.1611 11.0764 -4.9201 0.9432
6.9980 11.5203 -4.8203 0.9443
5.9448 12.0974 -4.8203 0.9443
-12.1191 6.8181 -4.9727 0.9426
-13.4898 3.3740 -4.9727 0.9426
-13.8743 0.9288 -4.9727 0.9426
-13.8192 -1.5459 -4.9727 0.9426
-13.3261 -3.9716 -4.9727 0.9426
-12.9197 -5.1419 -4.9727 0.9426
12.1629 -5.8097 -4.8203 0.9443
12.9245 1.1549 -4.9727 0.9459
12.5150 3.4282 -4.9727 0.9459
12.1602 4.5285 -4.9727 0.9459
11.7089 5.5929 -4.9727 0.9459
11.1646 6.6128 -4.9727 0.9459
9.0208 9.3275 -4.9727 0.9459
3.9934 11.9276 -4.8203 0.9475
-4.7811 11.6343 -4.8203 0.9475
-7.6850 9.9577 -4.8203 0.9475
-10.3602 7.8130 -4.9727 0.9459
-11.0145 6.8599 -4.9727 0.9459
-11.5814 5.8523 -4.9727 0.9459
-12.9728 0.2891 -4.9727 0.9459
-12.9471 -0.8667 -4.9727 0.9459
-11.8306 -5.3306 -4.9727 0.9459
-10.3701 -7.1187 -4.8203 0.9475
10.5261 -6.8859 -4.8203 0.9475
11.0972 -5.9217 -4.8203 0.9475
12.8603 -1.7295 -4.9727 0.9459
12.8603 1.7295 -4.9727 0.9459
12.6553 2.8673 -4.9727 0.9459
11.4481 6.1089 -4.9727 0.9459
10.8590 7.1036 -4.9727 0.9459
10.1836 8.0419 -4.9727 0.9459
8.5964 9.7201 -4.9727 0.9459
3.4581 12.0937 -4.8203 0.9475
-4.2581 11.8357 -4.8203 0.9475
-5.2947 11.4097 -4.8203 0.9475
-6.2892 10.8932 -4.8203 0.9475
-8.2146 9.7163 -4.8758 0.9470
-11.3092 6.3624 -4.9727 0.9459
-11.8306 5.3306 -4.9727 0.9459
-12.2581 4.2565 -4.9727 0.9459
-12.9728 -0.2891 -4.9727 0.9459
-12.8956 -1.4426 -4.9727 0.9459
-12.7160 -2.5846 -4.9727 0.9459
-12.4355 -3.7062 -4.9727 0.9459
-12.0563 -4.7983 -4.9727 0.9459
-10.0427 -7.5736 -4.8203 0.9475
10.8224 -6.4102 -4.8203 0.9475
11.9228 -4.4401 -4.8756 0.9470
12.7705 -2.3007 -4.9727 0.9459
12.1017 1.0814 -4.9727 0.9488
11.9574 2.1542 -4.9727 0.9488
11.7182 3.2100 -4.9727 0.9488
10.9634 5.2368 -4.9727 0.9488
9.8612 7.0977 -4.9727 0.9488
8.4465 8.7336 -4.9727 0.9488
7.6357 9.4508 -4.9727 0.9488
6.7642 10.0929 -4.9727 0.9488
2.7303 11.4567 -4.8203 0.9504
1.6997 11.6542 -4.8203 0.9504
-1.4397 11.6892 -4.8203 0.9504
-2.4744 11.5147 -4.8203 0.9504
-6.3373 9.9272 -4.8203 0.9504
-9.7006 7.3156 -4.9727 0.9488
-10.3133 6.4232 -4.9727 0.9488
-2.1285 0.0474 -0.8714 0.9908
-2.1302 -0.1426 -0.8738 0.9908
-2.1308 -0.5329 -0.8989 0.9906
-11.0774 -4.9912 -4.9727 0.9488
-9.7099 -6.6655 -4.8203 0.9504
-9.0781 -7.5032 -4.8203 0.9504
-8.3742 -8.2815 -4.8203 0.9504
11.0544 -4.6875 -4.9142 0.9494
11.5636 -3.7288 -4.9727 0.9488
12.0415 -1.6194 -4.9727 0.9488
12.1379 -0.5412 -4.9727 0.9488
12.1379 0.5412 -4.9727 0.9488
11.8496 2.6848 -4.9727 0.9488
11.1858 4.7432 -4.9727 0.9488
10.7193 5.7200 -4.9727 0.9488
8.0491 9.1012 -4.9727 0.9488
6.3010 10.3728 -4.9672 0.9489
4.2329 10.9906 -4.8203 0.9504
2.2172 11.5670 -4.8203 0.9504
1.1789 11.7184 -4.8203 0.9504
-4.9576 10.6833 -4.8203 0.9504
-5.8888 10.1997 -4.8203 0.9504
-6.8321 9.7188 -4.8621 0.9500
-7.8436 9.2774 -4.9722 0.9488
-8.6390 8.5433 -4.9727 0.9488
-9.3651 7.7405 -4.9727 0.9488
-10.5892 5.9574 -4.9727 0.9488
-11.0774 4.9912 -4.9727 0.9488
-11.4776 3.9855 -4.9727 0.9488
-2.1285 -0.0474 -0.8714 0.9908
-2.1261 -0.2378 -0.8756 0.9908
-11.6438 -3.4702 -4.9727 0.9488
-11.2887 -4.4928 -4.9727 0.9488
-10.8440 -5.4797 -4.9727 0.9488
9.5590 -6.8801 -4.8203 0.9504
10.6274 -5.0763 -4.8203 0.9504
11.3814 -4.2385 -4.9706 0.9489
12.1017 -1.0814 -4.9727 0.9488
11.4100 0.0000 -4.9727 0.9514
11.2292 2.0230 -4.9727 0.9514
11.0046 3.0145 -4.9727 0.9514
10.6926 3.9820 -4.9727 0.9514
9.8172 5.8147 -4.9727 0.9514
9.2606 6.6654 -4.9727 0.9514
7.9321 8.2018 -4.9727 0.9514
7.1706 8.8752 -4.9727 0.9514
5.4806 10.0009 -4.9701 0.9515
4.4310 10.1339 -4.8203 0.9529
3.5114 10.4881 -4.8203 0.9529
2.5640 10.7590 -4.8203 0.9529
-0.3696 11.0541 -4.8203 0.9529
-1.3520 10.9773 -4.8203 0.9529
-2.3237 10.8134 -4.8203 0.9529
-5.0980 9.8153 -4.8203 0.9529
-6.1321 9.6057 -4.9666 0.9515
-7.7474 8.3764 -4.9727 0.9514
-8.4622 7.6536 -4.9727 0.9514
-10.1836 5.1460 -4.9727 0.9514
-1.8741 0.5585 -0.8523 0.9915
-1.9433 0.2174 -0.8522 0.9915
-1.9397 -0.3050 -0.8557 0.9915
-1.9080 -0.4772 -0.8571 0.9915
-9.9443 -5.5945 -4.9727 0.9514
-8.5252 -7.0463 -4.8203 0.9529
-7.8642 -7.7771 -4.8203 0.9529
8.0355 -7.6000 -4.8203 0.9529
8.6801 -6.8546 -4.8203 0.9529
9.7579 -5.2070 -4.8203 0.9529
10.5014 -4.4530 -4.9712 0.9514
10.8594 -3.5017 -4.9727 0.9514
11.1279 -2.5213 -4.9727 0.9514
11.3986 -0.5083 -4.9727 0.9514
11.3082 1.5208 -4.9727 0.9514
11.1279 2.5213 -4.9727 0.9514
10.8593 3.5017 -4.9727 0.9514
10.5046 4.4543 -4.9727 0.9514
8.9545 7.0713 -4.9727 0.9514
8.2896 7.8403 -4.9727 0.9514
7.5589 8.5470 -4.9727 0.9514
5.9237 9.7518 -4.9727 0.9514
3.9751 10.3212 -4.8203 0.9529
2.0822 10.8625 -4.8203 0.9529
0.1232 11.0596 -4.8203 0.9529
-0.8616 11.0267 -4.8203 0.9529
-1.8397 10.9062 -4.8203 0.9529
-2.8031 10.6992 -4.8203 0.9529
-3.7442 10.4072 -4.8203 0.9529
-4.6557 10.0327 -4.8203 0.9529
-9.4068 6.4574 -4.9727 0.9514
-9.9443 5.5946 -4.9727 0.9514
-1.8290 0.6351 -0.8438 0.9916
-1.9080 0.4772 -0.8571 0.9915
-1.9479 0.1304 -0.8508 0.9915
-1.8741 -0.5585 -0.8523 0.9915
-10.6012 -4.2192 -4.9727 0.9514
-10.1836 -5.1460 -4.9727 0.9514
-9.6760 -6.0263 -4.9680 0.9515
-8.8307 -6.6595 -4.8203 0.9529
-7.5100 -8.1197 -4.8203 0.9529
8.3661 -7.2345 -4.8203 0.9529
8.9768 -6.4611 -4.8203 0.9529
9.5163 -5.6365 -4.8203 0.9529
10.6926 -3.9820 -4.9727 0.9514
10.7427 0.0000 -4.9727 0.9538
10.5725 1.9047 -4.9727 0.9538
9.6937 4.6303 -4.9727 0.9538
9.2431 5.4747 -4.9727 0.9538
5.9808 8.9240 -4.9727 0.9538
-1.2729 10.3354 -4.8203 0.9551
-2.1878 10.1811 -4.8203 0.9551
-3.0853 9.9460 -4.8203 0.9551
-4.9470 9.5246 -4.9680 0.9538
-6.5635 8.5046 -4.9727 0.9538
-7.2944 7.8866 -4.9727 0.9538
-8.5771 6.4683 -4.9727 0.9538
-9.1188 5.6793 -4.9727 0.9538
-1.5257 0.6072 -0.7601 0.9928
-1.6373 0.3328 -0.7734 0.9927
-1.6675 0.1865 -0.7767 0.9926
-1.6716 0.0373 -0.7739 0.9927
-1.6738 -0.1120 -0.7765 0.9926
-1.6521 -0.2598 -0.7741 0.9927
-9.7944 -4.4131 -4.9727 0.9538
-9.3627 -5.2674 -4.9727 0.9538
-7.4044 -7.3223 -4.8203 0.9551
-6.7233 -7.9523 -4.8203 0.9551
7.5657 -7.1556 -4.8203 0.9551
9.4644 -5.0504 -4.9657 0.9538
10.2243 -3.2969 -4.9727 0.9538
10.6469 -1.4319 -4.9727 0.9538
10.7321 0.4786 -4.9727 0.9538
10.6469 1.4319 -4.9727 0.9538
10.2243 3.2969 -4.9727 0.9538
8.9900 5.8810 -4.9727 0.9538
8.4309 6.6578 -4.9727 0.9538
7.1169 8.0472 -4.9727 0.9538
6.3724 8.6487 -4.9727 0.9538
5.5773 9.1815 -4.9727 0.9538
2.8629 10.0122 -4.8203 0.9551
1.9604 10.2273 -4.8203 0.9551
0.1160 10.4129 -4.8203 0.9551
-0.8112 10.3819 -4.8203 0.9551
-1.7321 10.2685 -4.8203 0.9551
-5.3704 9.3019 -4.9718 0.9538
-8.2805 6.8440 -4.9727 0.9538
-1.6521 0.2598 -0.7741 0.9927
-1.6738 0.1120 -0.7765 0.9926
-1.6716 -0.0373 -0.7739 0.9927
-1.6675 -0.1865 -0.7767 0.9926
-1.6373 -0.3328 -0.7734 0.9927
-1.5257 -0.6072 -0.7601 0.9928
-9.5881 -4.8451 -4.9727 0.9538
-8.3143 -6.2701 -4.8203 0.9551
-7.7232 -6.9852 -4.8203 0.9551
7.2394 -7.4855 -4.8203 0.9551
7.8769 -6.8114 -4.8203 0.9551
9.6918 -4.6294 -4.9717 0.9538
10.0673 -3.7491 -4.9727 0.9538
10.3610 -2.8382 -4.9727 0.9538
10.5725 -1.9047 -4.9727 0.9538
10.1374 0.0000 -4.9727 0.9558
9.9768 1.7974 -4.9727 0.9558
9.7773 2.6783 -4.9727 0.9558
9.5001 3.5379 -4.9727 0.9558
8.7223 5.1662 -4.9727 0.9558
7.6681 6.6309 -4.9727 0.9558
6.3709 7.8854 -4.9727 0.9558
4.0613 9.2884 -4.9727 0.9558
2.3387 9.8137 -4.9486 0.9560
1.4242 9.7647 -4.8405 0.9570
0.5471 9.8115 -4.8203 0.9572
-0.3284 9.8213 -4.8203 0.9572
-1.2012 9.7531 -4.8203 0.9572
-2.9992 9.6685 -4.9656 0.9559
-4.6726 8.9964 -4.9727 0.9558
-5.4548 8.5448 -4.9727 0.9558
-6.1937 8.0254 -4.9727 0.9558
-6.8834 7.4422 -4.9727 0.9558
-7.5185 6.8000 -4.9727 0.9558
-8.0939 6.1039 -4.9727 0.9558
-9.0479 4.5721 -4.9727 0.9558
-1.3059 0.5197 -0.6895 0.9938
-1.3047 0.2652 -0.6531 0.9941
-1.3419 0.1501 -0.6624 0.9940
-1.3257 -0.2085 -0.6583 0.9940
-1.3171 -0.4573 -0.6839 0.9938
-1.2865 -0.5797 -0.6922 0.9937
-8.8352 -4.9706 -4.9727 0.9558
-8.3577 -5.7373 -4.9727 0.9558
-6.9872 -6.9098 -4.8203 0.9572
-6.3444 -7.5042 -4.8203 0.9572
-5.6513 -8.0391 -4.8203 0.9572
5.8290 -7.9112 -4.8203 0.9572
7.7120 -6.0901 -4.8203 0.9572
8.2365 -5.3881 -4.8279 0.9571
8.9431 -4.7722 -4.9723 0.9558
10.1274 -0.4516 -4.9727 0.9558
9.8869 2.2401 -4.9727 0.9558
9.6482 3.1112 -4.9727 0.9558
7.9559 6.2827 -4.9727 0.9558
6.0133 8.1614 -4.9727 0.9558
5.2631 8.6642 -4.9727 0.9558
4.4710 9.0982 -4.9727 0.9558
1.8755 9.7846 -4.8869 0.9566
0.1095 9.8261 -4.8203 0.9572
-0.7655 9.7969 -4.8203 0.9572
-1.6401 9.7233 -4.8369 0.9570
-2.5433 9.7075 -4.9225 0.9563
-3.4285 9.5298 -4.9679 0.9559
-6.5450 7.7415 -4.9727 0.9558
-7.2081 7.1282 -4.9727 0.9558
-7.8139 6.4584 -4.9727 0.9558
-8.3577 5.7373 -4.9727 0.9558
-8.8352 4.9706 -4.9727 0.9558
-1.2865 0.5797 -0.6922 0.9937
-1.3257 0.2085 -0.6583 0.9940
-1.3513 0.0905 -0.6643 0.9940
-1.3419 -0.1501 -0.6624 0.9940
-1.3059 -0.5198 -0.6895 0.9938
-9.0479 -4.5721 -4.9727 0.9558
-8.0843 -6.0967 -4.9668 0.9559
-6.6724 -7.2141 -4.8203 0.9572
-5.2876 -8.2829 -4.8203 0.9572
6.1757 -7.6437 -4.8203 0.9572
8.7118 -5.1600 -4.9667 0.9559
9.5001 -3.5379 -4.9727 0.9558
9.9768 -1.7974 -4.9727 0.9558
10.0972 -0.9023 -4.9727 0.9558
9.2447 2.5324 -4.9727 0.9577
8.9826 3.3452 -4.9727 0.9577
6.6636 6.8901 -4.9727 0.9577
6.0239 7.4559 -4.9727 0.9577
4.6065 8.4058 -4.9727 0.9577
1.3825 9.4788 -4.9694 0.9578
-0.3199 9.5695 -4.9672 0.9578
-1.1707 9.5052 -4.9683 0.9578
-4.4181 8.5064 -4.9727 0.9577
-5.8563 7.5883 -4.9727 0.9577
-1.0665 0.5389 -0.6199 0.9946
-1.1266 0.3358 -0.6099 0.9947
-1.1332 0.2303 -0.5999 0.9948
-1.1739 -0.0786 -0.6103 0.9947
-1.1517 -0.1811 -0.6048 0.9948
-1.1275 -0.2820 -0.6029 0.9948
-1.1198 -0.3888 -0.6150 0.9947
-1.0898 -0.4910 -0.6201 0.9946
-7.9025 -5.4248 -4.9727 0.9577
-6.6066 -6.5334 -4.8203 0.9590
-5.9989 -7.0955 -4.8203 0.9590
-4.6458 -8.0467 -4.8203 0.9590
4.8239 -7.9412 -4.8203 0.9590
7.2920 -5.7584 -4.8203 0.9590
8.0135 -5.2422 -4.9678 0.9578
8.4566 -4.5126 -4.9727 0.9577
8.8247 -3.7420 -4.9727 0.9577
9.1227 -2.9417 -4.9727 0.9577
9.3484 -2.1181 -4.9727 0.9577
9.4998 -1.2776 -4.9727 0.9577
9.5758 0.4270 -4.9727 0.9577
9.4998 1.2776 -4.9727 0.9577
9.1227 2.9417 -4.9727 0.9577
8.4566 4.5126 -4.9727 0.9577
5.6858 7.7168 -4.9727 0.9577
3.4450 8.9448 -4.9727 0.9577
2.6352 9.2159 -4.9727 0.9577
1.8039 9.4109 -4.9710 0.9577
0.1067 9.5742 -4.9672 0.9578
-1.5933 9.4455 -4.9693 0.9578
-2.4291 9.2717 -4.9723 0.9577
-3.2449 9.0194 -4.9727 0.9577
-4.7927 8.3011 -4.9727 0.9577
-5.5125 7.8416 -4.9727 0.9577
-7.3883 6.1066 -4.9727 0.9577
-7.9025 5.4248 -4.9727 0.9577
-8.3540 4.6999 -4.9727 0.9577
-1.1517 0.1811 -0.6048 0.9948
-1.1785 -0.0263 -0.6115 0.9947
-1.1332 -0.2303 -0.5999 0.9948
-8.1363 -5.0673 -4.9727 0.9577
-5.6768 -7.3557 -4.8203 0.9590
-4.9996 -7.8318 -4.8203 0.9590
-4.2827 -8.2457 -4.8203 0.9590
4.4653 -8.1482 -4.8203 0.9590
6.4594 -6.6790 -4.8203 0.9590
7.0282 -6.0775 -4.8203 0.9590
7.6339 -5.4946 -4.8795 0.9585
8.2472 -4.8848 -4.9727 0.9577
8.6493 -4.1314 -4.9727 0.9577
8.9826 -3.3452 -4.9727 0.9577
9.4334 -1.6995 -4.9727 0.9577
2.0429 0.0000 -1.1189 0.9907
2.0036 0.3610 -1.1150 0.9908
2.0004 0.5480 -1.1360 0.9906
7.8117 4.6269 -4.9727 0.9594
6.8675 5.9386 -4.9727 0.9594
6.3117 6.5263 -4.9727 0.9594
5.0546 7.5420 -4.9727 0.9594
4.3632 7.9619 -4.9727 0.9594
3.6373 8.3187 -4.9727 0.9594
2.1047 8.8318 -4.9727 0.9594
1.3103 8.9841 -4.9727 0.9594
-0.3034 9.0740 -4.9727 0.9594
-1.9074 8.8765 -4.9727 0.9594
-2.6899 8.6715 -4.9727 0.9594
-3.4511 8.3976 -4.9727 0.9594
-4.1848 8.0572 -4.9727 0.9594
-4.8853 7.6527 -4.9727 0.9594
-5.5470 7.1875 -4.9727 0.9594
-6.1648 6.6653 -4.9727 0.9594
-6.7335 6.0901 -4.9727 0.9594
-7.2489 5.4666 -4.9727 0.9594
-7.7067 4.7998 -4.9727 0.9594
-0.9364 0.4732 -0.5746 0.9952
-1.0415 0.0232 -0.5706 0.9953
-1.0166 -0.1599 -0.5637 0.9953
-0.9847 -0.2463 -0.5559 0.9954
-0.9472 -0.4268 -0.5690 0.9953
-6.9973 -5.7835 -4.9721 0.9594
-6.2912 -6.2215 -4.8461 0.9605
-5.0613 -7.1998 -4.8203 0.9607
-4.4004 -7.6218 -4.8203 0.9607
-3.7046 -7.9832 -4.8203 0.9607
3.1631 -8.2128 -4.8203 0.9607
3.8815 -7.8987 -4.8203 0.9607
4.5691 -7.5218 -4.8203 0.9607
5.2205 -7.0853 -4.8203 0.9607
5.8304 -6.5925 -4.8203 0.9607
1.9895 -0.6415 -1.1449 0.9905
2.0041 -0.4541 -1.1255 0.9907
2.0434 -0.0911 -1.1203 0.9907
2.0434 0.0911 -1.1203 0.9907
2.0226 0.2720 -1.1178 0.9907
8.0100 4.2743 -4.9727 0.9594
7.5978 4.9703 -4.9727 0.9594
6.5962 6.2386 -4.9727 0.9594
4.7136 7.7596 -4.9727 0.9594
4.0042 8.1484 -4.9727 0.9594
1.7092 8.9168 -4.9727 0.9594
0.1011 9.0785 -4.9727 0.9594
-0.7073 9.0515 -4.9727 0.9594
-2.3010 8.7827 -4.9727 0.9594
-3.0735 8.5430 -4.9727 0.9594
-4.5396 7.8627 -4.9727 0.9594
-5.2214 7.4275 -4.9727 0.9594
-5.8617 6.9333 -4.9727 0.9594
-6.4556 6.3840 -4.9727 0.9594
-6.9981 5.7841 -4.9727 0.9594
-7.4852 5.1383 -4.9727 0.9594
-0.9240 0.5198 -0.5806 0.9952
-0.9847 0.2463 -0.5559 0.9954
-1.0000 -0.2033 -0.5589 0.9954
-0.9825 -0.2928 -0.5615 0.9953
-0.9364 -0.4732 -0.5746 0.9952
-7.2489 -5.4666 -4.9727 0.9594
-6.7259 -6.0832 -4.9670 0.9595
-5.3770 -6.9672 -4.8203 0.9607
-4.7356 -7.4182 -4.8203 0.9607
3.5258 -8.0637 -4.8203 0.9607
4.2295 -7.7179 -4.8203 0.9607
4.8997 -7.3108 -4.8203 0.9607
6.1183 -6.3263 -4.8203 0.9607
6.6571 -5.7566 -4.8203 0.9607
7.3632 -5.2997 -4.9689 0.9595
7.8117 -4.6269 -4.9727 0.9594
2.0004 -0.5480 -1.1360 0.9906
2.0036 -0.3610 -1.1150 0.9908
2.0356 -0.1819 -1.1193 0.9907
1.8754 0.0000 -1.0828 0.9914
1.8426 0.3320 -1.0810 0.9914
7.4105 4.3893 -4.9727 0.9610
6.9905 5.0314 -4.9727 0.9610
5.4128 6.6995 -4.9727 0.9610
4.7950 7.1547 -4.9727 0.9610
0.4795 8.5995 -4.9727 0.9610
-0.2878 8.6081 -4.9727 0.9610
-2.5518 8.2262 -4.9727 0.9610
-3.2738 7.9664 -4.9727 0.9610
-3.9699 7.6434 -4.9727 0.9610
-4.6344 7.2597 -4.9727 0.9610
-6.3877 5.7774 -4.9727 0.9610
-6.8766 5.1859 -4.9727 0.9610
-0.8491 0.5288 -0.5776 0.9954
-0.8760 0.4427 -0.5667 0.9955
-0.8932 0.3555 -0.5550 0.9956
-0.9120 0.1854 -0.5373 0.9957
-0.9273 -0.0621 -0.5366 0.9957
-0.9189 -0.1445 -0.5370 0.9957
-7.1008 -4.8744 -4.9727 0.9610
-6.1178 -6.0500 -4.9676 0.9610
-4.8014 -6.8301 -4.8203 0.9622
-4.1745 -7.2304 -4.8203 0.9622
-3.5144 -7.5732 -4.8203 0.9622
-2.1159 -8.0764 -4.8203 0.9622
0.0930 -8.3484 -4.8203 0.9622
7.2077 -4.7150 -4.9727 0.9610
1.6861 -0.8997 -1.1034 0.9912
1.8316 -0.4150 -1.0843 0.9914
1.8755 -0.0836 -1.0839 0.9914
1.8755 0.0836 -1.0839 0.9914
1.8592 0.2500 -1.0831 0.9914
1.8108 0.5839 -1.0985 0.9913
1.7564 0.7448 -1.1014 0.9912
7.2077 4.7150 -4.9727 0.9610
6.2575 5.9183 -4.9727 0.9610
3.7986 7.7300 -4.9727 0.9610
3.0955 8.0374 -4.9727 0.9610
0.8621 8.5696 -4.9727 0.9610
-0.6710 8.5867 -4.9727 0.9610
-1.4326 8.4929 -4.9727 0.9610
-2.9157 8.1044 -4.9727 0.9610
-3.6255 7.8127 -4.9727 0.9610
-4.3064 7.4590 -4.9727 0.9610
-4.9532 7.0461 -4.9727 0.9610
-5.5607 6.5773 -4.9727 0.9610
-6.1241 6.0562 -4.9727 0.9610
-7.1008 4.8744 -4.9727 0.9610
-0.8638 0.4860 -0.5722 0.9954
-0.8858 0.3991 -0.5609 0.9955
-0.9306 -0.0207 -0.5374 0.9957
-0.9120 -0.1854 -0.5373 0.9957
-0.9012 -0.2686 -0.5429 0.9957
-0.8932 -0.3555 -0.5550 0.9956
-0.8760 -0.4426 -0.5667 0.9955
-0.8491 -0.5288 -0.5776 0.9954
-6.8766 -5.1859 -4.9727 0.9610
-5.1009 -6.6095 -4.8203 0.9622
-3.8482 -7.4092 -4.8203 0.9622
-3.1735 -7.7223 -4.8203 0.9622
-2.4736 -7.9741 -4.8203 0.9622
-1.7540 -8.1626 -4.8203 0.9622
1.2049 -8.2615 -4.8203 0.9622
1.9354 -8.1215 -4.8203 0.9622
3.3447 -7.6497 -4.8203 0.9622
4.6481 -6.9354 -4.8203 0.9622
6.9905 -5.0314 -4.9727 0.9610
7.4105 -4.3893 -4.9727 0.9610
1.8267 -0.5004 -1.0935 0.9913
