ply
format ascii 1.0
element vertex 1272
property float32 x
property float32 y
property float32 z
property float32 I
end_header
11.8962 14.7241 -2.2485 0.9266
-15.1134 11.3976 -2.2485 0.9266
18.7604 -2.5231 -2.2485 0.9266
-17.2552 9.7076 -2.3518 0.9233
18.6294 -3.3563 -2.2485 0.9266
18.8542 -1.6848 -2.2485 0.9266
16.9451 0.0000 -2.4009 0.9338
16.8778 1.5082 -2.4009 0.9338
16.6766 3.0044 -2.4009 0.9338
15.8797 5.9137 -2.4009 0.9338
15.2903 7.3036 -2.4009 0.9338
14.5796 8.6355 -2.4009 0.9338
12.8175 11.0837 -2.4009 0.9338
11.7769 12.1772 -2.4003 0.9339
-12.8882 9.7195 -2.2872 0.9369
-16.2392 4.8398 -2.4009 0.9338
-16.8400 1.8839 -2.4009 0.9338
-16.9073 -1.1318 -2.4009 0.9338
-16.7394 -2.6322 -2.4009 0.9338
-14.4686 -6.5192 -2.2485 0.9379
15.4772 -3.5067 -2.2485 0.9379
16.9283 0.7548 -2.4009 0.9338
16.7939 2.2586 -2.4009 0.9338
16.5262 3.7444 -2.4009 0.9338
15.6005 6.6152 -2.4009 0.9338
13.2985 10.5017 -2.4009 0.9338
-12.2322 10.1101 -2.2485 0.9379
-13.9389 9.5685 -2.3955 0.9340
-16.0075 5.5584 -2.4009 0.9338
-16.9073 1.1318 -2.4009 0.9338
-16.8401 -1.8838 -2.4009 0.9338
-16.6055 -3.3752 -2.4009 0.9338
-16.2392 -4.8398 -2.4009 0.9338
-14.1638 -7.1573 -2.2485 0.9379
14.8717 -5.5383 -2.2485 0.9379
16.1242 -2.9049 -2.3214 0.9360
16.8778 -1.5082 -2.4009 0.9338
14.5742 -0.0000 -2.4009 0.9426
14.3433 2.5841 -2.4009 0.9426
14.0563 3.8504 -2.4009 0.9426
13.6579 5.0862 -2.4009 0.9426
11.0241 9.5329 -2.4009 0.9426
9.1372 11.3093 -2.3952 0.9428
7.5988 11.3382 -2.2485 0.9462
-8.3392 10.8054 -2.2485 0.9462
-10.7267 9.7018 -2.3827 0.9431
-12.3711 7.7048 -2.4009 0.9426
-13.0077 6.5731 -2.4009 0.9426
-13.9671 4.1626 -2.4009 0.9426
-14.2821 2.9030 -2.4009 0.9426
-14.4838 1.6203 -2.4009 0.9426
-14.5416 -0.9734 -2.4009 0.9426
-14.3973 -2.2639 -2.4009 0.9426
-13.7678 -4.7807 -2.4009 0.9426
-13.2663 -5.9775 -2.3971 0.9427
-11.8957 -6.6924 -2.2485 0.9462
12.0419 -6.4258 -2.2485 0.9462
14.2095 -3.2195 -2.4002 0.9426
14.5597 -0.6492 -2.4009 0.9426
14.5597 0.6492 -2.4009 0.9426
14.2139 3.2204 -2.4009 0.9426
13.8709 4.4728 -2.4009 0.9426
13.4177 5.6896 -2.4009 0.9426
12.8581 6.8613 -2.4009 0.9426
9.6551 10.9172 -2.4009 0.9426
7.0862 11.6655 -2.2485 0.9462
-6.8245 11.8204 -2.2485 0.9462
-9.8301 9.7212 -2.2775 0.9455
-12.0156 8.2482 -2.4009 0.9426
-12.7020 7.1460 -2.4009 0.9426
-13.7678 4.7807 -2.4009 0.9426
-14.3973 2.2639 -2.4009 0.9426
-13.5412 -5.3893 -2.4009 0.9426
-12.3124 -6.2217 -2.2726 0.9456
-10.8976 -8.2183 -2.2485 0.9462
12.7909 -4.7634 -2.2485 0.9462
13.8424 -3.7918 -2.3644 0.9435
14.5163 -1.2972 -2.4009 0.9426
12.5712 2.2648 -2.4009 0.9493
12.3198 3.3747 -2.4009 0.9493
11.5262 5.5056 -2.4009 0.9493
10.3674 7.4620 -2.4009 0.9493
8.8801 9.1820 -2.4009 0.9493
8.0276 9.9359 -2.4009 0.9493
7.0956 10.5874 -2.3956 0.9494
1.7265 11.8376 -2.2485 0.9525
-1.4623 11.8731 -2.2485 0.9525
-4.5472 11.0649 -2.2485 0.9525
-6.4370 10.0834 -2.2485 0.9525
-7.4982 9.7158 -2.3068 0.9513
-8.6660 9.3696 -2.3989 0.9494
-9.4736 8.5683 -2.4009 0.9493
-10.1986 7.6911 -2.4009 0.9493
-11.4007 5.7610 -2.4009 0.9493
-12.2415 3.6484 -2.4009 0.9493
-12.7451 -0.8532 -2.4009 0.9493
-12.6186 -1.9842 -2.4009 0.9493
-9.8626 -6.7703 -2.2485 0.9525
10.0110 -6.5489 -2.2485 0.9525
11.0767 -4.6969 -2.2614 0.9522
12.1541 -3.9192 -2.4003 0.9494
12.7609 -0.5690 -2.4009 0.9493
12.7609 0.5690 -2.4009 0.9493
11.7600 4.9867 -2.4009 0.9493
11.2695 6.0136 -2.4009 0.9493
9.2803 8.7773 -2.4009 0.9493
8.4623 9.5684 -2.4009 0.9493
7.5770 10.2837 -2.4009 0.9493
5.2761 10.7365 -2.2485 0.9525
4.2995 11.1635 -2.2485 0.9525
-5.0356 10.8514 -2.2485 0.9525
-5.9814 10.3601 -2.2485 0.9525
-6.8798 9.7866 -2.2485 0.9525
-9.0825 8.9819 -2.4009 0.9493
-10.5311 7.2292 -2.4009 0.9493
-11.6460 5.2474 -2.4009 0.9493
-12.0668 4.1901 -2.4009 0.9493
-12.2415 -3.6483 -2.4009 0.9493
-11.8682 -4.7234 -2.4009 0.9493
-11.3998 -5.7606 -2.4008 0.9493
-9.5513 -7.2029 -2.2485 0.9525
-8.8722 -8.0245 -2.2485 0.9525
9.7093 -6.9884 -2.2485 0.9525
10.7946 -5.1561 -2.2485 0.9525
11.8990 -4.4312 -2.3866 0.9496
12.5712 -2.2648 -2.4009 0.9493
11.3584 0.0000 -2.4009 0.9546
11.3133 1.0110 -2.4009 0.9546
11.1784 2.0139 -2.4009 0.9546
10.6443 3.9640 -2.4009 0.9546
9.2188 6.6353 -2.4009 0.9546
8.5916 7.4295 -2.4009 0.9546
7.1382 8.8351 -2.4009 0.9546
3.3772 10.0871 -2.2485 0.9574
0.5922 10.6209 -2.2485 0.9574
-4.0434 9.8390 -2.2485 0.9574
-6.0987 9.5534 -2.3958 0.9547
-8.4240 7.6191 -2.4009 0.9546
-10.1376 5.1228 -2.4009 0.9546
-11.1308 2.2624 -2.4009 0.9546
-11.2880 1.2628 -2.4009 0.9546
-11.3556 0.2531 -2.4009 0.9546
-11.3330 -0.7587 -2.4009 0.9546
-11.0190 -2.7560 -2.4009 0.9546
-9.0506 -6.2129 -2.3205 0.9561
-7.5636 -7.4798 -2.2485 0.9574
-6.8678 -8.1233 -2.2485 0.9574
7.7283 -7.3094 -2.2485 0.9574
8.3483 -6.5925 -2.2485 0.9574
8.9019 -5.8234 -2.2485 0.9574
9.5395 -5.0904 -2.2856 0.9568
10.4530 -4.4325 -2.4000 0.9546
11.0776 -2.5099 -2.4009 0.9546
11.3471 0.5060 -2.4009 0.9546
11.2571 1.5139 -2.4009 0.9546
11.0776 2.5099 -2.4009 0.9546
10.8103 3.4859 -2.4009 0.9546
8.9141 7.0394 -2.4009 0.9546
8.2522 7.8048 -2.4009 0.9546
7.5247 8.5083 -2.4009 0.9546
3.8602 10.0229 -2.2703 0.9570
2.0026 10.4472 -2.2485 0.9574
1.0648 10.5840 -2.2485 0.9574
0.1185 10.6368 -2.2485 0.9574
-7.3333 8.6739 -2.4009 0.9546
-8.0762 7.9867 -2.4009 0.9546
-8.7550 7.2362 -2.4009 0.9546
-10.3557 4.6661 -2.4009 0.9546
-10.7299 3.7258 -2.4009 0.9546
-11.2205 1.7643 -2.4009 0.9546
-11.3330 0.7587 -2.4009 0.9546
-11.3556 -0.2530 -2.4009 0.9546
-11.2880 -1.2627 -2.4009 0.9546
-11.1308 -2.2624 -2.4009 0.9546
-10.8853 -3.2442 -2.4009 0.9546
-9.6248 -5.9944 -2.3968 0.9547
-8.4931 -6.4049 -2.2485 0.9574
-7.8893 -7.1354 -2.2485 0.9574
7.3951 -7.6464 -2.2485 0.9574
9.1525 -5.4210 -2.2485 0.9574
10.2183 -4.8809 -2.3937 0.9548
10.6443 -3.9640 -2.4009 0.9546
11.1784 -2.0139 -2.4009 0.9546
10.0539 1.8113 -2.4009 0.9589
9.8528 2.6990 -2.4009 0.9589
9.2181 4.4031 -2.4009 0.9589
8.2914 5.9678 -2.4009 0.9589
7.7273 6.6821 -2.4009 0.9589
7.1019 7.3433 -2.4009 0.9589
6.4201 7.9463 -2.4009 0.9589
5.6874 8.4862 -2.4009 0.9589
4.0926 9.3601 -2.4009 0.9589
2.3390 9.8147 -2.3713 0.9594
1.4228 9.7557 -2.3171 0.9603
-2.0867 9.7106 -2.3343 0.9600
-3.0092 9.7008 -2.3871 0.9591
-3.8780 9.4365 -2.3978 0.9589
-8.1564 6.1510 -2.4009 0.9589
-8.6715 5.4007 -2.4009 0.9589
-9.1178 4.6074 -2.4009 0.9589
-9.4917 3.7776 -2.4009 0.9589
-10.0111 2.0348 -2.4009 0.9589
-10.2132 0.2276 -2.4009 0.9589
-10.1929 -0.6823 -2.4009 0.9589
-9.9105 -2.4788 -2.4009 0.9589
-9.3140 -4.1967 -2.4009 0.9589
-8.9035 -5.0090 -2.4009 0.9589
-7.5229 -6.2179 -2.2938 0.9607
-6.1769 -7.3061 -2.2485 0.9615
-5.5021 -7.8269 -2.2485 0.9615
-4.7837 -8.2855 -2.2485 0.9615
6.3382 -7.1667 -2.2485 0.9615
7.5084 -5.9293 -2.2485 0.9615
8.2248 -5.3804 -2.3099 0.9604
9.0083 -4.8070 -2.3997 0.9589
9.4051 -3.9881 -2.4009 0.9589
9.7228 -3.1352 -2.4009 0.9589
9.9632 -2.2574 -2.4009 0.9589
10.1246 -1.3616 -2.4009 0.9589
9.9632 2.2574 -2.4009 0.9589
9.7228 3.1352 -2.4009 0.9589
9.4051 3.9881 -2.4009 0.9589
8.0173 6.3312 -2.4009 0.9589
7.4220 7.0197 -2.4009 0.9589
5.3037 8.7311 -2.4009 0.9589
4.5056 9.1685 -2.4009 0.9589
2.8009 9.7953 -2.3944 0.9590
1.8746 9.7798 -2.3403 0.9599
0.1083 9.7210 -2.2848 0.9608
-0.7594 9.7185 -2.2910 0.9607
-1.6386 9.7141 -2.3153 0.9603
-3.4500 9.5896 -2.3952 0.9590
-4.2997 9.2656 -2.4007 0.9589
-7.2638 7.1833 -2.4009 0.9589
-7.8743 6.5083 -2.4009 0.9589
-8.4223 5.7816 -2.4009 0.9589
-8.9035 5.0090 -2.4009 0.9589
-9.3140 4.1967 -2.4009 0.9589
-9.6505 3.3510 -2.4009 0.9589
-10.0918 1.5869 -2.4009 0.9589
-10.1930 0.6823 -2.4009 0.9589
-10.2132 -0.2276 -2.4009 0.9589
-10.0111 -2.0348 -2.4009 0.9589
-9.7902 -2.9178 -2.4009 0.9589
-9.1178 -4.6074 -2.4009 0.9589
-8.6715 -5.4006 -2.4009 0.9589
-6.4963 -7.0237 -2.2485 0.9615
-5.1480 -8.0642 -2.2485 0.9615
5.3264 -7.9475 -2.2485 0.9615
6.6511 -6.8772 -2.2485 0.9615
7.2368 -6.2579 -2.2485 0.9615
7.7651 -5.5890 -2.2485 0.9615
8.7651 -5.1916 -2.3942 0.9590
9.2181 -4.4031 -2.4009 0.9589
9.5735 -3.5652 -2.4009 0.9589
9.8528 -2.6990 -2.4009 0.9589
10.0539 -1.8113 -2.4009 0.9589
10.1752 -0.9093 -2.4009 0.9589
9.2362 0.8253 -2.4009 0.9624
9.1261 1.6441 -2.4009 0.9624
8.6899 3.2362 -2.4009 0.9624
8.3674 3.9968 -2.4009 0.9624
7.9785 4.7257 -2.4009 0.9624
7.0142 6.0654 -2.4009 0.9624
4.4564 8.1319 -2.4009 0.9624
0.5162 9.2585 -2.4009 0.9624
-0.3098 9.2667 -2.4007 0.9624
-4.9896 7.8161 -2.4009 0.9624
-5.6655 7.3410 -2.4009 0.9624
-6.8773 6.2202 -2.4009 0.9624
-7.4037 5.5834 -2.4009 0.9624
-7.8712 4.9022 -2.4009 0.9624
-8.2763 4.1822 -2.4009 0.9624
-8.8867 2.6485 -2.4009 0.9624
-9.0872 1.8471 -2.4009 0.9624
-9.2523 -0.6194 -2.4009 0.9624
-9.1604 -1.4404 -2.4009 0.9624
-8.7599 -3.0418 -2.4009 0.9624
-8.4544 -3.8094 -2.4009 0.9624
-8.0818 -4.5467 -2.4009 0.9624
-7.6450 -5.2480 -2.4009 0.9624
-5.6069 -6.6318 -2.2485 0.9648
-4.3422 -7.5209 -2.2485 0.9648
-3.6556 -7.8775 -2.2485 0.9648
-2.9399 -8.1716 -2.2485 0.9648
3.1212 -8.1041 -2.2485 0.9648
3.8301 -7.7941 -2.2485 0.9648
4.5087 -7.4223 -2.2485 0.9648
5.7532 -6.5053 -2.2485 0.9648
7.0815 -5.5922 -2.3363 0.9634
8.1811 -4.3656 -2.4009 0.9624
8.8255 -2.8458 -2.4009 0.9624
9.2638 -0.4131 -2.4009 0.9624
8.8255 2.8459 -2.4009 0.9624
8.1811 4.3656 -2.4009 0.9624
7.7601 5.0764 -2.4009 0.9624
7.2774 5.7469 -2.4009 0.9624
2.5494 8.9157 -2.4009 0.9624
1.7457 9.1072 -2.4009 0.9624
-1.5424 9.1438 -2.4009 0.9624
-2.3501 8.9702 -2.4009 0.9624
-3.1392 8.7255 -2.4009 0.9624
-3.9033 8.4114 -2.4009 0.9624
-4.6365 8.0306 -2.4009 0.9624
-7.6450 5.2480 -2.4009 0.9624
-8.9959 2.2500 -2.4009 0.9624
-9.2707 -0.2066 -2.4009 0.9624
-8.8867 -2.6485 -2.4009 0.9624
-8.6157 -3.4290 -2.4009 0.9624
-7.4037 -5.5834 -2.4009 0.9624
-5.8967 -6.3755 -2.2485 0.9648
-4.6729 -7.3200 -2.2485 0.9648
-4.0029 -7.7069 -2.2485 0.9648
-2.5730 -8.2945 -2.2485 0.9648
2.7571 -8.2351 -2.2485 0.9648
4.8348 -7.2141 -2.2485 0.9648
6.5829 -5.6924 -2.2533 0.9647
7.5075 -5.4036 -2.3950 0.9625
7.9785 -4.7257 -2.4009 0.9624
8.3674 -3.9968 -2.4009 0.9624
8.6900 -3.2362 -2.4009 0.9624
8.9435 -2.4499 -2.4009 0.9624
9.1261 -1.6442 -2.4009 0.9624
9.2362 -0.8254 -2.4009 0.9624
8.4811 0.0000 -2.4009 0.9654
8.4474 0.7549 -2.4009 0.9654
8.1798 2.2407 -2.4009 0.9654
7.9479 2.9598 -2.4009 0.9654
5.3300 6.5970 -2.4009 0.9654
4.7217 7.0452 -2.4009 0.9654
4.0759 7.4375 -2.4009 0.9654
3.3977 7.7708 -2.4009 0.9654
2.6926 8.0423 -2.4009 0.9654
1.9661 8.2501 -2.4009 0.9654
1.2240 8.3923 -2.4009 0.9654
-1.0367 8.4175 -2.4009 0.9654
-1.7818 8.2918 -2.4009 0.9654
-2.5127 8.1003 -2.4009 0.9654
-3.2237 7.8445 -2.4009 0.9654
-3.9091 7.5265 -2.4009 0.9654
-4.5635 7.1486 -2.4009 0.9654
-5.1817 6.7141 -2.4009 0.9654
-6.2900 5.6890 -2.4009 0.9654
-7.1990 4.4836 -2.4009 0.9654
-7.5695 3.8251 -2.4009 0.9654
-7.8800 3.1361 -2.4009 0.9654
-8.1278 2.4224 -2.4009 0.9654
-8.3112 1.6893 -2.4009 0.9654
-8.4285 0.9429 -2.4009 0.9654
-8.3782 -1.3174 -2.4009 0.9654
-8.2276 -2.0579 -2.4009 0.9654
-7.7324 -3.4841 -2.4009 0.9654
-7.3916 -4.1585 -2.4009 0.9654
-6.0216 -5.9549 -2.3975 0.9654
-5.2553 -6.2160 -2.3043 0.9667
-4.5679 -6.4979 -2.2485 0.9675
-3.9714 -6.8786 -2.2485 0.9675
-2.0130 -7.6835 -2.2485 0.9675
-1.3211 -7.8321 -2.2485 0.9675
0.7950 -7.9029 -2.2485 0.9675
1.4953 -7.8008 -2.2485 0.9675
2.1836 -7.6367 -2.2485 0.9675
3.5031 -7.1285 -2.2485 0.9675
4.1236 -6.7885 -2.2485 0.9675
4.7115 -6.3945 -2.2485 0.9675
5.2619 -5.9498 -2.2485 0.9675
6.0790 -5.7495 -2.3687 0.9658
7.4824 -3.9927 -2.4009 0.9654
7.8081 -3.3109 -2.4009 0.9654
8.0718 -2.6028 -2.4009 0.9654
8.2714 -1.8741 -2.4009 0.9654
8.4727 0.3778 -2.4009 0.9654
8.2715 1.8741 -2.4009 0.9654
8.0718 2.6028 -2.4009 0.9654
7.4825 3.9928 -2.4009 0.9654
7.0974 4.6429 -2.4009 0.9654
6.6560 5.2562 -2.4009 0.9654
6.1617 5.8277 -2.4009 0.9654
5.6186 6.3530 -2.4009 0.9654
5.0308 6.8279 -2.4009 0.9654
4.4031 7.2486 -2.4009 0.9654
3.7405 7.6117 -2.4009 0.9654
3.0482 7.9144 -2.4009 0.9654
2.3317 8.1543 -2.4009 0.9654
1.5966 8.3294 -2.4009 0.9654
-0.6607 8.4553 -2.4009 0.9654
-2.1494 8.2042 -2.4009 0.9654
-2.8711 7.9803 -2.4009 0.9654
-3.5700 7.6931 -2.4009 0.9654
-4.2406 7.3448 -2.4009 0.9654
-6.5372 5.4031 -2.4009 0.9654
-7.7324 3.4841 -2.4009 0.9654
-8.2277 2.0579 -2.4009 0.9654
-8.4285 -0.9429 -2.4009 0.9654
-8.1278 -2.4223 -2.4009 0.9654
-7.8800 -3.1361 -2.4009 0.9654
-6.7714 -5.1066 -2.4009 0.9654
-6.2900 -5.6890 -2.4009 0.9654
-4.8528 -6.2879 -2.2485 0.9675
-4.2739 -6.6949 -2.2485 0.9675
-3.0191 -7.3466 -2.2485 0.9675
-0.9709 -7.8832 -2.2485 0.9675
3.8171 -6.9654 -2.2485 0.9675
4.9917 -6.1782 -2.2485 0.9675
5.6339 -5.8254 -2.2942 0.9669
6.4019 -5.5359 -2.3960 0.9654
6.8835 -4.9544 -2.4009 0.9654
7.2971 -4.3221 -2.4009 0.9654
7.9479 -2.9598 -2.4009 0.9654
8.3467 -1.5037 -2.4009 0.9654
7.8059 -0.0000 -2.4009 0.9679
7.6823 1.3840 -2.4009 0.9679
7.0437 3.3645 -2.4009 0.9679
6.3355 4.5600 -2.4009 0.9679
5.9045 5.1058 -2.4009 0.9679
5.4266 5.6111 -2.4009 0.9679
4.9057 6.0718 -2.4009 0.9679
3.1272 7.1521 -2.4009 0.9679
2.4782 7.4021 -2.4009 0.9679
-0.2608 7.8016 -2.4009 0.9679
-2.3127 7.4555 -2.4009 0.9679
-2.9671 7.2200 -2.4009 0.9679
-4.2002 6.5796 -2.4009 0.9679
-4.7692 6.1796 -2.4009 0.9679
-5.3003 5.7306 -2.4009 0.9679
-5.7893 5.2361 -2.4009 0.9679
-6.2324 4.7000 -2.4009 0.9679
-7.6495 1.5548 -2.4009 0.9679
-7.7576 0.8678 -2.4009 0.9679
-7.8040 0.1739 -2.4009 0.9679
-7.7885 -0.5214 -2.4009 0.9679
-7.7112 -1.2125 -2.4009 0.9679
-7.1169 -3.2067 -2.4009 0.9679
-6.4355 -4.4177 -2.4009 0.9679
-6.0168 -4.9730 -2.4009 0.9679
-5.5503 -5.4888 -2.4009 0.9679
-5.0325 -5.9525 -2.3975 0.9679
-4.3657 -6.2103 -2.3349 0.9687
-3.6552 -6.3310 -2.2485 0.9699
-1.2159 -7.2086 -2.2485 0.9699
-0.5695 -7.2882 -2.2485 0.9699
0.7317 -7.2737 -2.2485 0.9699
1.3762 -7.1797 -2.2485 0.9699
2.0098 -7.0288 -2.2485 0.9699
6.1261 -4.8377 -2.4009 0.9679
6.5324 -4.2733 -2.4009 0.9679
7.1865 -3.0474 -2.4009 0.9679
7.4292 -2.3956 -2.4009 0.9679
7.7982 0.3477 -2.4009 0.9679
7.4292 2.3956 -2.4009 0.9679
7.1865 3.0473 -2.4009 0.9679
6.8868 3.6749 -2.4009 0.9679
6.5324 4.2733 -2.4009 0.9679
6.1261 4.8377 -2.4009 0.9679
5.6712 5.3638 -2.4009 0.9679
4.0526 6.6715 -2.4009 0.9679
3.4427 7.0057 -2.4009 0.9679
2.8055 7.2844 -2.4009 0.9679
2.1460 7.5051 -2.4009 0.9679
0.7813 7.7667 -2.4009 0.9679
-1.2984 7.6972 -2.4009 0.9679
-1.9783 7.5511 -2.4009 0.9679
-2.6425 7.3450 -2.4009 0.9679
-3.2858 7.0807 -2.4009 0.9679
-3.9030 6.7601 -2.4009 0.9679
-4.4892 6.3859 -2.4009 0.9679
-5.5503 5.4888 -2.4009 0.9679
-6.0168 4.9730 -2.4009 0.9679
-7.1169 3.2067 -2.4009 0.9679
-7.5727 1.8940 -2.4009 0.9679
-7.8040 -0.1739 -2.4009 0.9679
-7.6495 -1.5548 -2.4009 0.9679
-7.4808 -2.2295 -2.4009 0.9679
-7.2526 -2.8865 -2.4009 0.9679
-6.9670 -3.5206 -2.4009 0.9679
-6.6260 -4.1267 -2.4009 0.9679
-6.2324 -4.7000 -2.4009 0.9679
-5.7893 -5.2361 -2.4009 0.9679
-5.3003 -5.7306 -2.4009 0.9679
-3.9721 -6.2222 -2.2705 0.9696
-3.3696 -6.4876 -2.2485 0.9699
-1.5359 -7.1473 -2.2485 0.9699
1.0550 -7.2339 -2.2485 0.9699
1.6947 -7.1113 -2.2485 0.9699
2.3209 -6.9322 -2.2485 0.9699
2.9287 -6.6982 -2.2485 0.9699
3.5133 -6.4109 -2.2485 0.9699
4.7872 -5.9252 -2.3430 0.9686
5.4183 -5.6025 -2.3973 0.9679
7.0437 -3.3645 -2.4009 0.9679
7.5286 -2.0623 -2.4009 0.9679
7.6823 -1.3840 -2.4009 0.9679
7.2229 0.0000 -2.4009 0.9700
7.1085 1.2807 -2.4009 0.9700
6.9663 1.9083 -2.4009 0.9700
6.7688 2.5207 -2.4009 0.9700
6.5176 3.1132 -2.4009 0.9700
6.2146 3.6809 -2.4009 0.9700
5.8623 4.2194 -2.4009 0.9700
5.4635 4.7245 -2.4009 0.9700
3.4712 6.3341 -2.4009 0.9700
2.8937 6.6180 -2.4009 0.9700
2.2931 6.8492 -2.4009 0.9700
0.4021 7.2117 -2.4009 0.9700
-0.2414 7.2189 -2.4009 0.9700
-3.3292 6.4099 -2.4009 0.9700
-4.4130 5.7181 -2.4009 0.9700
-5.7669 4.3490 -2.4009 0.9700
-6.4466 3.2576 -2.4009 0.9700
-6.7110 2.6709 -2.4009 0.9700
-6.9220 2.0630 -2.4009 0.9700
-7.0782 1.4387 -2.4009 0.9700
-7.0071 -1.7526 -2.4009 0.9700
-5.1357 -5.0788 -2.4009 0.9700
-2.8867 -6.2206 -2.2796 0.9715
-0.5270 -6.7439 -2.2485 0.9719
0.0754 -6.7640 -2.2485 0.9719
4.2760 -5.8035 -2.3962 0.9701
5.2476 -4.9632 -2.4009 0.9700
5.6685 -4.4764 -2.4009 0.9700
6.6498 -2.8198 -2.4009 0.9700
6.8744 -2.2167 -2.4009 0.9700
7.0444 -1.5960 -2.4009 0.9700
7.2157 0.3218 -2.4009 0.9700
7.1585 0.9627 -2.4009 0.9700
7.0444 1.5960 -2.4009 0.9700
6.6498 2.8197 -2.4009 0.9700
5.2476 4.9632 -2.4009 0.9700
4.7850 5.4105 -2.4009 0.9700
3.7499 6.1732 -2.4009 0.9700
3.1856 6.4825 -2.4009 0.9700
2.5960 6.7403 -2.4009 0.9700
1.3598 7.0938 -2.4009 0.9700
0.7230 7.1866 -2.4009 0.9700
0.0805 7.2225 -2.4009 0.9700
-0.5627 7.2010 -2.4009 0.9700
-1.2014 7.1223 -2.4009 0.9700
-1.8305 6.9871 -2.4009 0.9700
-3.0404 6.5519 -2.4009 0.9700
-4.1539 5.9090 -2.4009 0.9700
-4.6633 5.5158 -2.4009 0.9700
-5.1357 5.0788 -2.4009 0.9700
-5.5674 4.6016 -2.4009 0.9700
-5.9549 4.0878 -2.4009 0.9700
-6.2951 3.5416 -2.4009 0.9700
-6.5853 2.9672 -2.4009 0.9700
-7.0071 1.7526 -2.4009 0.9700
-7.1352 1.1220 -2.4009 0.9700
-7.2068 0.4824 -2.4009 0.9700
-7.2211 -0.1609 -2.4009 0.9700
-7.1781 -0.8030 -2.4009 0.9700
-7.0782 -1.4387 -2.4009 0.9700
-6.1311 -3.8185 -2.4009 0.9700
-5.7669 -4.3490 -2.4009 0.9700
-3.2264 -6.2118 -2.3268 0.9709
-2.5712 -6.2567 -2.2485 0.9719
-2.0041 -6.4607 -2.2485 0.9719
-1.4212 -6.6135 -2.2485 0.9719
-0.8269 -6.7137 -2.2485 0.9719
0.9762 -6.6936 -2.2485 0.9719
2.7100 -6.1979 -2.2485 0.9719
3.3309 -6.0782 -2.3039 0.9712
4.0090 -5.9819 -2.3937 0.9701
4.5354 -5.6135 -2.3989 0.9700
5.4635 -4.7245 -2.4009 0.9700
5.8623 -4.2194 -2.4009 0.9700
6.2146 -3.6809 -2.4009 0.9700
6.5176 -3.1132 -2.4009 0.9700
6.7688 -2.5207 -2.4009 0.9700
6.9663 -1.9083 -2.4009 0.9700
7.1085 -1.2807 -2.4009 0.9700
7.1943 -0.6429 -2.4009 0.9700
6.6873 0.5976 -2.4009 0.9719
6.2918 2.3431 -2.4009 0.9719
5.7766 3.4215 -2.4009 0.9719
5.4492 3.9221 -2.4009 0.9719
5.0785 4.3915 -2.4009 0.9719
4.6674 4.8261 -2.4009 0.9719
4.2194 5.2224 -2.4009 0.9719
3.2266 5.8878 -2.4009 0.9719
2.1315 6.3665 -2.4009 0.9719
1.5564 6.5310 -2.4009 0.9719
-0.2243 6.7102 -2.4009 0.9719
-0.8207 6.6635 -2.4009 0.9719
-1.4105 6.5641 -2.4009 0.9719
-1.9892 6.4125 -2.4009 0.9719
-4.1020 5.3151 -2.4009 0.9719
-4.5588 4.9289 -2.4009 0.9719
-5.6990 3.5494 -2.4009 0.9719
-6.4342 1.9176 -2.4009 0.9719
-6.6723 0.7464 -2.4009 0.9719
-6.7122 0.1496 -2.4009 0.9719
-6.6989 -0.4484 -2.4009 0.9719
-6.6324 -1.0429 -2.4009 0.9719
-6.1212 -2.7581 -2.4009 0.9719
-5.1751 -4.2773 -2.4009 0.9719
-4.7738 -4.7209 -2.4009 0.9719
-4.3347 -5.1271 -2.4009 0.9719
-2.8196 -6.0761 -2.3954 0.9719
-0.4898 -6.2686 -2.2485 0.9736
0.6294 -6.2562 -2.2485 0.9736
1.1895 -6.2054 -2.2595 0.9735
1.7662 -6.1766 -2.2973 0.9731
3.4823 -5.7327 -2.3986 0.9719
3.9825 -5.4052 -2.4009 0.9719
4.4478 -5.0292 -2.4009 0.9719
5.2691 -4.1609 -2.4009 0.9719
5.6185 -3.6755 -2.4009 0.9719
5.9233 -3.1608 -2.4009 0.9719
6.3899 -2.0605 -2.4009 0.9719
6.7072 -0.2991 -2.4009 0.9719
6.7072 0.2991 -2.4009 0.9719
6.5479 1.4836 -2.4009 0.9719
6.3899 2.0605 -2.4009 0.9719
6.1812 2.6210 -2.4009 0.9719
5.9233 3.1608 -2.4009 0.9719
5.6185 3.6755 -2.4009 0.9719
4.4478 5.0292 -2.4009 0.9719
2.4130 6.2653 -2.4009 0.9719
1.8458 6.4552 -2.4009 0.9719
0.0748 6.7135 -2.4009 0.9719
-0.5230 6.6935 -2.4009 0.9719
-2.8261 6.0901 -2.4009 0.9719
-3.3570 5.8144 -2.4009 0.9719
-3.8611 5.4925 -2.4009 0.9719
-4.3347 5.1271 -2.4009 0.9719
-4.7738 4.7209 -2.4009 0.9719
-5.5352 3.7997 -2.4009 0.9719
-5.8514 3.2920 -2.4009 0.9719
-6.1212 2.7581 -2.4009 0.9719
-6.3424 2.2023 -2.4009 0.9719
-6.5133 1.6291 -2.4009 0.9719
-6.6324 1.0429 -2.4009 0.9719
-6.6989 0.4484 -2.4009 0.9719
-6.7122 -0.1496 -2.4009 0.9719
-6.6723 -0.7464 -2.4009 0.9719
-5.9923 -3.0280 -2.4009 0.9719
-5.3605 -4.0425 -2.4009 0.9719
-4.1020 -5.3151 -2.4009 0.9719
-1.9270 -6.2120 -2.3259 0.9727
-0.7686 -6.2406 -2.2485 0.9736
0.9074 -6.2219 -2.2485 0.9736
3.2207 -5.8771 -2.3966 0.9719
4.2194 -5.2224 -2.4009 0.9719
5.0785 -4.3915 -2.4009 0.9719
5.4492 -3.9221 -2.4009 0.9719
5.7766 -3.4215 -2.4009 0.9719
6.4753 -1.7738 -2.4009 0.9719
6.6873 -0.5976 -2.4009 0.9719
6.2652 -0.0000 -2.4009 0.9735
6.2403 0.5576 -2.4009 0.9735
5.8713 2.1865 -2.4009 0.9735
5.0850 3.6600 -2.4009 0.9735
4.7391 4.0980 -2.4009 0.9735
3.4880 5.2045 -2.4009 0.9735
1.4524 6.0945 -2.4009 0.9735
0.9042 6.1996 -2.4009 0.9735
0.3488 6.2555 -2.4009 0.9735
-0.2094 6.2617 -2.4009 0.9735
-1.3163 6.1254 -2.4009 0.9735
-2.3815 5.7950 -2.4009 0.9735
-3.3712 5.2809 -2.4009 0.9735
-4.6466 4.2026 -2.4009 0.9735
-5.0022 3.7723 -2.4009 0.9735
-5.3181 3.3122 -2.4009 0.9735
-5.5918 2.8257 -2.4009 0.9735
-5.8211 2.3168 -2.4009 0.9735
-6.0042 1.7895 -2.4009 0.9735
-6.2264 0.6965 -2.4009 0.9735
-6.1892 -0.9732 -2.4009 0.9735
-5.9185 -2.0551 -2.4009 0.9735
-5.7121 -2.5738 -2.4009 0.9735
-5.1653 -3.5458 -2.4009 0.9735
-4.8292 -3.9914 -2.4009 0.9735
-4.4548 -4.4054 -2.4009 0.9735
-4.0450 -4.7844 -2.4009 0.9735
-3.6031 -5.1255 -2.4009 0.9735
-3.1326 -5.4258 -2.4009 0.9735
-2.6372 -5.6831 -2.4009 0.9735
-2.1189 -5.8895 -2.3986 0.9735
-1.0391 -6.1600 -2.3940 0.9736
-0.4846 -6.2013 -2.3837 0.9737
0.0691 -6.2018 -2.3768 0.9738
1.1761 -6.1356 -2.3941 0.9736
3.2527 -5.3547 -2.4009 0.9735
3.7164 -5.0439 -2.4009 0.9735
4.5518 -4.3051 -2.4009 0.9735
5.5275 -2.9496 -2.4009 0.9735
6.2590 0.2791 -2.4009 0.9735
5.9629 1.9228 -2.4009 0.9735
5.7681 2.4459 -2.4009 0.9735
5.5275 2.9495 -2.4009 0.9735
4.5518 4.3051 -2.4009 0.9735
4.1506 4.6931 -2.4009 0.9735
3.7164 5.0439 -2.4009 0.9735
1.7225 6.0238 -2.4009 0.9735
-3.1326 5.4258 -2.4009 0.9735
-4.0450 4.7844 -2.4009 0.9735
-5.1653 3.5458 -2.4009 0.9735
-5.4604 3.0720 -2.4009 0.9735
-6.0780 1.5202 -2.4009 0.9735
-6.1397 -1.2479 -2.4009 0.9735
-5.8211 -2.3168 -2.4009 0.9735
-5.5918 -2.8257 -2.4009 0.9735
-5.3181 -3.3122 -2.4009 0.9735
-4.6466 -4.2026 -2.4009 0.9735
-4.2541 -4.5995 -2.4009 0.9735
-3.8278 -4.9599 -2.4009 0.9735
-3.3712 -5.2809 -2.4009 0.9735
-2.8878 -5.5600 -2.4009 0.9735
-1.8533 -5.9744 -2.3971 0.9736
-1.3129 -6.1098 -2.3948 0.9736
-0.7634 -6.1985 -2.3933 0.9736
0.3456 -6.1979 -2.3788 0.9738
0.9014 -6.1803 -2.3935 0.9736
1.4487 -6.0791 -2.3949 0.9736
1.9858 -5.9314 -2.3970 0.9736
2.5088 -5.7377 -2.3998 0.9735
3.0109 -5.4943 -2.4009 0.9735
3.9374 -4.8734 -2.4009 0.9735
5.8713 -2.1865 -2.4009 0.9735
5.8663 -0.0000 -2.4009 0.9750
5.7734 1.0401 -2.4009 0.9750
5.6579 1.5499 -2.4009 0.9750
5.4975 2.0473 -2.4009 0.9750
5.2935 2.5285 -2.4009 0.9750
4.4374 3.8371 -2.4009 0.9750
4.0782 4.2169 -2.4009 0.9750
3.6867 4.5631 -2.4009 0.9750
2.8192 5.1445 -2.4009 0.9750
2.3502 5.3750 -2.4009 0.9750
1.3599 5.7065 -2.4009 0.9750
0.8466 5.8049 -2.4009 0.9750
0.3266 5.8572 -2.4009 0.9750
-0.1960 5.8631 -2.4009 0.9750
-0.7171 5.8223 -2.4009 0.9750
-2.2298 5.4260 -2.4009 0.9750
-2.7039 5.2060 -2.4009 0.9750
-3.9833 4.3067 -2.4009 0.9750
-4.6837 3.5322 -2.4009 0.9750
-4.9795 3.1013 -2.4009 0.9750
-5.2358 2.6458 -2.4009 0.9750
-5.6220 1.6755 -2.4009 0.9750
-2.1365 0.4343 -0.8923 0.9906
-2.1261 0.2378 -0.8756 0.9908
-2.1285 0.0474 -0.8714 0.9908
-2.1302 -0.1426 -0.8738 0.9908
-2.1345 -0.3356 -0.8843 0.9907
-2.1308 -0.5329 -0.8989 0.9906
-5.5417 -1.9243 -2.4009 0.9750
-5.1127 -2.8764 -2.4009 0.9750
-3.7875 -4.4798 -2.4009 0.9750
-3.3737 -4.7992 -2.4009 0.9750
-2.9332 -5.0804 -2.4009 0.9750
-1.9859 -5.5200 -2.4009 0.9750
-1.4867 -5.6748 -2.4009 0.9750
-0.9755 -5.7833 -2.4004 0.9750
-0.4567 -5.8446 -2.3993 0.9750
0.5868 -5.8331 -2.3994 0.9750
1.1042 -5.7604 -2.4005 0.9750
3.0456 -5.0138 -2.4009 0.9750
3.4798 -4.7228 -2.4009 0.9750
3.8863 -4.3943 -2.4009 0.9750
4.6039 -3.6356 -2.4009 0.9750
4.9092 -3.2115 -2.4009 0.9750
5.1756 -2.7618 -2.4009 0.9750
5.5832 -1.8004 -2.4009 0.9750
5.7213 -1.2963 -2.4009 0.9750
5.8140 -0.7819 -2.4009 0.9750
5.8605 -0.2613 -2.4009 0.9750
5.8605 0.2613 -2.4009 0.9750
5.8140 0.7819 -2.4009 0.9750
5.5832 1.8004 -2.4009 0.9750
5.4008 2.2901 -2.4009 0.9750
4.9092 3.2115 -2.4009 0.9750
4.6039 3.6356 -2.4009 0.9750
3.8863 4.3943 -2.4009 0.9750
3.4798 4.7228 -2.4009 0.9750
3.0456 5.0138 -2.4009 0.9750
2.5873 5.2650 -2.4009 0.9750
2.1084 5.4743 -2.4009 0.9750
0.0654 5.8660 -2.4009 0.9750
-0.9757 5.7846 -2.4009 0.9750
-3.3737 4.7992 -2.4009 0.9750
-4.8364 3.3200 -2.4009 0.9750
-5.1128 2.8764 -2.4009 0.9750
-5.3485 2.4099 -2.4009 0.9750
-5.5417 1.9243 -2.4009 0.9750
-2.1308 0.5329 -0.8989 0.9906
-2.1302 0.1426 -0.8738 0.9908
-5.6220 -1.6755 -2.4009 0.9750
-5.4505 -2.1692 -2.4009 0.9750
-4.6837 -3.5322 -2.4009 0.9750
-3.9833 -4.3067 -2.4009 0.9750
-3.5841 -4.6441 -2.4009 0.9750
-3.1566 -4.9447 -2.4009 0.9750
-2.2298 -5.4260 -2.4009 0.9750
-1.7381 -5.6029 -2.4009 0.9750
-0.7167 -5.8195 -2.3998 0.9750
0.3263 -5.8528 -2.3991 0.9750
0.8462 -5.8023 -2.3999 0.9750
1.8624 -5.5628 -2.4009 0.9750
2.8192 -5.1445 -2.4009 0.9750
3.2659 -4.8731 -2.4009 0.9750
3.6867 -4.5631 -2.4009 0.9750
4.0782 -4.2169 -2.4009 0.9750
4.4374 -3.8371 -2.4009 0.9750
5.0474 -2.9896 -2.4009 0.9750
5.2935 -2.5285 -2.4009 0.9750
5.4975 -2.0473 -2.4009 0.9750
5.6579 -1.5499 -2.4009 0.9750
5.7734 -1.0401 -2.4009 0.9750
5.4218 0.9768 -2.4009 0.9762
5.3133 1.4555 -2.4009 0.9762
4.7400 2.8075 -2.4009 0.9762
4.4713 3.2183 -2.4009 0.9762
4.1671 3.6034 -2.4009 0.9762
3.4622 4.2852 -2.4009 0.9762
3.0670 4.5763 -2.4009 0.9762
2.6475 4.8312 -2.4009 0.9762
1.7490 5.2240 -2.4009 0.9762
0.7951 5.4514 -2.4009 0.9762
0.3067 5.5005 -2.4009 0.9762
-1.1574 5.3861 -2.4009 0.9762
-1.6322 5.2617 -2.4009 0.9762
-2.0940 5.0956 -2.4009 0.9762
-3.3659 4.3613 -2.4009 0.9762
-3.7407 4.0444 -2.4009 0.9762
-4.0858 3.6954 -2.4009 0.9762
-4.3985 3.3171 -2.4009 0.9762
-4.6763 2.9124 -2.4009 0.9762
-5.1186 2.0371 -2.4009 0.9762
-1.8741 0.5585 -0.8523 0.9915
-1.9470 0.0434 -0.8487 0.9915
-1.9479 -0.1304 -0.8508 0.9915
-5.0227 -2.2631 -2.4009 0.9762
-4.8014 -2.7012 -2.4009 0.9762
-4.2464 -3.5097 -2.4009 0.9762
-3.5568 -4.2070 -2.4009 0.9762
-3.1682 -4.5069 -2.4009 0.9762
-2.7545 -4.7710 -2.4009 0.9762
-2.3190 -4.9972 -2.4009 0.9762
-1.8650 -5.1838 -2.4009 0.9762
-0.9163 -5.4323 -2.4009 0.9762
-0.4292 -5.4923 -2.4009 0.9762
1.0371 -5.4106 -2.4009 0.9762
1.9800 -5.1409 -2.4009 0.9762
2.8601 -4.7084 -2.4009 0.9762
3.6496 -4.1267 -2.4009 0.9762
4.6102 -3.0159 -2.4009 0.9762
5.0719 -2.1507 -2.4009 0.9762
5.3729 -1.2173 -2.4009 0.9762
5.4599 -0.7343 -2.4009 0.9762
4.3235 3.4142 -2.4009 0.9762
4.0025 3.7855 -2.4009 0.9762
3.6496 4.1267 -2.4009 0.9762
2.8601 4.7084 -2.4009 0.9762
1.9800 5.1409 -2.4009 0.9762
0.0614 5.5087 -2.4009 0.9762
-0.4292 5.4923 -2.4009 0.9762
-0.9163 5.4323 -2.4009 0.9762
-1.8650 5.1838 -2.4009 0.9762
-2.3190 4.9972 -2.4009 0.9762
-2.7545 4.7710 -2.4009 0.9762
-3.9171 3.8737 -2.4009 0.9762
-4.5419 3.1178 -2.4009 0.9762
-4.8014 2.7012 -2.4009 0.9762
-1.8290 0.6351 -0.8438 0.9916
-1.9080 0.4772 -0.8571 0.9915
-1.9397 0.3050 -0.8557 0.9915
-1.9479 0.1304 -0.8508 0.9915
-1.9470 -0.0434 -0.8487 0.9915
-1.9433 -0.2174 -0.8522 0.9915
-1.9300 -0.3923 -0.8583 0.9914
-1.8741 -0.5585 -0.8523 0.9915
-4.6763 -2.9124 -2.4009 0.9762
-4.3985 -3.3171 -2.4009 0.9762
-4.0858 -3.6954 -2.4009 0.9762
-3.7407 -4.0444 -2.4009 0.9762
-2.0940 -5.0956 -2.4009 0.9762
-1.1574 -5.3861 -2.4009 0.9762
-0.6734 -5.4677 -2.4009 0.9762
0.7951 -5.4514 -2.4009 0.9762
1.2771 -5.3590 -2.4009 0.9762
1.7490 -5.2240 -2.4009 0.9762
2.2070 -5.0476 -2.4009 0.9762
3.0670 -4.5764 -2.4009 0.9762
3.4622 -4.2852 -2.4009 0.9762
3.8298 -3.9600 -2.4009 0.9762
4.1671 -3.6034 -2.4009 0.9762
4.4713 -3.2183 -2.4009 0.9762
4.9711 -2.3745 -2.4009 0.9762
5.1627 -1.9226 -2.4009 0.9762
5.3133 -1.4555 -2.4009 0.9762
5.4872 -0.4903 -2.4009 0.9762
5.1869 0.0000 -2.4009 0.9774
5.0026 1.3704 -2.4009 0.9774
4.6804 2.2356 -2.4009 0.9774
4.4628 2.6433 -2.4009 0.9774
2.8877 4.3087 -2.4009 0.9774
2.4927 4.5487 -2.4009 0.9774
2.0780 4.7525 -2.4009 0.9774
-1.9716 4.7976 -2.4009 0.9774
-3.1690 4.1062 -2.4009 0.9774
-3.8469 3.4793 -2.4009 0.9774
-4.1413 3.1231 -2.4009 0.9774
-4.4028 2.7421 -2.4009 0.9774
-4.6294 2.3393 -2.4009 0.9774
-1.6738 -0.1120 -0.7765 0.9926
-1.6521 -0.2598 -0.7741 0.9927
-1.5621 -0.5424 -0.7654 0.9927
-4.7290 -2.1308 -2.4009 0.9774
-3.3488 -3.9610 -2.4009 0.9774
-2.1833 -4.7050 -2.4009 0.9774
-1.7559 -4.8806 -2.4009 0.9774
-1.3145 -5.0176 -2.4009 0.9774
-0.8627 -5.1146 -2.4009 0.9774
0.0578 -5.1866 -2.4009 0.9774
1.8642 -4.8403 -2.4009 0.9774
2.2876 -4.6552 -2.4009 0.9774
2.6929 -4.4331 -2.4009 0.9774
3.0768 -4.1758 -2.4009 0.9774
3.4362 -3.8854 -2.4009 0.9774
4.3406 -2.8395 -2.4009 0.9774
4.5761 -2.4419 -2.4009 0.9774
5.1406 -0.6913 -2.4009 0.9774
5.1406 0.6913 -2.4009 0.9774
4.7753 2.0249 -2.4009 0.9774
4.5761 2.4419 -2.4009 0.9774
4.3406 2.8395 -2.4009 0.9774
3.4362 3.8854 -2.4009 0.9774
2.2876 4.6552 -2.4009 0.9774
1.8642 4.8403 -2.4009 0.9774
1.4260 4.9870 -2.4009 0.9774
0.9765 5.0942 -2.4009 0.9774
0.5192 5.1609 -2.4009 0.9774
0.0578 5.1866 -2.4009 0.9774
-1.3145 5.0176 -2.4009 0.9774
-1.7559 4.8806 -2.4009 0.9774
-2.1833 4.7050 -2.4009 0.9774
-3.3488 3.9610 -2.4009 0.9774
-4.2763 2.9355 -2.4009 0.9774
-4.7290 2.1308 -2.4009 0.9774
-1.6521 0.2598 -0.7741 0.9927
-1.6738 0.1120 -0.7765 0.9926
-1.6373 -0.3328 -0.7734 0.9927
-1.5924 -0.4746 -0.7692 0.9927
-4.1413 -3.1231 -2.4009 0.9774
-3.8469 -3.4793 -2.4009 0.9774
-3.5219 -3.8079 -2.4009 0.9774
-2.7910 -4.3720 -2.4009 0.9774
-1.5368 -4.9540 -2.4009 0.9774
1.6467 -4.9186 -2.4009 0.9774
2.4927 -4.5487 -2.4009 0.9774
3.9234 -3.3927 -2.4009 0.9774
4.2098 -3.0301 -2.4009 0.9774
4.6804 -2.2356 -2.4009 0.9774
4.8608 -1.8102 -2.4009 0.9774
5.0026 -1.3704 -2.4009 0.9774
5.1047 -0.9197 -2.4009 0.9774
4.8946 0.0000 -2.4009 0.9784
4.8171 0.8678 -2.4009 0.9784
4.7207 1.2931 -2.4009 0.9784
4.4167 2.1097 -2.4009 0.9784
3.9726 2.8593 -2.4009 0.9784
3.7024 3.2016 -2.4009 0.9784
3.4027 3.5184 -2.4009 0.9784
3.0761 3.8073 -2.4009 0.9784
2.7250 4.0660 -2.4009 0.9784
1.9609 4.4847 -2.4009 0.9784
1.5540 4.6414 -2.4009 0.9784
0.2725 4.8871 -2.4009 0.9784
-0.1636 4.8919 -2.4009 0.9784
-1.0283 4.7854 -2.4009 0.9784
-1.4502 4.6749 -2.4009 0.9784
-1.8605 4.5273 -2.4009 0.9784
-3.6301 3.2833 -2.4009 0.9784
-4.1547 2.5876 -2.4009 0.9784
-4.3686 2.2075 -2.4009 0.9784
-1.3200 0.3934 -0.6756 0.9939
-1.3047 0.2652 -0.6531 0.9941
-1.3536 0.0302 -0.6641 0.9940
-1.3149 -0.3289 -0.6649 0.9940
-1.3171 -0.4573 -0.6839 0.9938
-3.7728 -3.1183 -2.4009 0.9784
-3.1601 -3.7378 -2.4009 0.9784
-2.4473 -4.2389 -2.4009 0.9784
-2.0603 -4.4399 -2.4009 0.9784
-1.6570 -4.6056 -2.4009 0.9784
0.4899 -4.8701 -2.4009 0.9784
1.3457 -4.7060 -2.4009 0.9784
1.7592 -4.5676 -2.4009 0.9784
2.1587 -4.3929 -2.4009 0.9784
4.0961 -2.6795 -2.4009 0.9784
4.6584 -1.5022 -2.4009 0.9784
4.8898 -0.2180 -2.4009 0.9784
4.8898 0.2180 -2.4009 0.9784
4.7737 1.0816 -2.4009 0.9784
4.3183 2.3043 -2.4009 0.9784
3.8413 3.0335 -2.4009 0.9784
3.5561 3.3633 -2.4009 0.9784
3.2426 3.6665 -2.4009 0.9784
2.9034 3.9405 -2.4009 0.9784
2.5412 4.1833 -2.4009 0.9784
2.1587 4.3929 -2.4009 0.9784
1.7592 4.5676 -2.4009 0.9784
1.3457 4.7060 -2.4009 0.9784
0.4899 4.8701 -2.4009 0.9784
-0.8141 4.8265 -2.4009 0.9784
-1.2405 4.7348 -2.4009 0.9784
-1.6570 4.6056 -2.4009 0.9784
-2.0603 4.4399 -2.4009 0.9784
-3.7728 3.1183 -2.4009 0.9784
-4.0353 2.7701 -2.4009 0.9784
-4.2659 2.4000 -2.4009 0.9784
-1.3149 0.3289 -0.6649 0.9940
-1.3257 0.2085 -0.6583 0.9940
-1.3513 0.0905 -0.6643 0.9940
-1.3200 -0.3934 -0.6756 0.9939
-4.3686 -2.2075 -2.4009 0.9784
-3.9079 -2.9471 -2.4009 0.9784
-3.6301 -3.2833 -2.4009 0.9784
-3.3235 -3.5933 -2.4009 0.9784
-2.9905 -3.8749 -2.4009 0.9784
-1.8605 -4.5273 -2.4009 0.9784
-1.4502 -4.6749 -2.4009 0.9784
-1.0283 -4.7854 -2.4009 0.9784
-0.5983 -4.8579 -2.4009 0.9784
0.7064 -4.8434 -2.4009 0.9784
1.1347 -4.7613 -2.4009 0.9784
1.5540 -4.6414 -2.4009 0.9784
2.3523 -4.2924 -2.4009 0.9784
3.4027 -3.5184 -2.4009 0.9784
3.9726 -2.8593 -2.4009 0.9784
4.2114 -2.4944 -2.4009 0.9784
4.4167 -2.1097 -2.4009 0.9784
4.5869 -1.7082 -2.4009 0.9784
4.8171 -0.8678 -2.4009 0.9784
3.7563 2.7036 -2.4009 0.9794
3.2174 3.3268 -2.4009 0.9794
2.2242 4.0586 -2.4009 0.9794
1.8541 4.2404 -2.4009 0.9794
0.6679 4.5796 -2.4009 0.9794
-0.1546 4.6255 -2.4009 0.9794
-0.9723 4.5248 -2.4009 0.9794
-1.7592 4.2807 -2.4009 0.9794
-2.1332 4.1071 -2.4009 0.9794
-2.8276 3.6638 -2.4009 0.9794
-3.1425 3.3976 -2.4009 0.9794
-3.4324 3.1044 -2.4009 0.9794
-3.9284 2.4467 -2.4009 0.9794
-1.0665 0.5389 -0.6199 0.9946
-1.1070 0.4406 -0.6181 0.9946
-1.1332 0.2303 -0.5999 0.9948
-1.1739 -0.0786 -0.6103 0.9947
-1.1517 -0.1811 -0.6048 0.9948
-1.1275 -0.2820 -0.6029 0.9948
-1.0898 -0.4910 -0.6201 0.9946
-4.0335 -2.2692 -2.4009 0.9794
-3.2907 -3.2542 -2.4009 0.9794
-2.9880 -3.5342 -2.4009 0.9794
-1.9481 -4.1981 -2.4009 0.9794
-0.7698 -4.5636 -2.4009 0.9794
-0.3605 -4.6140 -2.4009 0.9794
0.0516 -4.6278 -2.4009 0.9794
0.4632 -4.6048 -2.4009 0.9794
0.8713 -4.5453 -2.4009 0.9794
1.2724 -4.4497 -2.4009 0.9794
1.6634 -4.3188 -2.4009 0.9794
2.0412 -4.1536 -2.4009 0.9794
2.7453 -3.7259 -2.4009 0.9794
3.3624 -3.1801 -2.4009 0.9794
3.8730 -2.5336 -2.4009 0.9794
4.6235 -0.2062 -2.4009 0.9794
4.6235 0.2062 -2.4009 0.9794
4.5868 0.6169 -2.4009 0.9794
4.5137 1.0227 -2.4009 0.9794
4.4047 1.4203 -2.4009 0.9794
4.0831 2.1788 -2.4009 0.9794
3.0660 3.4668 -2.4009 0.9794
2.4027 3.9555 -2.4009 0.9794
2.0412 4.1536 -2.4009 0.9794
1.2724 4.4497 -2.4009 0.9794
0.8713 4.5453 -2.4009 0.9794
-0.3605 4.6140 -2.4009 0.9794
-1.1729 4.4770 -2.4009 0.9794
-1.5667 4.3548 -2.4009 0.9794
-1.9481 4.1981 -2.4009 0.9794
-2.3140 4.0080 -2.4009 0.9794
-2.6616 3.7861 -2.4009 0.9794
-2.9880 3.5342 -2.4009 0.9794
-4.0335 2.2692 -2.4009 0.9794
-1.0898 0.4910 -0.6201 0.9946
-1.1198 0.3889 -0.6150 0.9947
-1.1275 0.2820 -0.6029 0.9948
-1.1739 0.0786 -0.6103 0.9947
-1.1332 -0.2303 -0.5999 0.9948
-1.1070 -0.4406 -0.6181 0.9946
-3.9285 -2.4467 -2.4009 0.9794
-3.1425 -3.3976 -2.4009 0.9794
-2.4903 -3.9010 -2.4009 0.9794
-2.1332 -4.1071 -2.4009 0.9794
-1.3712 -4.4203 -2.4009 0.9794
-0.9723 -4.5248 -2.4009 0.9794
-0.5657 -4.5933 -2.4009 0.9794
0.6679 -4.5796 -2.4009 0.9794
1.4693 -4.3886 -2.4009 0.9794
2.2242 -4.0586 -2.4009 0.9794
3.2174 -3.3268 -2.4009 0.9794
3.7563 -2.7036 -2.4009 0.9794
4.4636 -1.2227 -2.4009 0.9794
4.5547 -0.8206 -2.4009 0.9794
4.6097 -0.4119 -2.4009 0.9794
2.0356 0.1819 -1.1193 0.9907
2.0036 0.3610 -1.1150 0.9908
2.0004 0.5480 -1.1360 0.9906
3.9556 1.8894 -2.4009 0.9802
3.7717 2.2340 -2.4009 0.9802
3.0475 3.1511 -2.4009 0.9802
2.4405 3.6415 -2.4009 0.9802
1.7562 4.0165 -2.4009 0.9802
1.3917 4.1569 -2.4009 0.9802
0.6326 4.3378 -2.4009 0.9802
-1.6663 4.0546 -2.4009 0.9802
-2.0205 3.8902 -2.4009 0.9802
-2.6783 3.4703 -2.4009 0.9802
-2.9765 3.2182 -2.4009 0.9802
-3.2511 2.9405 -2.4009 0.9802
-3.5000 2.6394 -2.4009 0.9802
-3.7210 2.3175 -2.4009 0.9802
-0.9364 0.4732 -0.5746 0.9952
-0.9638 0.3836 -0.5681 0.9953
-1.0000 0.2033 -0.5589 0.9954
-1.0293 0.1151 -0.5673 0.9953
-1.0415 0.0232 -0.5706 0.9953
-1.0376 -0.0695 -0.5696 0.9953
-1.0166 -0.1599 -0.5637 0.9953
-0.9847 -0.2463 -0.5559 0.9954
-0.9756 -0.3388 -0.5656 0.9953
-3.6141 -2.4809 -2.4009 0.9802
-3.3789 -2.7927 -2.4009 0.9802
-3.1169 -3.0824 -2.4009 0.9802
-2.1918 -3.7964 -2.4009 0.9802
-1.4840 -4.1248 -2.4009 0.9802
-1.1110 -4.2405 -2.4009 0.9802
0.4388 -4.3616 -2.4009 0.9802
0.8252 -4.3053 -2.4009 0.9802
1.2052 -4.2147 -2.4009 0.9802
1.5755 -4.0907 -2.4009 0.9802
2.2759 -3.7466 -2.4009 0.9802
2.6003 -3.5291 -2.4009 0.9802
2.9041 -3.2837 -2.4009 0.9802
3.1848 -3.0122 -2.4009 0.9802
3.8675 -2.0637 -2.4009 0.9802
1.9407 -0.8229 -1.1546 0.9904
2.0041 -0.4541 -1.1255 0.9907
2.0434 -0.0911 -1.1203 0.9907
2.0041 0.4541 -1.1255 0.9907
3.6684 2.3998 -2.4009 0.9802
3.4403 2.7168 -2.4009 0.9802
2.9041 3.2837 -2.4009 0.9802
2.6003 3.5291 -2.4009 0.9802
1.5755 4.0907 -2.4009 0.9802
0.4388 4.3616 -2.4009 0.9802
-0.7291 4.3226 -2.4009 0.9802
-1.8452 3.9764 -2.4009 0.9802
-2.5210 3.5862 -2.4009 0.9802
-3.3789 2.7927 -2.4009 0.9802
-3.6141 2.4809 -2.4009 0.9802
-0.9240 0.5198 -0.5806 0.9952
-0.9472 0.4268 -0.5690 0.9953
-0.9756 0.3388 -0.5656 0.9953
-1.0166 0.1599 -0.5637 0.9953
-1.0376 0.0695 -0.5696 0.9953
-1.0415 -0.0232 -0.5706 0.9953
-0.9825 -0.2928 -0.5615 0.9953
-0.9364 -0.4732 -0.5746 0.9952
-3.7210 -2.3175 -2.4009 0.9802
-3.5000 -2.6394 -2.4009 0.9802
-2.9765 -3.2182 -2.4009 0.9802
-2.6783 -3.4703 -2.4009 0.9802
-2.3588 -3.6949 -2.4009 0.9802
-2.0205 -3.8902 -2.4009 0.9802
-0.5359 -4.3508 -2.4009 0.9802
0.6326 -4.3378 -2.4009 0.9802
1.7562 -4.0165 -2.4009 0.9802
3.3158 -2.8673 -2.4009 0.9802
3.5579 -2.5608 -2.4009 0.9802
3.7717 -2.2340 -2.4009 0.9802
2.0004 -0.5480 -1.1360 0.9906
2.0036 -0.3610 -1.1150 0.9908
1.8426 0.3320 -1.0810 0.9914
1.8267 0.5004 -1.0935 0.9913
1.7194 0.8213 -1.1001 0.9912
3.5780 2.1193 -2.4009 0.9810
2.8910 2.9893 -2.4009 0.9810
2.6135 3.2347 -2.4009 0.9810
2.3152 3.4545 -2.4009 0.9810
1.9985 3.6468 -2.4009 0.9810
0.9640 4.0453 -2.4009 0.9810
0.2315 4.1521 -2.4009 0.9810
-0.5083 4.1274 -2.4009 0.9810
-0.8737 4.0657 -2.4009 0.9810
-2.2376 3.5052 -2.4009 0.9810
-0.8491 0.5288 -0.5776 0.9954
-0.8760 0.4427 -0.5667 0.9955
-0.9012 0.2686 -0.5429 0.9957
-0.9120 0.1854 -0.5373 0.9957
-0.9237 0.1033 -0.5366 0.9957
-0.9306 0.0207 -0.5374 0.9957
-0.9273 -0.0621 -0.5366 0.9957
-0.8984 -0.3119 -0.5490 0.9956
-0.8858 -0.3991 -0.5609 0.9955
-0.8638 -0.4859 -0.5722 0.9954
-2.9569 -2.9241 -2.4009 0.9810
-2.6849 -3.1757 -2.4009 0.9810
-2.0793 -3.6014 -2.4009 0.9810
-1.4078 -3.9130 -2.4009 0.9810
-1.0539 -4.0228 -2.4009 0.9810
-0.6917 -4.1006 -2.4009 0.9810
-0.3240 -4.1459 -2.4009 0.9810
2.1590 -3.5542 -2.4009 0.9810
2.7550 -3.1151 -2.4009 0.9810
3.0213 -2.8575 -2.4009 0.9810
3.2636 -2.5773 -2.4009 0.9810
3.4801 -2.2766 -2.4009 0.9810
1.6861 -0.8997 -1.1034 0.9912
1.7564 -0.7448 -1.1014 0.9912
1.8108 -0.5839 -1.0985 0.9913
1.8316 -0.4150 -1.0843 0.9914
1.8755 -0.0836 -1.0839 0.9914
1.8592 0.2500 -1.0831 0.9914
1.8108 0.5839 -1.0985 0.9913
3.2636 2.5773 -2.4009 0.9810
3.0213 2.8575 -2.4009 0.9810
2.4668 3.3479 -2.4009 0.9810
2.1590 3.5542 -2.4009 0.9810
1.8341 3.7322 -2.4009 0.9810
0.7829 4.0842 -2.4009 0.9810
0.4163 4.1377 -2.4009 0.9810
-0.3240 4.1459 -2.4009 0.9810
-0.6917 4.1006 -2.4009 0.9810
-1.7505 3.7722 -2.4009 0.9810
-2.6849 3.1757 -2.4009 0.9810
-2.9569 2.9241 -2.4009 0.9810
-3.2054 2.6493 -2.4009 0.9810
-0.8638 0.4860 -0.5722 0.9954
-0.9030 0.2259 -0.5374 0.9957
-0.9189 0.1445 -0.5370 0.9957
-0.9273 0.0621 -0.5366 0.9957
-0.9306 -0.0207 -0.5374 0.9957
-0.9237 -0.1033 -0.5366 0.9957
-0.8932 -0.3555 -0.5550 0.9956
-3.0842 -2.7895 -2.4009 0.9810
-2.2376 -3.5052 -2.4009 0.9810
-1.9168 -3.6904 -2.4009 0.9810
-1.5807 -3.8464 -2.4009 0.9810
-0.8737 -4.0657 -2.4009 0.9810
-0.1390 -4.1562 -2.4009 0.9810
0.2315 -4.1521 -2.4009 0.9810
0.6002 -4.1150 -2.4009 0.9810
0.9640 -4.0453 -2.4009 0.9810
1.3203 -3.9434 -2.4009 0.9810
1.6660 -3.8102 -2.4009 0.9810
1.9985 -3.6468 -2.4009 0.9810
2.3152 -3.4545 -2.4009 0.9810
2.6135 -3.2347 -2.4009 0.9810
2.8910 -2.9893 -2.4009 0.9810
3.3752 -2.4293 -2.4009 0.9810
1.7194 -0.8213 -1.1001 0.9912
1.8426 -0.3320 -1.0810 0.9914
1.8700 -0.1671 -1.0839 0.9914
