ply
format ascii 1.0
element vertex 1346
property float32 x
property float32 y
property float32 z
property float32 I
end_header
-15.5304 11.7120 -1.8674 0.9248
-18.0983 -6.2844 -1.8393 0.9259
-17.5005 -7.8853 -1.8428 0.9258
-16.0038 10.9860 -1.8636 0.9250
-17.2742 9.7183 -1.9028 0.9234
19.0025 1.6981 -2.2662 0.9260
18.7692 3.3814 -2.2654 0.9261
17.8319 6.6407 -2.2603 0.9262
16.3027 9.6561 -2.2507 0.9265
15.3354 11.0377 -2.2444 0.9267
14.2458 12.3188 -2.2371 0.9269
12.7836 13.2181 -2.1843 0.9286
-10.8690 11.7514 -1.9014 0.9376
-14.4783 9.0172 -2.0261 0.9336
-15.1797 7.6707 -2.0203 0.9338
-16.2258 4.8358 -2.0112 0.9341
-16.5650 3.3670 -2.0079 0.9342
-16.8300 -1.1266 -2.0036 0.9343
-16.6663 -2.6206 -2.0041 0.9343
-16.3778 -4.0964 -2.0054 0.9343
-14.3274 -6.4556 -1.8667 0.9387
-13.7234 -7.7206 -1.8704 0.9385
19.0511 -0.8495 -2.2652 0.9261
19.0590 0.8499 -2.2662 0.9260
16.7374 8.9313 -2.2535 0.9264
13.6586 12.9183 -2.2332 0.9271
10.2701 13.9387 -2.0566 0.9326
-16.0098 5.5592 -2.0131 0.9340
-16.4109 4.1047 -2.0094 0.9341
-16.6879 2.6240 -2.0066 0.9342
-16.8394 1.1273 -2.0048 0.9343
-16.7639 -1.8753 -2.0037 0.9343
-16.5376 -3.3614 -2.0046 0.9343
-16.1872 -4.8243 -2.0064 0.9342
-15.5799 -6.2006 -1.9919 0.9347
-14.0389 -7.0941 -1.8684 0.9386
17.0185 -4.6619 -2.0960 0.9314
17.3953 -3.1339 -2.0996 0.9313
18.7179 -1.6726 -2.2323 0.9271
15.8246 0.0000 -2.2422 0.9381
15.5713 2.8053 -2.2418 0.9381
15.2487 4.1771 -2.2402 0.9381
14.7994 5.5114 -2.2376 0.9382
13.5400 8.0198 -2.2297 0.9384
11.8438 10.2417 -2.2185 0.9387
6.8896 12.5720 -2.0313 0.9437
-7.3186 11.4644 -1.9272 0.9465
-9.1669 9.9111 -1.9129 0.9469
-11.5368 8.7003 -2.0474 0.9433
-13.7236 4.0901 -2.0290 0.9438
-14.0141 2.8485 -2.0262 0.9439
-14.2429 -0.9535 -2.0226 0.9440
-13.5076 -4.6903 -2.0260 0.9439
-13.0406 -5.8758 -2.0266 0.9439
-11.6039 -6.5282 -1.8865 0.9476
-10.9993 -7.5506 -1.8904 0.9475
13.4467 -5.7019 -2.0695 0.9427
14.9401 -3.3850 -2.1705 0.9400
15.8053 -0.7048 -2.2417 0.9381
15.0397 4.8497 -2.2390 0.9382
14.5286 6.1607 -2.2360 0.9382
13.8981 7.4162 -2.2320 0.9383
12.3054 9.7175 -2.2216 0.9386
11.3590 10.7433 -2.2153 0.9388
8.5525 11.6075 -2.0429 0.9434
-6.8142 11.8026 -1.9310 0.9464
-7.8068 11.1054 -1.9234 0.9466
-9.8266 9.7178 -1.9582 0.9457
-11.1544 9.2194 -2.0504 0.9432
-12.5431 7.0566 -2.0392 0.9435
-13.5389 4.7012 -2.0307 0.9437
-14.2496 0.9539 -2.0235 0.9439
-13.9944 -2.8445 -2.0234 0.9439
-13.2934 -5.2907 -2.0272 0.9438
-12.2944 -6.2126 -1.9518 0.9459
13.1642 -6.2880 -2.0671 0.9428
13.7017 -5.1026 -2.0716 0.9426
15.5326 -2.7983 -2.2362 0.9382
13.4559 1.2024 -2.2256 0.9467
13.0181 3.5660 -2.2236 0.9468
12.6367 4.7059 -2.2214 0.9468
12.1514 5.8043 -2.2185 0.9469
11.5672 6.8513 -2.2148 0.9470
10.8898 7.8380 -2.2103 0.9471
10.1256 8.7559 -2.2052 0.9472
9.2820 9.5975 -2.1995 0.9473
8.3670 10.3560 -2.1933 0.9475
7.2203 10.7735 -2.1365 0.9488
2.8161 11.8167 -2.0012 0.9519
-2.5026 11.6460 -1.9623 0.9529
-3.5156 11.3332 -1.9548 0.9530
-5.4290 10.4528 -1.9404 0.9534
-7.4932 9.7093 -2.0204 0.9515
-8.5301 9.2226 -2.0696 0.9503
-11.1006 5.6094 -2.0489 0.9508
-11.5349 4.5908 -2.0452 0.9509
-12.1336 2.4663 -2.0397 0.9510
-12.2944 1.3753 -2.0380 0.9511
-12.3347 -0.8257 -2.0366 0.9511
-12.2141 -1.9206 -2.0369 0.9511
-10.7904 -6.0706 -2.0396 0.9510
-9.5171 -6.5331 -1.9017 0.9543
-8.9162 -7.3694 -1.9056 0.9542
-8.2443 -8.1530 -1.9101 0.9541
10.3966 -6.8012 -2.0467 0.9509
10.9864 -5.8625 -2.0514 0.9508
11.4879 -4.8713 -2.0556 0.9507
12.7718 -4.1184 -2.2107 0.9471
13.4920 -0.6016 -2.2249 0.9467
13.4960 0.6018 -2.2255 0.9467
13.3879 1.8005 -2.2254 0.9467
13.1687 2.9836 -2.2244 0.9467
12.8406 4.1406 -2.2226 0.9468
12.4067 5.2609 -2.2200 0.9468
11.2398 7.3527 -2.2126 0.9470
10.5181 8.3060 -2.2079 0.9471
8.8329 9.9875 -2.1965 0.9474
6.4170 10.5638 -2.0362 0.9511
5.4070 11.0029 -2.0196 0.9515
4.3905 11.3996 -2.0124 0.9517
2.2825 11.9075 -1.9973 0.9520
-1.9852 11.7688 -1.9662 0.9528
-3.0130 11.5006 -1.9585 0.9529
-4.0094 11.1443 -1.9511 0.9531
-4.9669 10.7035 -1.9439 0.9533
-8.1017 9.5827 -2.0672 0.9504
-8.9193 8.8205 -2.0665 0.9504
-9.6422 7.9695 -2.0608 0.9506
-10.8507 6.1045 -2.0510 0.9508
-11.7188 4.0692 -2.0436 0.9510
-12.0183 3.0060 -2.0409 0.9510
-12.3397 0.8260 -2.0374 0.9511
-12.3599 -0.2754 -2.0367 0.9511
-12.2861 -1.3744 -2.0366 0.9511
-11.8592 -3.5344 -2.0386 0.9511
-11.0700 -5.5939 -2.0433 0.9510
-9.2258 -6.9575 -1.9036 0.9542
-8.5889 -7.7682 -1.9078 0.9541
11.2485 -5.3729 -2.0536 0.9507
11.9267 -4.4416 -2.0966 0.9497
12.9953 -3.5598 -2.2197 0.9468
13.4480 -1.2017 -2.2242 0.9467
11.7719 0.0000 -2.2127 0.9532
11.7263 1.0479 -2.2129 0.9532
11.3460 3.1080 -2.2112 0.9532
10.5938 5.0602 -2.2067 0.9533
10.0867 5.9744 -2.2035 0.9534
9.4983 6.8365 -2.1997 0.9535
8.8344 7.6394 -2.1953 0.9536
8.1010 8.3764 -2.1903 0.9537
6.4539 9.6299 -2.1790 0.9539
5.5441 10.1167 -2.1684 0.9541
-0.3515 10.5145 -1.9774 0.9581
-1.2816 10.4054 -1.9706 0.9582
-2.1950 10.2149 -1.9638 0.9584
-3.0851 9.9453 -1.9572 0.9585
-3.9954 9.7222 -1.9757 0.9581
-5.0411 9.7059 -2.0557 0.9565
-5.9730 9.3565 -2.0865 0.9558
-6.7681 8.7696 -2.0822 0.9559
-8.1725 7.3916 -2.0712 0.9561
-8.7775 6.6194 -2.0664 0.9562
-9.3123 5.7997 -2.0621 0.9563
-9.7734 4.9387 -2.0582 0.9564
-10.4637 3.1185 -2.0523 0.9565
-10.6886 2.1726 -2.0501 0.9566
-10.8314 1.2117 -2.0486 0.9566
-10.8912 0.2427 -2.0476 0.9566
-10.8678 -0.7275 -2.0473 0.9566
-9.5270 -5.3598 -2.0546 0.9565
-8.9956 -6.1751 -2.0509 0.9566
-7.8485 -6.4869 -1.9139 0.9594
8.4876 -6.7026 -2.0328 0.9569
9.0712 -5.9341 -2.0375 0.9568
11.1721 -3.6025 -2.2064 0.9533
11.7582 -0.5243 -2.2123 0.9532
11.7612 0.5244 -2.2128 0.9532
11.6671 1.5691 -2.2127 0.9532
11.4768 2.6003 -2.2119 0.9532
11.1920 3.6090 -2.2103 0.9533
10.3507 5.5233 -2.2052 0.9534
9.8023 6.4124 -2.2017 0.9534
8.4760 8.0165 -2.1928 0.9536
7.7105 8.7183 -2.1876 0.9537
3.8613 10.0255 -2.0193 0.9572
2.9270 10.2365 -2.0012 0.9576
1.0585 10.5220 -1.9877 0.9579
0.1174 10.5380 -1.9809 0.9580
-0.8182 10.4703 -1.9740 0.9582
-1.7408 10.3202 -1.9672 0.9583
-2.6434 10.0898 -1.9605 0.9584
-3.5192 9.7818 -1.9540 0.9586
-4.5080 9.7146 -2.0130 0.9573
-6.3798 9.0754 -2.0851 0.9559
-7.8449 7.7579 -2.0738 0.9561
-8.4835 7.0118 -2.0687 0.9562
-9.5523 5.3740 -2.0601 0.9564
-10.8717 0.7278 -2.0480 0.9566
-10.8899 -0.2427 -2.0474 0.9566
-10.4477 -3.1137 -2.0491 0.9566
-10.1378 -4.0347 -2.0509 0.9566
-9.7497 -4.9267 -2.0532 0.9565
-9.2833 -5.7817 -2.0556 0.9565
8.7881 -6.3253 -2.0352 0.9569
10.2617 -4.9016 -2.1375 0.9548
10.9927 -4.0937 -2.2048 0.9534
11.5720 -2.0848 -2.2101 0.9533
10.4211 0.0000 -2.2028 0.9583
10.2548 1.8475 -2.2026 0.9583
9.7527 3.6320 -2.1998 0.9583
9.3811 4.4810 -2.1976 0.9584
8.4141 6.0561 -2.1914 0.9585
7.8277 6.7689 -2.1875 0.9586
4.0969 9.3698 -2.1616 0.9591
2.3385 9.8127 -2.1323 0.9596
1.4222 9.7515 -2.0831 0.9605
0.5420 9.7197 -2.0577 0.9610
-0.3247 9.7124 -2.0542 0.9610
-3.7837 9.2071 -2.1041 0.9601
-4.5751 8.8087 -2.0982 0.9602
-6.0323 7.8162 -2.0870 0.9604
-7.2882 6.5918 -2.0772 0.9606
-8.7218 4.4073 -2.0656 0.9608
-9.0666 3.6084 -2.0627 0.9609
-9.5426 1.9396 -2.0584 0.9610
-9.7247 0.2167 -2.0561 0.9610
-9.7040 -0.6496 -2.0558 0.9610
-9.6088 -1.5109 -2.0561 0.9610
-9.1981 -3.1939 -2.0582 0.9610
-8.8853 -4.0035 -2.0600 0.9609
-8.5035 -4.7840 -2.0624 0.9609
-8.0552 -5.5295 -2.0653 0.9608
-7.5011 -6.1998 -2.0571 0.9610
-6.4717 -6.4000 -1.9240 0.9635
-4.5816 -7.9356 -1.9369 0.9632
6.9485 -6.5719 -2.0217 0.9617
7.5226 -5.9406 -2.0262 0.9616
8.2272 -5.3820 -2.0781 0.9606
9.1326 -4.8733 -2.1881 0.9586
9.8933 -3.1902 -2.1973 0.9584
10.4116 0.4643 -2.2030 0.9583
10.3283 1.3890 -2.2029 0.9583
10.1603 2.3020 -2.2021 0.9583
9.9089 3.1952 -2.2008 0.9583
8.6825 5.6798 -2.1931 0.9585
8.1289 6.4194 -2.1895 0.9585
7.5111 7.1039 -2.1853 0.9586
6.8346 7.7280 -2.1807 0.9587
6.1055 8.2865 -2.1757 0.9588
5.3305 8.7752 -2.1703 0.9589
3.6699 9.5288 -2.1584 0.9591
0.9791 9.7328 -2.0677 0.9608
-0.7588 9.7110 -2.0590 0.9610
-4.1841 9.0165 -2.1011 0.9602
-4.9562 8.5843 -2.0953 0.9603
-6.3666 7.5304 -2.0844 0.9605
-6.9951 6.9176 -2.0795 0.9606
-8.0772 5.5447 -2.0709 0.9607
-8.9029 4.0115 -2.0641 0.9609
-9.2126 3.1990 -2.0614 0.9609
-9.6160 1.5120 -2.0576 0.9610
-9.7237 -0.2167 -2.0559 0.9610
-9.5334 -1.9378 -2.0564 0.9610
-9.3279 -2.7800 -2.0574 0.9610
-9.0505 -3.6020 -2.0590 0.9610
-8.2875 -5.1615 -2.0638 0.9609
-6.8757 -6.2187 -1.9597 0.9628
-6.1864 -6.6887 -1.9259 0.9634
-4.2289 -8.1421 -1.9394 0.9632
5.9885 -7.4120 -2.0142 0.9618
8.8353 -5.2332 -2.1706 0.9589
9.3604 -4.4711 -2.1927 0.9585
9.7353 -3.6255 -2.1959 0.9584
10.0313 -2.7479 -2.1985 0.9584
10.2455 -1.8458 -2.2006 0.9583
10.3759 -0.9272 -2.2020 0.9583
9.3392 0.0000 -2.1949 0.9624
9.3028 0.8313 -2.1951 0.9623
9.1903 1.6557 -2.1947 0.9624
9.0026 2.4661 -2.1938 0.9624
8.4092 4.0168 -2.1903 0.9624
8.0091 4.7438 -2.1877 0.9625
7.5446 5.4303 -2.1847 0.9625
7.0201 6.0706 -2.1812 0.9626
6.4404 6.6593 -2.1773 0.9626
5.1364 7.6640 -2.1683 0.9628
3.6787 8.4134 -2.1581 0.9630
0.5058 9.0715 -2.1353 0.9634
-0.3028 9.0554 -2.1294 0.9635
-1.1045 8.9677 -2.1235 0.9636
-1.8930 8.8095 -2.1177 0.9637
-3.4067 8.2898 -2.1064 0.9638
-4.7984 7.5166 -2.0958 0.9640
-5.4357 7.0432 -2.0910 0.9641
-6.5704 5.9426 -2.0821 0.9643
-7.0601 5.3243 -2.0782 0.9643
-7.4933 4.6669 -2.0747 0.9644
-7.8672 3.9755 -2.0716 0.9644
-8.1793 3.2553 -2.0690 0.9645
-8.4276 2.5117 -2.0668 0.9645
-8.6105 1.7502 -2.0650 0.9645
-8.6712 -1.3635 -2.0630 0.9646
-8.2997 -2.8820 -2.0649 0.9645
-8.0168 -3.6122 -2.0666 0.9645
-7.6714 -4.3159 -2.0687 0.9645
-6.8032 -5.6230 -2.0743 0.9644
-5.3087 -6.2792 -1.9325 0.9668
-4.1286 -7.1509 -1.9406 0.9666
-3.4838 -7.5074 -1.9451 0.9666
-2.8087 -7.8068 -1.9499 0.9665
-2.1080 -8.0463 -1.9549 0.9664
-1.3872 -8.2236 -1.9600 0.9663
0.8417 -8.3664 -1.9762 0.9660
2.3245 -8.1293 -1.9871 0.9659
3.0470 -7.9115 -1.9925 0.9658
7.0791 -5.5903 -2.1200 0.9636
7.7602 -5.0765 -2.1794 0.9626
8.1997 -4.3755 -2.1843 0.9625
9.3306 0.4161 -2.1951 0.9623
9.2561 1.2448 -2.1950 0.9624
9.1058 2.0631 -2.1943 0.9624
8.8811 2.8638 -2.1931 0.9624
8.2174 4.3850 -2.1891 0.9625
7.7846 5.0925 -2.1863 0.9625
7.2896 5.7565 -2.1830 0.9626
6.7369 6.3717 -2.1793 0.9626
5.4787 7.4357 -2.1707 0.9628
4.7844 7.8763 -2.1659 0.9628
2.5148 8.7948 -2.1498 0.9631
1.7174 8.9598 -2.1441 0.9632
0.9107 9.0524 -2.1383 0.9633
0.1011 9.0725 -2.1324 0.9634
-5.7376 6.7865 -2.0886 0.9641
-6.8221 5.6386 -2.0801 0.9643
-7.2839 5.0001 -2.0764 0.9643
-8.0311 3.6186 -2.0702 0.9645
-8.5273 2.1328 -2.0659 0.9645
-8.6770 1.3644 -2.0644 0.9646
-8.7597 0.5864 -2.0633 0.9646
-8.1662 -3.2501 -2.0657 0.9645
-7.8518 -3.9677 -2.0676 0.9645
-7.4761 -4.6561 -2.0700 0.9645
-5.0287 -6.5159 -1.9344 0.9667
-3.8103 -7.3361 -1.9429 0.9666
-2.4612 -7.9342 -1.9524 0.9664
-1.0208 -8.2884 -1.9627 0.9663
-0.2798 -8.3691 -1.9680 0.9662
1.2152 -8.3321 -1.9790 0.9660
2.6880 -8.0286 -1.9898 0.9658
4.0904 -7.4640 -2.0004 0.9656
4.7503 -7.0880 -2.0054 0.9655
5.9593 -6.1619 -2.0147 0.9654
8.7274 -3.2501 -2.1888 0.9625
8.9917 -2.4631 -2.1911 0.9624
9.1828 -1.6544 -2.1929 0.9624
8.4523 -0.0000 -2.1885 0.9657
8.4194 0.7524 -2.1886 0.9657
8.3177 1.4985 -2.1883 0.9657
8.1481 2.2320 -2.1874 0.9657
7.9123 2.9466 -2.1861 0.9657
7.6122 3.6361 -2.1842 0.9657
7.2508 4.2947 -2.1820 0.9658
6.8312 4.9168 -2.1792 0.9658
5.8333 6.0316 -2.1725 0.9659
4.6540 6.9442 -2.1644 0.9660
4.0091 7.3156 -2.1599 0.9661
3.3347 7.6266 -2.1552 0.9662
2.6366 7.8750 -2.1502 0.9663
1.9206 8.0592 -2.1451 0.9663
1.1927 8.1781 -2.1399 0.9664
0.4590 8.2313 -2.1345 0.9665
-0.2748 8.2188 -2.1292 0.9666
-1.7190 7.9997 -2.1185 0.9668
-2.4183 7.7957 -2.1133 0.9668
-3.0951 7.5315 -2.1083 0.9669
-3.7444 7.2093 -2.1034 0.9670
-4.9417 6.4032 -2.0942 0.9671
-5.9757 5.4047 -2.0862 0.9673
-6.4221 4.8431 -2.0826 0.9673
-7.1583 3.6173 -2.0766 0.9674
-7.6699 2.2859 -2.0722 0.9675
-7.8369 1.5929 -2.0706 0.9675
-7.9432 0.8886 -2.0695 0.9675
-7.9880 0.1780 -2.0688 0.9675
-7.9712 -0.5336 -2.0685 0.9675
-7.7535 -1.9393 -2.0694 0.9675
-7.2960 -3.2874 -2.0720 0.9675
-6.6114 -4.5385 -2.0763 0.9674
-5.7182 -5.6548 -2.0822 0.9673
-3.7535 -6.5013 -1.9437 0.9695
-3.1666 -6.8239 -1.9478 0.9694
-2.5524 -7.0945 -1.9521 0.9693
-1.9152 -7.3104 -1.9567 0.9693
-1.2600 -7.4697 -1.9614 0.9692
-0.5916 -7.5708 -1.9662 0.9691
0.0848 -7.6123 -1.9711 0.9690
0.7639 -7.5936 -1.9760 0.9690
1.4404 -7.5143 -1.9810 0.9689
2.1087 -7.3747 -1.9860 0.9688
2.7635 -7.1753 -1.9908 0.9687
3.3993 -6.9174 -1.9956 0.9687
4.0108 -6.6026 -2.0002 0.9686
4.5927 -6.2332 -2.0047 0.9685
5.2073 -5.8880 -2.0352 0.9680
7.4245 -3.9618 -2.1789 0.9658
8.0281 -2.5887 -2.1840 0.9657
8.2337 -1.8655 -2.1859 0.9657
8.4445 0.3766 -2.1886 0.9657
8.2413 1.8673 -2.1879 0.9657
8.0384 2.5921 -2.1868 0.9657
7.4390 3.9696 -2.1832 0.9658
6.1012 5.7705 -2.1744 0.9659
5.5539 6.2799 -2.1706 0.9660
4.9636 6.7367 -2.1666 0.9660
4.3356 7.1373 -2.1622 0.9661
2.2804 7.9752 -2.1477 0.9663
1.5578 8.1268 -2.1425 0.9664
0.8262 8.2129 -2.1372 0.9665
-2.7598 7.6710 -2.1108 0.9669
-3.4235 7.3774 -2.1058 0.9670
-4.0573 7.0274 -2.1010 0.9670
-5.2168 6.1704 -2.0921 0.9672
-6.2051 5.1286 -2.0843 0.9673
-6.9946 3.9351 -2.0780 0.9674
-7.7609 1.9411 -2.0713 0.9675
-7.9397 -0.8882 -2.0686 0.9675
-7.6612 -2.2833 -2.0698 0.9675
-5.9598 -5.3903 -2.0806 0.9673
-4.7915 -6.2085 -2.0305 0.9681
-4.0353 -6.3212 -1.9417 0.9695
-1.5896 -7.3972 -1.9590 0.9692
-0.9271 -7.5276 -1.9638 0.9691
-0.2541 -7.5990 -1.9686 0.9691
1.1028 -7.5615 -1.9785 0.9689
3.0841 -7.0536 -1.9932 0.9687
4.3057 -6.4246 -2.0025 0.9685
4.8710 -6.0289 -2.0068 0.9685
6.3289 -5.4728 -2.1664 0.9660
6.8147 -4.9049 -2.1740 0.9659
8.1392 -2.2296 -2.1850 0.9657
8.3115 -1.4974 -2.1866 0.9657
7.5887 1.3672 -2.1829 0.9685
6.6170 3.9193 -2.1771 0.9685
5.8029 5.0180 -2.1718 0.9686
5.3253 5.5064 -2.1686 0.9687
0.4196 7.5260 -2.1339 0.9692
-0.9172 7.4469 -2.1241 0.9693
-2.2130 7.1339 -2.1145 0.9694
-2.8329 6.8934 -2.1098 0.9695
-4.5257 5.8641 -2.0970 0.9697
-5.4743 4.9512 -2.0896 0.9698
-6.8220 2.7151 -2.0786 0.9699
-7.1839 1.4602 -2.0753 0.9700
-7.3230 0.1632 -2.0736 0.9700
-7.2357 -1.1378 -2.0735 0.9700
-6.3985 -3.5997 -2.0784 0.9699
-6.0591 -4.1593 -2.0805 0.9699
-5.2393 -5.1812 -2.0860 0.9698
-4.7647 -5.6357 -2.0892 0.9698
-4.2417 -6.0339 -2.0880 0.9698
-1.7530 -6.6913 -1.9582 0.9717
-1.1530 -6.8357 -1.9625 0.9716
0.0776 -6.9633 -1.9714 0.9715
1.9277 -6.7416 -1.9850 0.9713
3.6786 -6.0559 -2.0059 0.9710
5.0455 -5.7051 -2.1561 0.9688
5.5552 -5.2540 -2.1646 0.9687
6.4189 -4.1991 -2.1714 0.9686
7.5128 -1.7022 -2.1807 0.9685
7.6389 -1.0273 -2.1820 0.9685
7.7030 -0.3435 -2.1828 0.9685
7.7043 0.3436 -2.1832 0.9684
7.6428 1.0279 -2.1831 0.9684
7.5191 1.7036 -2.1826 0.9685
6.7884 3.6224 -2.1782 0.9685
6.0248 4.7578 -2.1733 0.9686
5.5696 5.2677 -2.1702 0.9686
3.9597 6.5186 -2.1591 0.9688
3.3572 6.8317 -2.1549 0.9689
2.7302 7.0888 -2.1505 0.9689
2.0840 7.2880 -2.1459 0.9690
1.4239 7.4282 -2.1411 0.9690
-1.2466 7.3902 -2.1217 0.9693
-2.5258 7.0204 -2.1121 0.9695
-3.7146 6.4339 -2.1032 0.9696
-4.2640 6.0657 -2.0990 0.9696
-4.7779 5.6514 -2.0950 0.9697
-5.2527 5.1945 -2.0913 0.9698
-6.4099 3.6061 -2.0821 0.9699
-7.3094 0.4893 -2.0739 0.9700
-7.3224 -0.1632 -2.0734 0.9700
-7.2787 -0.8142 -2.0734 0.9700
-7.0231 -2.0931 -2.0746 0.9700
-5.4610 -4.9392 -2.0845 0.9699
-4.5093 -5.8428 -2.0894 0.9698
-3.9580 -6.2001 -2.0824 0.9699
-2.6210 -6.3778 -1.9520 0.9717
-2.0472 -6.5995 -1.9561 0.9717
-0.2324 -6.9519 -1.9691 0.9715
4.7752 -5.9104 -2.1511 0.9689
6.6042 -3.9117 -2.1729 0.9686
6.9348 -3.3125 -2.1757 0.9686
7.2099 -2.6850 -2.1780 0.9685
7.4268 -2.0344 -2.1799 0.9685
7.5836 -1.3662 -2.1814 0.9685
7.6788 -0.6862 -2.1825 0.9685
6.9699 1.2557 -2.1783 0.9708
6.6313 2.4695 -2.1765 0.9708
6.0788 3.6005 -2.1731 0.9709
5.3320 4.6108 -2.1681 0.9709
4.8938 5.0601 -2.1652 0.9710
4.4173 5.4674 -2.1619 0.9710
3.3665 6.1432 -2.1546 0.9711
2.8012 6.4065 -2.1506 0.9712
1.6146 6.7750 -2.1422 0.9713
-1.4480 6.7383 -2.1199 0.9716
-2.0377 6.5690 -2.1155 0.9716
-3.6792 5.7633 -2.1031 0.9718
-4.6266 5.0022 -2.0958 0.9719
-5.0456 4.5635 -2.0925 0.9719
-6.0484 3.0564 -2.0844 0.9720
-6.2903 2.5035 -2.0823 0.9721
-6.4828 1.9321 -2.0806 0.9721
-6.6248 1.3466 -2.0793 0.9721
-6.7152 0.7512 -2.0783 0.9721
-6.7535 0.1505 -2.0777 0.9721
-6.7394 -0.4511 -2.0775 0.9721
-6.6730 -1.0493 -2.0777 0.9721
-6.5549 -1.6395 -2.0782 0.9721
-6.3858 -2.2174 -2.0792 0.9721
-6.1669 -2.7787 -2.0805 0.9721
-5.8999 -3.3192 -2.0821 0.9721
-5.5864 -3.8349 -2.0842 0.9720
-5.2288 -4.3217 -2.0865 0.9720
-4.8296 -4.7761 -2.0892 0.9720
-3.4078 -5.9025 -2.0964 0.9719
-2.2349 -6.2120 -2.0306 0.9728
-1.6302 -6.2225 -1.9785 0.9734
-0.4983 -6.3773 -1.9675 0.9736
0.0714 -6.4098 -1.9716 0.9735
0.6430 -6.3915 -1.9758 0.9735
4.1512 -5.6340 -2.1525 0.9711
5.1057 -4.8290 -2.1615 0.9710
5.8981 -3.8584 -2.1678 0.9709
6.2258 -3.3222 -2.1705 0.9709
6.7294 -2.1700 -2.1748 0.9708
7.0163 -0.9436 -2.1775 0.9708
7.0749 -0.3155 -2.1783 0.9708
7.0196 0.9440 -2.1785 0.9708
5.5356 4.3714 -2.1695 0.9709
4.6601 5.2692 -2.1636 0.9710
4.1660 5.6542 -2.1602 0.9710
3.6401 5.9924 -2.1565 0.9711
3.0867 6.2813 -2.1527 0.9711
1.9167 6.7031 -2.1444 0.9712
-0.5386 6.8929 -2.1266 0.9715
-1.1476 6.8032 -2.1221 0.9715
-1.7449 6.6601 -2.1177 0.9716
-2.3260 6.4651 -2.1133 0.9717
-3.9287 5.5886 -2.1012 0.9718
-4.4028 5.2077 -2.0975 0.9719
-4.8410 4.7874 -2.0941 0.9719
-6.7530 -0.1505 -2.0776 0.9721
-6.4766 -1.9302 -2.0787 0.9721
-6.2825 -2.5004 -2.0798 0.9721
-6.0393 -3.0518 -2.0813 0.9721
-5.4130 -4.0821 -2.0853 0.9720
-5.0342 -4.5532 -2.0878 0.9720
-4.1590 -5.3889 -2.0937 0.9719
-3.6687 -5.7470 -2.0971 0.9719
-3.1407 -6.0468 -2.0958 0.9719
-2.5502 -6.2055 -2.0636 0.9723
-1.3398 -6.2347 -1.9614 0.9737
-0.7811 -6.3421 -1.9654 0.9736
0.9280 -6.3632 -1.9779 0.9734
1.4939 -6.2685 -1.9821 0.9734
3.8881 -5.8015 -2.1481 0.9712
4.4054 -5.4527 -2.1561 0.9711
5.3199 -4.6003 -2.1632 0.9710
5.7165 -4.1145 -2.1664 0.9710
6.0680 -3.5941 -2.1692 0.9709
6.6232 -2.4665 -2.1738 0.9709
6.8220 -1.8687 -2.1756 0.9708
6.9656 -1.2549 -2.1770 0.9708
7.0528 -0.6302 -2.1779 0.9708
6.5162 0.5823 -2.1747 0.9728
6.4377 1.1598 -2.1744 0.9728
6.3071 1.7277 -2.1737 0.9728
4.5222 4.6759 -2.1623 0.9730
4.0824 5.0528 -2.1593 0.9730
3.6110 5.3880 -2.1560 0.9730
1.4932 6.2656 -2.1410 0.9732
0.9278 6.3615 -2.1370 0.9733
0.3572 6.4064 -2.1328 0.9733
-0.2140 6.4003 -2.1287 0.9734
-0.7813 6.3434 -2.1245 0.9734
-1.8863 6.0808 -2.1163 0.9735
-2.4155 5.8778 -2.1124 0.9736
-4.2857 4.6337 -2.0981 0.9737
-5.0254 3.7898 -2.0922 0.9738
-5.3364 3.3235 -2.0897 0.9738
-5.6050 2.8324 -2.0875 0.9739
-6.0084 1.7907 -2.0840 0.9739
-6.1402 1.2481 -2.0828 0.9739
-6.2242 0.6963 -2.0819 0.9739
-6.2599 0.1395 -2.0813 0.9740
-6.0757 -1.5196 -2.0818 0.9739
-5.9188 -2.0552 -2.0827 0.9739
-4.8451 -4.0046 -2.0895 0.9739
-4.4748 -4.4252 -2.0919 0.9738
-4.0685 -4.8122 -2.0947 0.9738
-3.1603 -5.4737 -2.1010 0.9737
-2.6649 -5.7427 -2.1044 0.9737
-2.1434 -5.9576 -2.1046 0.9737
-1.6053 -6.1275 -2.1056 0.9737
-1.0462 -6.2025 -2.0909 0.9738
0.0692 -6.2082 -2.0638 0.9742
1.1858 -6.1861 -2.0937 0.9738
2.3087 -5.9944 -2.1353 0.9733
2.8423 -5.7840 -2.1422 0.9732
5.1043 -4.0308 -2.1620 0.9730
6.2163 -2.0045 -2.1711 0.9728
6.3743 -1.4442 -2.1726 0.9728
6.5347 -0.2914 -2.1743 0.9728
6.5357 0.2914 -2.1746 0.9728
6.0158 2.5509 -2.1720 0.9728
5.7607 3.0740 -2.1705 0.9729
5.1145 4.0389 -2.1663 0.9729
4.3065 4.8694 -2.1608 0.9730
3.8504 5.2258 -2.1577 0.9730
2.8536 5.8069 -2.1507 0.9731
2.3213 6.0273 -2.1469 0.9731
0.6429 6.3903 -2.1349 0.9733
0.0714 6.4097 -2.1308 0.9733
-1.0620 6.2961 -2.1224 0.9734
-1.6151 6.1647 -2.1183 0.9735
-2.6725 5.7591 -2.1104 0.9736
-3.1688 5.4885 -2.1067 0.9736
-3.6385 5.1759 -2.1031 0.9737
-4.4846 4.4349 -2.0965 0.9738
-4.8547 4.0125 -2.0936 0.9738
-5.1860 3.5600 -2.0909 0.9738
-5.4761 3.0808 -2.0886 0.9739
-5.9248 2.0573 -2.0848 0.9739
-6.2481 0.4183 -2.0816 0.9739
-6.2221 -0.6960 -2.0812 0.9740
-6.0031 -1.7891 -2.0822 0.9739
-5.8229 -2.3175 -2.0832 0.9739
-5.5972 -2.8284 -2.0846 0.9739
-5.3276 -3.3181 -2.0863 0.9739
-5.0160 -3.7828 -2.0883 0.9739
-4.6646 -4.2189 -2.0907 0.9738
-3.3983 -5.3233 -2.0993 0.9737
-2.9157 -5.6136 -2.1027 0.9737
-2.4065 -5.8558 -2.1045 0.9737
-1.3313 -6.1953 -2.1064 0.9736
0.3460 -6.2047 -2.0657 0.9741
0.9036 -6.1956 -2.0812 0.9740
3.1026 -5.6615 -2.1460 0.9732
3.6014 -5.3737 -2.1503 0.9731
4.9163 -4.2513 -2.1605 0.9730
5.2822 -3.8019 -2.1634 0.9729
5.6064 -3.3207 -2.1660 0.9729
6.3017 -1.7262 -2.1719 0.9728
6.4341 -1.1591 -2.1731 0.9728
6.0712 0.0000 -2.1711 0.9745
5.4708 2.6132 -2.1681 0.9746
4.9126 3.5359 -2.1645 0.9746
4.1986 4.3413 -2.1597 0.9747
3.3533 5.0034 -2.1539 0.9747
2.8903 5.2741 -2.1507 0.9748
2.4056 5.5017 -2.1473 0.9748
1.3873 5.8213 -2.1400 0.9749
0.8621 5.9112 -2.1363 0.9749
0.3320 5.9538 -2.1324 0.9750
-0.1989 5.9489 -2.1285 0.9750
-0.7263 5.8968 -2.1247 0.9751
-1.2460 5.7983 -2.1208 0.9751
-1.7540 5.6543 -2.1171 0.9752
-2.7194 5.2357 -2.1098 0.9752
-3.9875 4.3112 -2.1001 0.9754
-4.3495 3.9339 -2.0972 0.9754
-5.5929 1.6669 -2.0870 0.9755
-5.7159 1.1618 -2.0858 0.9755
-5.7942 0.6482 -2.0850 0.9755
-5.8154 -0.3893 -2.0843 0.9755
-5.7581 -0.9054 -2.0844 0.9755
-5.6560 -1.4146 -2.0849 0.9755
-4.8184 -3.3077 -2.0900 0.9755
-2.9401 -5.0923 -2.1028 0.9753
-2.4789 -5.3420 -2.1060 0.9753
-1.4975 -5.7157 -2.1130 0.9752
-0.9838 -5.8326 -2.1152 0.9752
-0.4614 -5.9041 -2.1178 0.9752
0.0661 -5.9311 -2.1212 0.9751
0.5948 -5.9130 -2.1252 0.9751
1.1213 -5.8497 -2.1300 0.9750
3.5668 -4.8409 -2.1503 0.9748
4.7391 -3.7424 -2.1594 0.9747
5.0594 -3.3097 -2.1620 0.9746
6.0147 -0.8089 -2.1703 0.9745
6.0655 0.2705 -2.1712 0.9745
4.7478 3.7493 -2.1634 0.9746
4.3904 4.1524 -2.1610 0.9747
3.9985 4.5212 -2.1584 0.9747
2.6504 5.3934 -2.1490 0.9748
2.1563 5.5988 -2.1455 0.9748
1.6467 5.7587 -2.1419 0.9749
1.1256 5.8722 -2.1382 0.9749
0.5974 5.9384 -2.1343 0.9750
0.0664 5.9572 -2.1305 0.9750
-0.9873 5.8533 -2.1227 0.9751
-2.0024 5.5656 -2.1152 0.9752
-2.4855 5.3561 -2.1116 0.9752
-2.9475 5.1052 -2.1081 0.9753
-3.3848 4.8149 -2.1047 0.9753
-4.5176 3.7339 -2.0959 0.9754
-5.0967 2.8673 -2.0912 0.9755
-5.3267 2.4001 -2.0893 0.9755
-5.5149 1.9150 -2.0877 0.9755
-5.8271 -0.1299 -2.0843 0.9755
-5.7924 -0.6480 -2.0843 0.9755
-5.7126 -1.1611 -2.0846 0.9755
-5.5883 -1.6655 -2.0853 0.9755
-4.9588 -3.0884 -2.0891 0.9755
-4.6685 -3.5207 -2.0910 0.9755
-4.3411 -3.9263 -2.0932 0.9754
-1.7491 -5.6385 -2.1112 0.9752
-1.2421 -5.7803 -2.1143 0.9752
-0.7234 -5.8739 -2.1164 0.9752
-0.1980 -5.9233 -2.1194 0.9751
0.3305 -5.9277 -2.1231 0.9751
1.3825 -5.8010 -2.1326 0.9750
1.8979 -5.6686 -2.1377 0.9749
3.7818 -4.6808 -2.1520 0.9748
4.1896 -4.3320 -2.1551 0.9747
4.9041 -3.5297 -2.1608 0.9747
5.2046 -3.0827 -2.1632 0.9746
5.6791 -2.1149 -2.1671 0.9746
5.9715 -1.0758 -2.1698 0.9746
6.0458 -0.5402 -2.1706 0.9745
5.6576 0.0000 -2.1681 0.9761
5.6354 0.5036 -2.1682 0.9761
4.8581 2.8775 -2.1638 0.9761
3.5339 4.3740 -2.1549 0.9762
2.2434 5.1307 -2.1459 0.9763
1.2940 5.4300 -2.1391 0.9764
-0.6778 5.5031 -2.1248 0.9765
-1.1629 5.4118 -2.1212 0.9766
-1.6373 5.2780 -2.1177 0.9766
-2.5390 4.8884 -2.1109 0.9767
-2.9595 4.6360 -2.1077 0.9767
-4.3685 3.2944 -2.0968 0.9768
-4.6395 2.8895 -2.0946 0.9769
-4.8738 2.4628 -2.0926 0.9769
-5.2256 1.5574 -2.0896 0.9769
-5.3408 1.0856 -2.0885 0.9769
-5.3805 -0.8460 -2.0872 0.9769
-5.2849 -1.3219 -2.0877 0.9769
-4.9711 -2.2399 -2.0895 0.9769
-4.7551 -2.6752 -2.0908 0.9769
-3.8899 -3.8468 -2.0965 0.9768
-3.1538 -4.4863 -2.1015 0.9768
-1.8644 -5.1823 -2.1106 0.9767
-1.3980 -5.3360 -2.1139 0.9766
-0.4311 -5.5174 -2.1208 0.9766
2.0059 -5.2081 -2.1388 0.9764
2.9067 -4.7851 -2.1455 0.9763
3.3260 -4.5141 -2.1487 0.9763
3.7198 -4.2061 -2.1518 0.9762
5.1978 -2.2041 -2.1636 0.9761
5.5134 -1.2492 -2.1664 0.9761
5.6051 -0.7538 -2.1673 0.9761
5.6522 0.2520 -2.1682 0.9761
5.6072 0.7541 -2.1681 0.9761
5.3819 1.7354 -2.1670 0.9761
5.2035 2.2065 -2.1659 0.9761
4.7232 3.0898 -2.1629 0.9761
4.4255 3.4947 -2.1610 0.9761
3.3334 4.5242 -2.1535 0.9762
2.4715 5.0294 -2.1475 0.9763
-0.4323 5.5325 -2.1266 0.9765
-1.4017 5.3501 -2.1195 0.9766
-3.5435 4.1912 -2.1032 0.9768
-4.2198 3.4877 -2.0980 0.9768
-4.5085 3.0949 -2.0956 0.9768
-5.4350 0.3638 -2.0875 0.9769
-5.3379 -1.0850 -2.0874 0.9769
-5.2216 -1.5562 -2.0880 0.9769
-4.8679 -2.4598 -2.0901 0.9769
-4.0553 -3.6678 -2.0954 0.9768
-2.5329 -4.8766 -2.1059 0.9767
-2.0918 -5.0902 -2.1090 0.9767
-1.6330 -5.2643 -2.1122 0.9767
-0.1851 -5.5358 -2.1226 0.9766
1.2906 -5.4155 -2.1334 0.9764
2.2377 -5.1177 -2.1405 0.9764
3.5263 -4.3646 -2.1503 0.9763
3.9061 -4.0389 -2.1532 0.9762
4.2555 -3.6799 -2.1559 0.9762
4.5715 -3.2903 -2.1585 0.9762
4.8512 -2.8734 -2.1607 0.9761
5.0924 -2.4324 -2.1627 0.9761
5.6340 -0.5034 -2.1677 0.9761
5.2701 0.4709 -2.1655 0.9774
4.9548 1.8452 -2.1639 0.9774
4.5438 2.6913 -2.1614 0.9774
4.2829 3.0826 -2.1597 0.9775
3.9879 3.4484 -2.1577 0.9775
3.6614 3.7858 -2.1555 0.9775
2.9252 4.3648 -2.1505 0.9775
2.5218 4.6018 -2.1477 0.9776
2.0993 4.8013 -2.1447 0.9776
1.2112 5.0824 -2.1384 0.9777
0.2900 5.2004 -2.1317 0.9777
-1.0891 5.0681 -2.1216 0.9778
-2.7727 4.3433 -2.1089 0.9780
-3.1440 4.0738 -2.1061 0.9780
-3.8071 3.4433 -2.1009 0.9781
-4.0941 3.0875 -2.0987 0.9781
-4.3483 2.7082 -2.0966 0.9781
-4.8984 1.4599 -2.0919 0.9782
-4.6598 -2.0996 -2.0918 0.9782
-4.4572 -2.5075 -2.0931 0.9781
-4.2194 -2.8964 -2.0946 0.9781
-3.9482 -3.2632 -2.0964 0.9781
-3.6456 -3.6052 -2.0984 0.9781
-3.3138 -3.9196 -2.1007 0.9781
-2.5726 -4.4558 -2.1058 0.9780
-1.3095 -4.9983 -2.1147 0.9779
-0.8607 -5.1027 -2.1179 0.9779
-0.4038 -5.1671 -2.1212 0.9778
0.5204 -5.1732 -2.1279 0.9778
1.8775 -4.8748 -2.1380 0.9777
2.7201 -4.4779 -2.1443 0.9776
3.1122 -4.2239 -2.1473 0.9776
3.4804 -3.9354 -2.1502 0.9775
4.6551 -2.4840 -2.1595 0.9775
4.8616 -2.0615 -2.1612 0.9774
5.0291 -1.6217 -2.1627 0.9774
5.1563 -1.1683 -2.1638 0.9774
5.2419 -0.7050 -2.1647 0.9774
5.2852 -0.2357 -2.1653 0.9774
5.1593 1.1689 -2.1651 0.9774
5.0332 1.6230 -2.1644 0.9774
4.6608 2.4871 -2.1621 0.9774
4.1395 3.2689 -2.1587 0.9775
3.8284 3.6209 -2.1567 0.9775
3.4872 3.9430 -2.1544 0.9775
3.1187 4.2328 -2.1518 0.9775
2.7261 4.4879 -2.1491 0.9776
2.3128 4.7063 -2.1462 0.9776
1.4375 5.0272 -2.1400 0.9777
0.9828 5.1274 -2.1367 0.9777
0.0580 5.2041 -2.1300 0.9778
-1.3127 5.0106 -2.1199 0.9779
-1.7508 4.8664 -2.1167 0.9779
-2.5783 4.4657 -2.1104 0.9780
-3.3202 3.9272 -2.1047 0.9780
-3.6521 3.6116 -2.1022 0.9780
-3.9545 3.2685 -2.0998 0.9781
-4.8299 1.6771 -2.0926 0.9781
-2.1308 0.5329 -0.8989 0.9906
-2.1345 0.3356 -0.8843 0.9907
-2.1302 0.1426 -0.8738 0.9908
-2.1285 -0.0474 -0.8714 0.9908
-2.1365 -0.4343 -0.8923 0.9906
-4.5630 -2.3058 -2.0924 0.9781
-4.3426 -2.7046 -2.0938 0.9781
-4.0878 -3.0828 -2.0955 0.9781
-3.4832 -3.7660 -2.0995 0.9781
-3.1377 -4.0656 -2.1019 0.9780
-2.3731 -4.5690 -2.1072 0.9780
-1.5297 -4.9313 -2.1131 0.9779
-1.0864 -5.0554 -2.1163 0.9779
-0.6331 -5.1400 -2.1196 0.9779
1.6572 -4.9498 -2.1363 0.9777
2.9190 -4.3554 -2.1459 0.9776
3.2995 -4.0838 -2.1488 0.9776
3.6546 -3.7788 -2.1515 0.9775
3.9811 -3.4426 -2.1541 0.9775
4.2764 -3.0779 -2.1564 0.9775
4.9503 -1.8435 -2.1620 0.9774
5.2044 -0.9376 -2.1643 0.9774
5.2689 -0.4708 -2.1650 0.9774
4.9632 0.0000 -2.1630 0.9786
4.9437 0.4418 -2.1631 0.9786
4.8843 0.8800 -2.1629 0.9786
4.4734 2.1368 -2.1606 0.9786
4.0183 2.8922 -2.1577 0.9786
3.7417 3.2356 -2.1558 0.9786
3.1025 3.8400 -2.1515 0.9787
2.7452 4.0962 -2.1490 0.9787
-0.5960 4.8395 -2.1251 0.9789
-1.0229 4.7602 -2.1219 0.9790
-2.2346 4.3023 -2.1128 0.9791
-2.6052 4.0809 -2.1100 0.9791
-2.9543 3.8280 -2.1074 0.9791
-3.2793 3.5456 -2.1048 0.9791
-4.0871 2.5455 -2.0984 0.9792
-4.2939 2.1698 -2.0967 0.9792
-4.4669 1.7778 -2.0953 0.9792
-1.9300 0.3923 -0.8583 0.9914
-1.9433 0.2174 -0.8522 0.9915
-1.9479 -0.1304 -0.8508 0.9915
-1.9397 -0.3050 -0.8557 0.9915
-1.8290 -0.6351 -0.8438 0.9916
-3.7110 -3.0672 -2.0982 0.9792
-3.1143 -3.6836 -2.1022 0.9792
-2.7771 -3.9505 -2.1046 0.9791
-2.4174 -4.1870 -2.1071 0.9791
-1.6409 -4.5611 -2.1125 0.9791
0.0543 -4.8749 -2.1247 0.9790
0.4887 -4.8580 -2.1279 0.9789
0.9205 -4.8024 -2.1311 0.9789
1.7626 -4.5765 -2.1373 0.9788
3.2663 -3.6932 -2.1487 0.9787
3.8780 -3.0624 -2.1535 0.9787
4.1392 -2.7077 -2.1556 0.9786
4.3675 -2.3306 -2.1575 0.9786
4.9584 0.2211 -2.1631 0.9786
4.9190 0.6615 -2.1631 0.9786
4.7216 1.5225 -2.1621 0.9786
4.5654 1.9359 -2.1612 0.9786
4.3725 2.3332 -2.1600 0.9786
4.1447 2.7113 -2.1585 0.9786
3.8838 3.0670 -2.1568 0.9786
3.2722 3.7000 -2.1527 0.9787
2.5585 4.2119 -2.1477 0.9787
0.4899 4.8697 -2.1330 0.9789
0.0544 4.8867 -2.1298 0.9789
-0.3801 4.8649 -2.1267 0.9789
-1.2330 4.7064 -2.1204 0.9790
-1.6446 4.5714 -2.1173 0.9790
-2.4224 4.1957 -2.1114 0.9791
-3.4321 3.3941 -2.1036 0.9792
-3.9714 2.7262 -2.0994 0.9792
-4.1946 2.3599 -2.0975 0.9792
-4.3847 1.9756 -2.0960 0.9792
-1.8290 0.6351 -0.8438 0.9916
-1.9479 0.1304 -0.8508 0.9915
-1.9300 -0.3923 -0.8583 0.9914
-4.2893 -2.1675 -2.0945 0.9792
-4.0819 -2.5422 -2.0958 0.9792
-3.8423 -2.8976 -2.0974 0.9792
-3.5722 -3.2309 -2.0991 0.9792
-1.4371 -4.6328 -2.1140 0.9791
-1.0205 -4.7490 -2.1169 0.9790
0.2716 -4.8713 -2.1263 0.9789
1.1344 -4.7601 -2.1326 0.9789
1.9661 -4.4966 -2.1388 0.9788
2.3618 -4.3098 -2.1418 0.9788
2.7397 -4.0879 -2.1447 0.9788
3.0966 -3.8327 -2.1474 0.9787
3.4296 -3.5462 -2.1500 0.9787
4.0125 -2.8880 -2.1546 0.9787
4.6442 -1.7295 -2.1598 0.9786
4.7824 -1.3100 -2.1610 0.9786
4.9426 -0.4417 -2.1627 0.9786
4.6683 0.0000 -2.1609 0.9796
4.6500 0.4155 -2.1610 0.9796
4.5941 0.8277 -2.1608 0.9796
4.5012 1.2330 -2.1603 0.9796
4.3722 1.6282 -2.1596 0.9796
4.2079 2.0099 -2.1586 0.9797
4.0100 2.3751 -2.1573 0.9797
3.5201 3.0440 -2.1541 0.9797
2.5831 3.8543 -2.1477 0.9798
2.2272 4.0642 -2.1452 0.9798
1.0703 4.4910 -2.1370 0.9799
0.6654 4.5622 -2.1341 0.9799
0.2563 4.5969 -2.1312 0.9799
-0.1536 4.5950 -2.1282 0.9799
-0.5612 4.5567 -2.1252 0.9800
-2.1047 4.0523 -2.1137 0.9801
-2.4539 3.8441 -2.1110 0.9801
-4.0462 2.0446 -2.0985 0.9802
-1.5257 0.6072 -0.7601 0.9928
-1.6373 0.3328 -0.7734 0.9927
-1.6716 0.0372 -0.7739 0.9927
-1.6738 -0.1120 -0.7765 0.9926
-1.6521 -0.2598 -0.7741 0.9927
-1.6165 -0.4043 -0.7713 0.9927
-1.5621 -0.5424 -0.7654 0.9927
-3.9482 -2.2212 -2.0969 0.9802
-3.4967 -2.8901 -2.0999 0.9802
-3.2284 -3.1926 -2.1017 0.9802
-2.6164 -3.7218 -2.1059 0.9801
-1.9194 -4.1363 -2.1107 0.9801
-0.7614 -4.5139 -2.1190 0.9800
0.0511 -4.5901 -2.1248 0.9800
1.6590 -4.3076 -2.1367 0.9799
2.0386 -4.1484 -2.1395 0.9798
2.7487 -3.7306 -2.1449 0.9798
3.0734 -3.4752 -2.1474 0.9798
3.3742 -3.1913 -2.1498 0.9797
3.6485 -2.8812 -2.1519 0.9797
3.8940 -2.5473 -2.1539 0.9797
4.5500 -1.0309 -2.1595 0.9796
4.6253 -0.6220 -2.1602 0.9796
4.6634 -0.2080 -2.1607 0.9796
4.6267 0.6222 -2.1609 0.9796
4.5523 1.0314 -2.1606 0.9796
4.2944 1.8210 -2.1591 0.9797
4.1131 2.1948 -2.1580 0.9797
3.8989 2.5506 -2.1566 0.9797
3.3795 3.1963 -2.1532 0.9797
2.7538 3.7375 -2.1489 0.9797
1.2701 4.4418 -2.1385 0.9798
0.8685 4.5311 -2.1356 0.9799
0.4612 4.5841 -2.1326 0.9799
-0.3579 4.5804 -2.1267 0.9800
-0.7631 4.5240 -2.1237 0.9800
-1.1611 4.4320 -2.1207 0.9800
-1.5489 4.3052 -2.1178 0.9800
-1.9233 4.1447 -2.1150 0.9801
-2.6212 3.7287 -2.1097 0.9801
-2.9392 3.4765 -2.1073 0.9801
-3.2335 3.1976 -2.1050 0.9802
-3.7420 2.5687 -2.1010 0.9802
-3.9525 2.2237 -2.0992 0.9802
-1.5621 0.5424 -0.7654 0.9927
-1.6738 0.1120 -0.7765 0.9926
-1.5924 -0.4746 -0.7692 0.9927
-1.5257 -0.6072 -0.7601 0.9928
-4.0421 -2.0426 -2.0963 0.9802
-3.8465 -2.3956 -2.0976 0.9802
-3.6206 -2.7304 -2.0991 0.9802
-3.3659 -3.0443 -2.1007 0.9802
-3.0844 -3.3348 -2.1026 0.9802
-2.4493 -3.8368 -2.1070 0.9801
-2.1005 -4.0442 -2.1094 0.9801
-1.3536 -4.3634 -2.1147 0.9801
-0.9611 -4.4725 -2.1175 0.9800
-0.5600 -4.5465 -2.1204 0.9800
-0.1533 -4.5847 -2.1233 0.9800
0.2557 -4.5865 -2.1263 0.9800
2.2228 -4.0561 -2.1409 0.9798
2.9139 -3.6066 -2.1462 0.9798
3.5148 -3.0394 -2.1509 0.9797
4.0053 -2.3724 -2.1548 0.9797
4.3686 -1.6269 -2.1579 0.9797
4.5922 -0.8273 -2.1599 0.9796
4.4013 0.0000 -2.1589 0.9806
4.3840 0.3918 -2.1590 0.9806
4.3314 0.7803 -2.1588 0.9806
3.3194 2.8704 -2.1526 0.9806
3.0481 3.1517 -2.1507 0.9807
0.6278 4.3043 -2.1337 0.9808
-0.5296 4.3002 -2.1253 0.9809
-1.6405 3.9919 -2.1170 0.9810
-2.3167 3.6290 -2.1119 0.9810
-2.9170 3.1538 -2.1073 0.9810
-3.1830 2.8788 -2.1052 0.9811
-3.6367 2.2649 -2.1016 0.9811
-1.3059 0.5197 -0.6895 0.9938
-1.3419 0.1501 -0.6624 0.9940
-1.3536 0.0302 -0.6641 0.9940
-1.3513 -0.0905 -0.6643 0.9940
-1.3257 -0.2085 -0.6583 0.9940
-1.2865 -0.5797 -0.6922 0.9937
-3.0485 -3.0147 -2.1031 0.9811
-2.7706 -3.2770 -2.1050 0.9811
-2.4703 -3.5140 -2.1070 0.9810
-2.1500 -3.7239 -2.1093 0.9810
-1.4590 -4.0554 -2.1141 0.9810
-1.0936 -4.1743 -2.1167 0.9810
-0.7187 -4.2605 -2.1194 0.9809
-0.3370 -4.3132 -2.1222 0.9809
0.4342 -4.3160 -2.1278 0.9809
1.5652 -4.0638 -2.1361 0.9808
1.9231 -3.9133 -2.1388 0.9808
2.2665 -3.7312 -2.1414 0.9807
2.5926 -3.5187 -2.1439 0.9807
3.1822 -3.0097 -2.1485 0.9807
3.4407 -2.7171 -2.1505 0.9807
3.6720 -2.4021 -2.1524 0.9806
3.8742 -2.0673 -2.1540 0.9806
4.1845 -1.3493 -2.1567 0.9806
4.2899 -0.9720 -2.1576 0.9806
4.3967 -0.1961 -2.1588 0.9806
4.2919 0.9724 -2.1587 0.9806
3.8781 2.0694 -2.1562 0.9806
3.4453 2.7207 -2.1534 0.9806
3.1869 3.0141 -2.1517 0.9806
2.5971 3.5248 -2.1476 0.9807
1.9268 3.9209 -2.1430 0.9807
-0.3378 4.3224 -2.1267 0.9809
-0.7202 4.2695 -2.1239 0.9809
-1.8155 3.9124 -2.1157 0.9810
-3.0530 3.0192 -2.1062 0.9811
-3.7326 2.0999 -2.1008 0.9811
-1.2865 0.5797 -0.6922 0.9937
-1.3513 0.0905 -0.6643 0.9940
-1.3536 -0.0302 -0.6641 0.9940
-1.3419 -0.1501 -0.6624 0.9940
-1.3047 -0.2652 -0.6531 0.9941
-1.3200 -0.3934 -0.6756 0.9939
-1.3059 -0.5197 -0.6895 0.9938
-3.1784 -2.8747 -2.1022 0.9811
-2.6231 -3.3988 -2.1060 0.9811
-2.3125 -3.6225 -2.1081 0.9810
-1.9831 -3.8181 -2.1104 0.9810
-1.2777 -4.1189 -2.1154 0.9810
-0.9072 -4.2216 -2.1180 0.9809
-0.5285 -4.2911 -2.1208 0.9809
0.2413 -4.3281 -2.1264 0.9809
1.3817 -4.1269 -2.1348 0.9808
2.4319 -3.6286 -2.1427 0.9807
2.7483 -3.4016 -2.1451 0.9807
3.0434 -3.1469 -2.1474 0.9807
3.3147 -2.8663 -2.1495 0.9807
3.5598 -2.5622 -2.1515 0.9806
3.7768 -2.2370 -2.1532 0.9806
4.2414 -1.1618 -2.1572 0.9806
4.3297 -0.7800 -2.1580 0.9806
4.1582 0.0000 -2.1572 0.9814
4.1418 0.3701 -2.1572 0.9814
4.0921 0.7372 -2.1571 0.9814
3.8946 1.4504 -2.1560 0.9814
3.7485 1.7905 -2.1551 0.9815
3.3679 2.4241 -2.1527 0.9815
3.1365 2.7122 -2.1511 0.9815
2.8803 2.9783 -2.1494 0.9815
2.6015 3.2200 -2.1475 0.9815
1.9854 3.6230 -2.1432 0.9816
0.9545 4.0051 -2.1359 0.9816
-2.4855 3.2205 -2.1104 0.9818
-3.0113 2.7235 -2.1064 0.9819
-3.2389 2.4426 -2.1046 0.9819
-3.4408 2.1430 -2.1029 0.9819
-1.0665 0.5389 -0.6199 0.9946
-1.1070 0.4406 -0.6181 0.9946
-1.1332 0.2304 -0.5999 0.9948
-1.1649 0.1303 -0.6081 0.9947
-1.1785 0.0263 -0.6115 0.9947
-1.1198 -0.3888 -0.6150 0.9947
-3.3394 -2.2924 -2.1013 0.9819
-2.8842 -2.8523 -2.1044 0.9819
-2.6211 -3.1003 -2.1061 0.9819
-1.3800 -3.8358 -2.1148 0.9818
-0.6796 -4.0292 -2.1198 0.9818
-0.3187 -4.0787 -2.1224 0.9817
0.7731 -4.0331 -2.1304 0.9817
1.4796 -3.8416 -2.1356 0.9816
2.1422 -3.5266 -2.1406 0.9816
3.0072 -2.8442 -2.1473 0.9815
3.4697 -2.2698 -2.1510 0.9815
3.6606 -1.9534 -2.1525 0.9815
3.8224 -1.6208 -2.1539 0.9815
3.9535 -1.2749 -2.1550 0.9815
4.1200 -0.5541 -2.1566 0.9814
4.1538 -0.1852 -2.1570 0.9814
4.1542 0.1852 -2.1572 0.9814
4.0549 0.9187 -2.1569 0.9814
3.9560 1.2756 -2.1564 0.9814
3.8254 1.6221 -2.1556 0.9815
3.4736 2.2723 -2.1534 0.9815
3.2554 2.5708 -2.1519 0.9815
3.0114 2.8482 -2.1503 0.9815
1.1326 3.9609 -2.1372 0.9816
0.7746 4.0412 -2.1346 0.9816
0.4114 4.0890 -2.1320 0.9817
-0.6810 4.0373 -2.1240 0.9817
-1.3826 3.8431 -2.1188 0.9818
-2.6251 3.1050 -2.1094 0.9818
-2.8883 2.8563 -2.1073 0.9819
-3.1282 2.5856 -2.1054 0.9819
-3.3432 2.2950 -2.1037 0.9819
-3.5316 1.9869 -2.1022 0.9819
-1.0898 0.4910 -0.6201 0.9946
-1.1275 0.2820 -0.6029 0.9948
-1.1739 0.0786 -0.6103 0.9947
-1.1266 -0.3358 -0.6099 0.9947
-1.1070 -0.4406 -0.6181 0.9946
-3.2350 -2.4397 -2.1020 0.9819
-3.0072 -2.7199 -2.1035 0.9819
-2.4815 -3.2154 -2.1071 0.9819
-1.5486 -3.7684 -2.1136 0.9818
-0.4998 -4.0580 -2.1211 0.9817
-0.1368 -4.0914 -2.1237 0.9817
0.2282 -4.0925 -2.1264 0.9817
0.5923 -4.0610 -2.1291 0.9817
0.9526 -3.9971 -2.1317 0.9817
1.3062 -3.9013 -2.1343 0.9816
1.6502 -3.7741 -2.1369 0.9816
2.2985 -3.4296 -2.1418 0.9816
2.8761 -2.9739 -2.1463 0.9815
3.1323 -2.7086 -2.1483 0.9815
3.3638 -2.4211 -2.1501 0.9815
3.5687 -2.1138 -2.1518 0.9815
3.7452 -1.7889 -2.1532 0.9815
3.8918 -1.4493 -2.1545 0.9815
4.0073 -1.0977 -2.1555 0.9815
4.1411 -0.3700 -2.1569 0.9814
1.9714 0.7342 -1.1522 0.9905
3.5481 1.6948 -2.1536 0.9822
3.3815 2.0029 -2.1526 0.9822
2.9691 2.5675 -2.1499 0.9823
2.7267 2.8194 -2.1482 0.9823
1.8798 3.4302 -2.1424 0.9823
0.5620 3.8537 -2.1330 0.9824
-0.1298 3.8831 -2.1280 0.9824
-0.8143 3.7895 -2.1229 0.9825
-1.1470 3.6977 -2.1205 0.9825
-1.4699 3.5769 -2.1180 0.9825
-1.7805 3.4280 -2.1157 0.9825
-2.3552 3.0517 -2.1113 0.9826
-2.8537 2.5810 -2.1074 0.9826
-3.0696 2.3149 -2.1057 0.9826
-0.9364 0.4732 -0.5746 0.9952
-0.9825 0.2928 -0.5615 0.9953
-1.0415 0.0232 -0.5706 0.9953
-0.9472 -0.4268 -0.5690 0.9953
-0.9240 -0.5198 -0.5806 0.9952
-3.1651 -2.1727 -2.1027 0.9826
-1.9272 -3.3380 -2.1111 0.9826
-1.3075 -3.6343 -2.1154 0.9825
-0.3019 -3.8638 -2.1226 0.9825
0.3888 -3.8652 -2.1277 0.9824
1.0705 -3.7439 -2.1327 0.9824
1.4011 -3.6379 -2.1352 0.9824
1.7213 -3.5027 -2.1376 0.9824
2.3200 -3.1487 -2.1421 0.9823
2.0226 -0.2720 -1.1178 0.9907
2.0434 -0.0911 -1.1203 0.9907
1.9895 0.6415 -1.1449 0.9905
1.9407 0.8229 -1.1546 0.9904
3.4683 1.8507 -2.1531 0.9822
3.0816 2.4335 -2.1506 0.9823
2.5973 2.9369 -2.1473 0.9823
2.0318 3.3447 -2.1434 0.9823
1.4036 3.6445 -2.1390 0.9823
1.0725 3.7508 -2.1367 0.9824
0.7336 3.8270 -2.1342 0.9824
0.3896 3.8726 -2.1317 0.9824
-0.3025 3.8711 -2.1267 0.9824
-0.9818 3.7473 -2.1217 0.9825
-1.3099 3.6409 -2.1192 0.9825
-1.6269 3.5059 -2.1169 0.9825
-1.9304 3.3435 -2.1146 0.9825
-2.7371 2.7067 -2.1083 0.9826
-2.9646 2.4503 -2.1066 0.9826
-0.9240 0.5198 -0.5806 0.9952
-0.9472 0.4268 -0.5690 0.9953
-0.9756 0.3388 -0.5656 0.9953
-0.9847 0.2463 -0.5559 0.9954
-1.0166 0.1599 -0.5637 0.9953
-1.0376 0.0695 -0.5696 0.9953
-0.9364 -0.4732 -0.5746 0.9952
-3.2578 -2.0290 -2.1021 0.9826
-3.0661 -2.3123 -2.1033 0.9826
-2.6113 -2.8233 -2.1064 0.9826
-2.3516 -3.0471 -2.1081 0.9826
-2.0730 -3.2473 -2.1101 0.9826
-1.7775 -3.4223 -2.1121 0.9826
-1.4673 -3.5706 -2.1143 0.9825
-1.1450 -3.6910 -2.1166 0.9825
-0.4735 -3.8442 -2.1214 0.9825
0.5610 -3.8463 -2.1289 0.9824
0.9022 -3.7856 -2.1315 0.9824
1.2370 -3.6946 -2.1339 0.9824
1.5627 -3.5739 -2.1364 0.9824
2.4592 -3.0438 -2.1432 0.9823
2.9653 -2.5642 -2.1471 0.9823
3.1844 -2.2920 -2.1489 0.9823
3.3782 -2.0009 -2.1504 0.9823
3.5451 -1.6934 -2.1518 0.9822
1.9714 -0.7342 -1.1522 0.9905
1.8754 0.0000 -1.0828 0.9914
1.8267 0.5004 -1.0935 0.9913
1.7869 0.6654 -1.1009 0.9912
1.7194 0.8213 -1.1001 0.9912
2.3353 2.8904 -2.1454 0.9830
1.7826 3.2529 -2.1416 0.9830
1.4846 3.3953 -2.1395 0.9830
0.5331 3.6552 -2.1327 0.9831
-1.6895 3.2529 -2.1163 0.9832
-1.9703 3.0865 -2.1141 0.9832
-2.4817 2.6832 -2.1102 0.9833
-2.9135 2.1971 -2.1068 0.9833
-0.8491 0.5288 -0.5776 0.9954
-0.8760 0.4427 -0.5667 0.9955
-0.8932 0.3555 -0.5550 0.9956
-0.9120 0.1854 -0.5373 0.9957
-0.9237 0.1033 -0.5366 0.9957
-0.9306 0.0207 -0.5374 0.9957
-0.9274 -0.0621 -0.5366 0.9957
-0.8984 -0.3119 -0.5490 0.9956
-0.8858 -0.3991 -0.5609 0.9955
-3.0043 -2.0623 -2.1039 0.9833
-2.8105 -2.3230 -2.1052 0.9833
-2.1018 -2.9898 -2.1100 0.9833
-1.5412 -3.3212 -2.1139 0.9832
-1.2407 -3.4486 -2.1160 0.9832
-0.2864 -3.6657 -2.1229 0.9832
0.3689 -3.6667 -2.1276 0.9831
0.6945 -3.6234 -2.1300 0.9831
1.0154 -3.5511 -2.1324 0.9831
1.3289 -3.4504 -2.1347 0.9831
1.6325 -3.3220 -2.1370 0.9830
1.9237 -3.1668 -2.1392 0.9830
2.9183 -2.3046 -2.1469 0.9830
3.1142 -2.0372 -2.1485 0.9830
1.6861 -0.8997 -1.1034 0.9912
1.8108 -0.5839 -1.0985 0.9913
1.8755 -0.0836 -1.0839 0.9914
1.6860 0.8997 -1.1034 0.9912
2.7029 2.5564 -2.1479 0.9830
1.6352 3.3275 -2.1405 0.9830
0.6958 3.6299 -2.1338 0.9831
0.3695 3.6733 -2.1315 0.9831
0.0411 3.6875 -2.1291 0.9831
-0.2870 3.6724 -2.1267 0.9831
-0.9315 3.5553 -2.1219 0.9832
-1.5437 3.3267 -2.1174 0.9832
-1.8318 3.1728 -2.1152 0.9832
-2.1049 2.9942 -2.1131 0.9832
-2.3608 2.7924 -2.1111 0.9833
-2.8138 2.3256 -2.1076 0.9833
-3.0074 2.0644 -2.1060 0.9833
-0.8858 0.3991 -0.5609 0.9955
-0.9030 0.2259 -0.5374 0.9957
-0.9189 0.1445 -0.5370 0.9957
-0.9306 -0.0207 -0.5374 0.9957
-0.9237 -0.1033 -0.5366 0.9957
-0.9120 -0.1854 -0.5373 0.9957
-0.8932 -0.3555 -0.5550 0.9956
-0.8760 -0.4426 -0.5667 0.9955
-0.8491 -0.5288 -0.5776 0.9954
-2.7052 -2.4467 -2.1059 0.9833
-2.2319 -2.8919 -2.1091 0.9833
-1.9674 -3.0818 -2.1109 0.9833
-1.6868 -3.2477 -2.1129 0.9832
-1.3924 -3.3882 -2.1149 0.9832
-0.7712 -3.5889 -2.1194 0.9832
-0.4492 -3.6473 -2.1217 0.9832
-0.1229 -3.6769 -2.1240 0.9832
0.8557 -3.5908 -2.1312 0.9831
1.1732 -3.5043 -2.1336 0.9831
1.4821 -3.3896 -2.1359 0.9831
2.0638 -3.0795 -2.1403 0.9830
2.5819 -2.6697 -2.1443 0.9830
2.8117 -2.4314 -2.1461 0.9830
3.0192 -2.1731 -2.1477 0.9830
1.7869 -0.6654 -1.1009 0.9912
