ply
format ascii 1.0
element vertex 853
property float32 x
property float32 y
property float32 z
property float32 I
end_header
13.2817 13.7332 -4.0384 0.9249
-15.2537 11.5034 -4.0384 0.9249
-16.2170 10.1000 -4.0384 0.9249
-17.4185 -7.8484 -4.0384 0.9249
-17.7509 -7.0647 -4.0384 0.9249
19.0292 -1.7005 -4.0384 0.9249
17.7608 1.5871 -4.1908 0.9294
17.5490 3.1616 -4.1908 0.9294
17.1980 4.7110 -4.1908 0.9294
16.0902 7.6856 -4.1908 0.9294
15.3423 9.0872 -4.1908 0.9294
13.4880 11.6635 -4.1908 0.9294
10.7988 13.3658 -4.0384 0.9318
-12.7439 11.5262 -4.0384 0.9318
-13.7192 10.3461 -4.0384 0.9318
-15.9150 8.0422 -4.1908 0.9294
-16.5676 6.5938 -4.1908 0.9294
-17.0887 5.0930 -4.1908 0.9294
-17.8271 0.3973 -4.1908 0.9294
-17.6151 -2.7698 -4.1908 0.9294
-16.8383 -5.8469 -4.1892 0.9294
-15.6662 -7.0589 -4.0384 0.9318
16.7583 -3.7969 -4.0384 0.9318
17.3802 -2.3374 -4.1215 0.9305
16.9710 5.4725 -4.1908 0.9294
12.9550 12.2528 -4.1908 0.9294
11.3835 12.8715 -4.0384 0.9318
-13.2447 10.9470 -4.0384 0.9318
-16.2574 7.3252 -4.1908 0.9294
-17.6151 2.7698 -4.1908 0.9294
-17.7917 1.1910 -4.1908 0.9294
-17.8271 -0.3973 -4.1908 0.9294
-17.7210 -1.9824 -4.1908 0.9294
-17.4742 -3.5518 -4.1908 0.9294
-17.0887 -5.0930 -4.1908 0.9294
16.5726 -4.5397 -4.0384 0.9318
16.9108 -3.0466 -4.0384 0.9318
17.7608 -1.5871 -4.1908 0.9294
15.6108 4.2763 -4.1908 0.9353
13.1369 9.4554 -4.1908 0.9353
12.2432 10.5871 -4.1908 0.9353
9.8022 12.1323 -4.0384 0.9376
8.6835 12.9566 -4.0384 0.9376
-13.7392 8.5568 -4.1908 0.9353
-15.0386 5.9852 -4.1908 0.9353
-16.1819 0.3606 -4.1908 0.9353
-16.1498 -1.0811 -4.1908 0.9353
-15.2903 -5.3094 -4.1908 0.9353
14.8446 -4.7868 -4.0384 0.9376
15.2118 -3.4465 -4.0384 0.9376
16.0415 -2.1574 -4.1908 0.9353
16.1698 -0.7210 -4.1908 0.9353
16.1699 0.7210 -4.1908 0.9353
16.0415 2.1574 -4.1908 0.9353
15.7858 3.5766 -4.1908 0.9353
14.9016 6.3188 -4.1908 0.9353
12.7027 10.0312 -4.1908 0.9353
10.7034 12.1025 -4.1832 0.9354
8.0977 13.3306 -4.0384 0.9376
-13.3443 9.1604 -4.1908 0.9353
-14.1067 7.9363 -4.1908 0.9353
-15.9895 2.5142 -4.1908 0.9353
-16.1498 1.0811 -4.1908 0.9353
-15.8616 -3.2240 -4.1908 0.9353
-15.5117 -4.6230 -4.1908 0.9353
-13.9209 -7.0345 -4.0384 0.9376
-13.2395 -8.2457 -4.0384 0.9376
15.9074 -2.8659 -4.1850 0.9354
14.8037 0.0000 -4.1908 0.9403
14.7449 1.3176 -4.1908 0.9403
14.5691 2.6248 -4.1908 0.9403
14.2777 3.9111 -4.1908 0.9403
13.8729 5.1663 -4.1908 0.9403
13.3581 6.3806 -4.1908 0.9403
12.7371 7.5442 -4.1908 0.9403
9.2768 11.4821 -4.1788 0.9405
6.8557 12.5100 -4.0384 0.9424
-13.2126 6.6766 -4.1908 0.9403
-13.7544 5.4741 -4.1908 0.9403
-14.5071 2.9487 -4.1908 0.9403
-14.7706 -0.9888 -4.1908 0.9403
-14.6240 -2.2995 -4.1908 0.9403
-13.4792 -6.0734 -4.1853 0.9404
-12.4329 -6.9946 -4.0384 0.9424
-11.7610 -8.0734 -4.0384 0.9424
13.5769 -4.3780 -4.0384 0.9424
14.6716 -1.9732 -4.1908 0.9403
14.4378 3.2712 -4.1908 0.9403
14.0893 4.5432 -4.1908 0.9403
12.3884 8.1041 -4.1908 0.9403
11.6179 9.1746 -4.1908 0.9403
10.7552 10.1722 -4.1908 0.9403
7.4061 12.1922 -4.0384 0.9424
-9.2101 10.8938 -4.0384 0.9424
-11.4026 9.4245 -4.1879 0.9404
-12.2048 8.3781 -4.1908 0.9403
-12.9020 7.2586 -4.1908 0.9403
-13.9846 4.8560 -4.1908 0.9403
-14.3613 3.5920 -4.1908 0.9403
-14.6240 2.2995 -4.1908 0.9403
-14.7706 0.9888 -4.1908 0.9403
-14.8000 -0.3298 -4.1908 0.9403
-13.7544 -5.4741 -4.1908 0.9403
-12.1089 -7.5415 -4.0384 0.9424
13.8686 -3.7990 -4.0707 0.9420
14.5691 -2.6248 -4.1908 0.9403
13.6252 0.0000 -4.1908 0.9446
13.5711 1.2127 -4.1908 0.9446
13.4093 2.4158 -4.1908 0.9446
13.1411 3.5997 -4.1908 0.9446
12.7685 4.7551 -4.1908 0.9446
12.2946 5.8726 -4.1908 0.9446
10.3063 8.9122 -4.1908 0.9446
5.2600 12.0300 -4.0384 0.9465
-8.9903 9.7203 -4.0725 0.9461
-10.1051 9.1396 -4.1908 0.9446
-11.5655 7.2031 -4.1908 0.9446
-12.6594 5.0383 -4.1908 0.9446
-13.0576 3.8916 -4.1908 0.9446
-13.5407 1.5148 -4.1908 0.9446
-13.6218 0.3036 -4.1908 0.9446
-13.5948 -0.9101 -4.1908 0.9446
-12.8713 -4.4694 -4.1908 0.9446
-11.4431 -6.4378 -4.0384 0.9465
-10.1204 -8.3647 -4.0384 0.9465
11.5837 -6.1813 -4.0384 0.9465
12.0879 -5.1257 -4.0384 0.9465
12.8367 -4.1393 -4.1485 0.9451
13.2884 -3.0108 -4.1908 0.9446
13.6117 0.6070 -4.1908 0.9446
12.9677 4.1815 -4.1908 0.9446
12.5441 5.3191 -4.1908 0.9446
9.8990 9.3624 -4.1908 0.9446
9.0264 10.2064 -4.1908 0.9446
6.8166 11.2216 -4.0384 0.9465
4.7189 12.2524 -4.0384 0.9465
-6.5649 11.3707 -4.0384 0.9465
-9.6755 9.5683 -4.1854 0.9446
-11.2332 7.7111 -4.1908 0.9446
-11.8749 6.6807 -4.1908 0.9446
-12.4224 5.5973 -4.1908 0.9446
-12.8713 4.4694 -4.1908 0.9446
-13.2180 3.3061 -4.1908 0.9446
-13.4598 2.1165 -4.1908 0.9446
-13.5948 0.9101 -4.1908 0.9446
-12.6594 -5.0383 -4.1908 0.9446
-12.1418 -6.1355 -4.1843 0.9447
-11.1450 -6.9411 -4.0384 0.9465
11.2968 -6.6911 -4.0384 0.9465
11.8475 -5.6591 -4.0384 0.9465
13.1390 -3.5992 -4.1902 0.9446
13.4093 -2.4158 -4.1908 0.9446
12.6076 0.0000 -4.1908 0.9482
12.5575 1.1221 -4.1908 0.9482
11.8149 4.3999 -4.1908 0.9482
11.3764 5.4340 -4.1908 0.9482
10.8476 6.4250 -4.1908 0.9482
10.2326 7.3650 -4.1908 0.9482
9.5365 8.2465 -4.1908 0.9482
4.8672 11.1315 -4.0384 0.9501
2.8164 11.8181 -4.0384 0.9501
-3.5995 11.6036 -4.0384 0.9501
-4.6180 11.2372 -4.0384 0.9501
-5.5998 10.7816 -4.0384 0.9501
-7.5005 9.7187 -4.0808 0.9496
-9.3504 8.4570 -4.1908 0.9482
-10.0660 7.5912 -4.1908 0.9482
-10.7017 6.6651 -4.1908 0.9482
-11.2525 5.6861 -4.1908 0.9482
-11.7139 4.6620 -4.1908 0.9482
-12.0824 3.6009 -4.1908 0.9482
-12.3549 2.5113 -4.1908 0.9482
-12.5294 1.4016 -4.1908 0.9482
-12.5794 -0.8421 -4.1908 0.9482
-12.2308 -3.0591 -4.1908 0.9482
-9.3645 -7.7399 -4.0384 0.9501
10.1669 -6.6509 -4.0384 0.9501
11.1850 -4.7429 -4.0384 0.9501
12.2959 -2.7859 -4.1908 0.9482
12.5950 -0.5616 -4.1908 0.9482
12.5950 0.5616 -4.1908 0.9482
12.4951 1.6804 -4.1908 0.9482
12.2959 2.7859 -4.1908 0.9482
11.9991 3.8692 -4.1908 0.9482
11.6071 4.9218 -4.1908 0.9482
10.5506 6.9019 -4.1908 0.9482
9.8944 7.8135 -4.1908 0.9482
5.3582 10.9036 -4.0384 0.9501
4.3665 11.3373 -4.0384 0.9501
3.3401 11.6809 -4.0384 0.9501
2.2871 11.9319 -4.0384 0.9501
-4.1128 11.4317 -4.0384 0.9501
-6.9869 9.9390 -4.0384 0.9501
-8.1278 9.6136 -4.1847 0.9483
-9.7179 8.0320 -4.1908 0.9482
-10.3942 7.1352 -4.1908 0.9482
-10.9880 6.1818 -4.1908 0.9482
-11.9100 4.1356 -4.1908 0.9482
-12.4545 1.9584 -4.1908 0.9482
-12.5794 0.8421 -4.1908 0.9482
-12.6044 -0.2809 -4.1908 0.9482
-10.3126 -6.4227 -4.0384 0.9501
9.8605 -7.0972 -4.0384 0.9501
10.4531 -6.1914 -4.0384 0.9501
10.9627 -5.2364 -4.0384 0.9501
11.7965 -4.3931 -4.1843 0.9483
12.1596 -3.3309 -4.1908 0.9482
12.5575 -1.1221 -4.1908 0.9482
8.8644 7.6654 -4.1908 0.9514
7.3649 9.1156 -4.1908 0.9514
5.6234 10.2615 -4.1845 0.9515
4.5242 10.3470 -4.0384 0.9532
2.6179 10.9853 -4.0384 0.9532
1.6298 11.1747 -4.0384 0.9532
0.6287 11.2754 -4.0384 0.9532
-3.3458 10.7859 -4.0384 0.9532
-6.1995 9.7114 -4.1202 0.9522
-7.1592 9.2765 -4.1904 0.9514
-7.9573 8.6033 -4.1908 0.9514
-10.8884 4.3335 -4.1908 0.9514
-11.4842 2.3343 -4.1908 0.9514
-11.6464 1.3028 -4.1908 0.9514
-11.6929 -0.7827 -4.1908 0.9514
-11.5768 -1.8204 -4.1908 0.9514
-11.3688 -2.8435 -4.1908 0.9514
-9.3103 -6.3912 -4.0384 0.9532
-8.0296 -7.9407 -4.0384 0.9532
9.9631 -5.3165 -4.0384 0.9532
11.1535 -3.5966 -4.1908 0.9514
11.4294 -2.5896 -4.1908 0.9514
10.7892 4.5750 -4.1908 0.9514
9.8070 6.4155 -4.1908 0.9514
9.1971 7.2629 -4.1908 0.9514
8.5142 8.0527 -4.1908 0.9514
5.0270 10.2297 -4.0761 0.9527
4.0588 10.5383 -4.0384 0.9532
1.1304 11.2362 -4.0384 0.9532
0.1258 11.2922 -4.0384 0.9532
-1.8783 11.1356 -4.0384 0.9532
-2.8620 10.9242 -4.0384 0.9532
-4.7536 10.2437 -4.0384 0.9532
-6.7307 9.5746 -4.1853 0.9515
-7.5662 8.9493 -4.1908 0.9514
-8.3327 8.2403 -4.1908 0.9514
-9.6617 6.6324 -4.1908 0.9514
-10.2136 5.7461 -4.1908 0.9514
-10.6846 4.8142 -4.1908 0.9514
-11.5768 1.8204 -4.1908 0.9514
-11.6929 0.7827 -4.1908 0.9514
-11.7162 -0.2611 -4.1908 0.9514
-11.6464 -1.3028 -4.1908 0.9514
-11.4842 -2.3343 -4.1908 0.9514
-11.2309 -3.3472 -4.1908 0.9514
-10.8884 -4.3335 -4.1908 0.9514
-10.4595 -5.2854 -4.1908 0.9514
-9.9301 -6.1845 -4.1835 0.9515
9.7164 -5.7551 -4.0384 0.9532
10.2773 -4.9091 -4.0730 0.9528
11.5334 -2.0778 -4.1908 0.9514
11.6725 -1.0431 -4.1908 0.9514
10.9359 0.0000 -4.1908 0.9542
10.8925 0.9734 -4.1908 0.9542
10.5473 2.8892 -4.1908 0.9542
8.2720 7.1531 -4.1908 0.9542
7.6025 7.8610 -4.1908 0.9542
6.8727 8.5064 -4.1908 0.9542
5.2556 9.5902 -4.1908 0.9542
4.3746 10.0049 -4.1845 0.9543
3.3457 9.9930 -4.0384 0.9559
1.5209 10.4279 -4.0384 0.9559
-1.2882 10.4592 -4.0384 0.9559
-2.2140 10.3030 -4.0384 0.9559
-4.0057 9.7472 -4.0384 0.9559
-5.0317 9.6877 -4.1834 0.9543
-7.4255 8.0284 -4.1908 0.9542
-8.1106 7.3356 -4.1908 0.9542
-8.7313 6.5846 -4.1908 0.9542
-9.2827 5.7813 -4.1908 0.9542
-9.7605 4.9322 -4.1908 0.9542
-10.1607 4.0439 -4.1908 0.9542
-10.4803 3.1235 -4.1908 0.9542
-10.9332 0.2436 -4.1908 0.9542
-10.8031 -1.6987 -4.1908 0.9542
-10.6091 -2.6535 -4.1908 0.9542
-10.3308 -3.5872 -4.1908 0.9542
-9.9705 -4.4925 -4.1908 0.9542
-9.5311 -5.3621 -4.1908 0.9542
-9.0004 -6.1784 -4.1836 0.9543
-8.1228 -6.7137 -4.0384 0.9559
-7.4930 -7.4100 -4.0384 0.9559
-6.8037 -8.0475 -4.0384 0.9559
8.2704 -6.5310 -4.0384 0.9559
10.0681 -4.2692 -4.1908 0.9542
10.6655 -2.4165 -4.1908 0.9542
10.8383 -1.4576 -4.1908 0.9542
10.9250 -0.4872 -4.1908 0.9542
10.8383 1.4576 -4.1908 0.9542
10.6655 2.4165 -4.1908 0.9542
10.4081 3.3562 -4.1908 0.9542
10.0681 4.2692 -4.1908 0.9542
9.6482 5.1484 -4.1908 0.9542
8.5825 6.7775 -4.1908 0.9542
7.2448 8.1918 -4.1908 0.9542
6.4869 8.8041 -4.1908 0.9542
5.6776 9.3466 -4.1908 0.9542
3.8563 10.0126 -4.1117 0.9551
1.9839 10.3498 -4.0384 0.9559
1.0548 10.4853 -4.0384 0.9559
0.1174 10.5375 -4.0384 0.9559
-0.8210 10.5062 -4.0384 0.9559
-2.6707 10.1941 -4.0384 0.9559
-3.5675 9.9160 -4.0384 0.9559
-7.0605 8.3512 -4.1908 0.9542
-7.7758 7.6896 -4.1908 0.9542
-8.4293 6.9670 -4.1908 0.9542
-9.0160 6.1891 -4.1908 0.9542
-9.9705 4.4925 -4.1908 0.9542
-10.3308 3.5872 -4.1908 0.9542
-10.6091 2.6535 -4.1908 0.9542
-10.9332 -0.2436 -4.1908 0.9542
-10.4803 -3.1235 -4.1908 0.9542
-10.1607 -4.0439 -4.1908 0.9542
-9.2816 -5.7806 -4.1903 0.9542
-8.4138 -6.3452 -4.0384 0.9559
-6.4385 -8.3426 -4.0384 0.9559
7.3261 -7.5751 -4.0384 0.9559
9.0671 -5.3704 -4.0384 0.9559
9.8609 -4.7102 -4.1878 0.9543
10.2483 -3.8165 -4.1908 0.9542
10.5473 -2.8892 -4.1908 0.9542
10.7626 -1.9390 -4.1908 0.9542
10.8925 -0.9734 -4.1908 0.9542
10.2396 0.0000 -4.1908 0.9567
10.1990 0.9114 -4.1908 0.9567
10.0774 1.8155 -4.1908 0.9567
9.8758 2.7053 -4.1908 0.9567
9.5958 3.5735 -4.1908 0.9567
9.2397 4.4134 -4.1908 0.9567
8.8102 5.2183 -4.1908 0.9567
7.1185 7.3605 -4.1908 0.9567
6.4351 7.9649 -4.1908 0.9567
4.1022 9.3820 -4.1908 0.9567
0.5493 9.8520 -4.0384 0.9582
-0.3297 9.8617 -4.0384 0.9582
-1.2062 9.7933 -4.0384 0.9582
-3.0103 9.7042 -4.1584 0.9570
-3.8888 9.4629 -4.1872 0.9567
-4.7197 9.0870 -4.1908 0.9567
-6.9528 7.5172 -4.1908 0.9567
-7.5942 6.8686 -4.1908 0.9567
-8.6917 5.4133 -4.1908 0.9567
-9.8131 2.9246 -4.1908 0.9567
-2.1365 0.4343 -0.8923 0.9906
-2.1261 0.2378 -0.8756 0.9908
-2.1285 0.0474 -0.8714 0.9908
-2.1302 -0.1426 -0.8738 0.9908
-2.1308 -0.5329 -0.8989 0.9906
-9.6731 -3.3588 -4.1908 0.9567
-9.3357 -4.2065 -4.1908 0.9567
-8.9243 -5.0207 -4.1908 0.9567
-8.4405 -5.7940 -4.1901 0.9567
-7.6057 -6.2862 -4.0384 0.9582
-7.0160 -6.9382 -4.0384 0.9582
-6.3706 -7.5351 -4.0384 0.9582
-5.6746 -8.0723 -4.0384 0.9582
6.5369 -7.3913 -4.0384 0.9582
7.7438 -6.1152 -4.0384 0.9582
8.2574 -5.4017 -4.0384 0.9582
9.9865 -2.2626 -4.1908 0.9567
10.1483 -1.3648 -4.1908 0.9567
10.2295 -0.4562 -4.1908 0.9567
10.2295 0.4561 -4.1908 0.9567
9.9865 2.2626 -4.1908 0.9567
9.7455 3.1425 -4.1908 0.9567
9.4271 3.9974 -4.1908 0.9567
7.4393 7.0361 -4.1908 0.9567
6.7836 7.6703 -4.1908 0.9567
6.0739 8.2436 -4.1908 0.9567
5.3161 8.7515 -4.1908 0.9567
3.6797 9.5540 -4.1902 0.9567
2.8103 9.8284 -4.1837 0.9568
1.8765 9.7894 -4.0795 0.9578
0.1099 9.8666 -4.0384 0.9582
-1.6416 9.7318 -4.0392 0.9582
-2.5448 9.7133 -4.1096 0.9575
-3.4612 9.6206 -4.1845 0.9568
-6.6110 7.8195 -4.1908 0.9567
-7.8927 6.5235 -4.1908 0.9567
-8.4420 5.7951 -4.1908 0.9567
-8.9243 5.0207 -4.1908 0.9567
-9.3357 4.2065 -4.1908 0.9567
-2.1308 0.5329 -0.8989 0.9906
-2.1345 0.3356 -0.8843 0.9907
-2.1261 -0.2378 -0.8756 0.9908
-9.8131 -2.9246 -4.1908 0.9567
-9.5138 -3.7864 -4.1908 0.9567
-9.1391 -4.6182 -4.1908 0.9567
-6.6999 -7.2439 -4.0384 0.9582
-6.0286 -7.8115 -4.0384 0.9582
6.2011 -7.6752 -4.0384 0.9582
6.8596 -7.0928 -4.0384 0.9582
9.8758 -2.7053 -4.1908 0.9567
10.0774 -1.8155 -4.1908 0.9567
10.1990 -0.9114 -4.1908 0.9567
9.6160 0.0000 -4.1908 0.9589
9.5779 0.8559 -4.1908 0.9589
9.2744 2.5405 -4.1908 0.9589
8.6770 4.1446 -4.1908 0.9589
8.2736 4.9005 -4.1908 0.9589
7.8046 5.6174 -4.1908 0.9589
7.2737 6.2898 -4.1908 0.9589
6.6850 6.9122 -4.1908 0.9589
6.0432 7.4798 -4.1908 0.9589
5.3535 7.9880 -4.1908 0.9589
4.6213 8.4328 -4.1908 0.9589
3.0529 9.1185 -4.1908 0.9589
1.3866 9.5070 -4.1871 0.9589
0.5346 9.5882 -4.1852 0.9590
-0.3209 9.5971 -4.1849 0.9590
-3.6551 8.8943 -4.1908 0.9589
-4.4323 8.5336 -4.1908 0.9589
-6.5293 7.0594 -4.1908 0.9589
-7.1317 6.4503 -4.1908 0.9589
-8.1624 5.0836 -4.1908 0.9589
-1.8741 0.5585 -0.8523 0.9915
-1.9479 -0.1304 -0.8508 0.9915
-1.9397 -0.3050 -0.8557 0.9915
-1.8290 -0.6351 -0.8438 0.9916
-8.7672 -3.9503 -4.1908 0.9589
-8.3808 -4.7149 -4.1908 0.9589
-7.9278 -5.4422 -4.1908 0.9589
-7.4010 -6.1171 -4.1846 0.9590
-5.3290 -7.5806 -4.0384 0.9604
-4.6332 -8.0249 -4.0384 0.9604
4.8108 -7.9197 -4.0384 0.9604
5.4966 -7.4600 -4.0384 0.9604
6.1388 -6.9412 -4.0384 0.9604
9.1520 -2.9511 -4.1908 0.9589
9.5302 -1.2817 -4.1908 0.9589
9.6065 -0.4284 -4.1908 0.9589
9.6065 0.4284 -4.1908 0.9589
9.1520 2.9511 -4.1908 0.9589
8.4837 4.5270 -4.1908 0.9589
8.0471 5.2642 -4.1908 0.9589
7.5466 5.9595 -4.1908 0.9589
6.9863 6.6076 -4.1908 0.9589
6.3704 7.2032 -4.1908 0.9589
4.9923 8.2185 -4.1908 0.9589
4.2410 8.6303 -4.1908 0.9589
3.4561 8.9735 -4.1908 0.9589
2.6437 9.2455 -4.1908 0.9589
-0.7481 9.5742 -4.1853 0.9590
-1.5980 9.4735 -4.1870 0.9589
-2.4365 9.3002 -4.1900 0.9589
-3.2553 9.0483 -4.1908 0.9589
-4.8080 8.3277 -4.1908 0.9589
-5.5301 7.8667 -4.1908 0.9589
-7.4120 6.1262 -4.1908 0.9589
-7.9278 5.4422 -4.1908 0.9589
-1.8290 0.6351 -0.8438 0.9916
-1.9080 0.4772 -0.8571 0.9915
-1.9397 0.3050 -0.8557 0.9915
-1.9479 0.1304 -0.8508 0.9915
-1.9470 -0.0434 -0.8487 0.9915
-1.9433 -0.2174 -0.8522 0.9915
-1.9300 -0.3923 -0.8583 0.9914
-1.8741 -0.5585 -0.8523 0.9915
-8.9344 -3.5558 -4.1908 0.9589
-8.5825 -4.3369 -4.1908 0.9589
-7.6763 -5.7890 -4.1902 0.9589
-5.6614 -7.3357 -4.0384 0.9604
-4.9861 -7.8105 -4.0384 0.9604
-4.2711 -8.2233 -4.0384 0.9604
5.8235 -7.2078 -4.0384 0.9604
6.4419 -6.6609 -4.0384 0.9604
9.2744 -2.5405 -4.1908 0.9589
9.5779 -0.8559 -4.1908 0.9589
9.0178 0.8058 -4.1908 0.9609
8.9103 1.6053 -4.1908 0.9609
8.4845 3.1596 -4.1908 0.9609
8.1696 3.9023 -4.1908 0.9609
7.7898 4.6139 -4.1908 0.9609
6.8483 5.9220 -4.1908 0.9609
6.2941 6.5080 -4.1908 0.9609
5.6898 7.0424 -4.1908 0.9609
5.0404 7.5209 -4.1908 0.9609
3.6271 8.2954 -4.1908 0.9609
0.5040 9.0397 -4.1908 0.9609
-1.1067 8.9858 -4.1908 0.9609
-2.6824 8.6472 -4.1908 0.9609
-3.4414 8.3742 -4.1908 0.9609
-4.1731 8.0346 -4.1908 0.9609
-4.8716 7.6313 -4.1908 0.9609
-6.7147 6.0731 -4.1908 0.9609
-7.2286 5.4513 -4.1908 0.9609
-7.6851 4.7863 -4.1908 0.9609
-8.0806 4.0833 -4.1908 0.9609
-1.6373 0.3328 -0.7734 0.9927
-1.6675 0.1865 -0.7767 0.9926
-1.6716 0.0373 -0.7739 0.9927
-1.6738 -0.1120 -0.7765 0.9926
-1.6521 -0.2598 -0.7741 0.9927
-1.6165 -0.4043 -0.7713 0.9927
-8.2545 -3.7193 -4.1908 0.9609
-7.8907 -4.4392 -4.1908 0.9609
-7.4642 -5.1239 -4.1908 0.9609
-6.9781 -5.7675 -4.1905 0.9609
-5.0174 -7.1374 -4.0384 0.9623
-4.3622 -7.5556 -4.0384 0.9623
-2.9535 -8.2093 -4.0384 0.9623
3.1356 -8.1415 -4.0384 0.9623
3.8478 -7.8301 -4.0384 0.9623
5.1752 -7.0238 -4.0384 0.9623
5.7798 -6.5353 -4.0384 0.9623
6.3385 -5.9949 -4.0384 0.9623
8.3353 -3.5345 -4.1908 0.9609
8.8299 -2.0006 -4.1908 0.9609
8.9729 -1.2068 -4.1908 0.9609
8.8299 2.0006 -4.1908 0.9609
8.6168 2.7786 -4.1908 0.9609
7.1053 5.6110 -4.1908 0.9609
5.9979 6.7819 -4.1908 0.9609
1.7044 8.8918 -4.1908 0.9609
0.1009 9.0531 -4.1908 0.9609
-2.2945 8.7581 -4.1908 0.9609
-3.0649 8.5191 -4.1908 0.9609
-4.5269 7.8407 -4.1908 0.9609
-5.2068 7.4067 -4.1908 0.9609
-6.4375 6.3662 -4.1908 0.9609
-7.4642 5.1239 -4.1908 0.9609
-8.2545 3.7193 -4.1908 0.9609
-1.6165 0.4043 -0.7713 0.9927
-1.6521 0.2598 -0.7741 0.9927
-1.6716 -0.0373 -0.7739 0.9927
-1.6675 -0.1865 -0.7767 0.9926
-1.5924 -0.4746 -0.7692 0.9927
-8.0806 -4.0833 -4.1908 0.9609
-7.6851 -4.7863 -4.1908 0.9609
-7.2286 -5.4513 -4.1908 0.9609
-6.7061 -6.0653 -4.1855 0.9609
-3.3162 -8.0696 -4.0384 0.9623
-2.5849 -8.3328 -4.0384 0.9623
2.7698 -8.2731 -4.0384 0.9623
4.8571 -7.2474 -4.0384 0.9623
6.5993 -5.7066 -4.0384 0.9623
7.3422 -5.2846 -4.1874 0.9609
7.7898 -4.6139 -4.1908 0.9609
8.1696 -3.9023 -4.1908 0.9609
8.9103 -1.6053 -4.1908 0.9609
8.5436 0.0000 -4.1908 0.9627
8.5097 0.7604 -4.1908 0.9627
8.2400 2.2572 -4.1908 0.9627
7.7093 3.6824 -4.1908 0.9627
7.3509 4.3540 -4.1908 0.9627
6.4625 5.5883 -4.1908 0.9627
5.9394 6.1413 -4.1908 0.9627
5.3692 6.6456 -4.1908 0.9627
4.1059 7.4923 -4.1908 0.9627
3.4227 7.8280 -4.1908 0.9627
2.7124 8.1016 -4.1908 0.9627
0.4756 8.5303 -4.1908 0.9627
-0.2855 8.5388 -4.1908 0.9627
-1.0444 8.4795 -4.1908 0.9627
-2.5313 8.1600 -4.1908 0.9627
-3.2475 7.9023 -4.1908 0.9627
-3.9379 7.5819 -4.1908 0.9627
-4.5972 7.2013 -4.1908 0.9627
-5.2199 6.7636 -4.1908 0.9627
-7.6253 3.8532 -4.1908 0.9627
-1.3200 0.3934 -0.6756 0.9939
-1.3047 0.2652 -0.6531 0.9941
-1.3419 0.1501 -0.6624 0.9940
-1.3149 -0.3289 -0.6649 0.9940
-1.3171 -0.4573 -0.6839 0.9938
-7.4461 -4.1891 -4.1908 0.9627
-7.0437 -4.8352 -4.1908 0.9627
-5.3154 -6.2871 -4.0384 0.9640
-4.1164 -7.1299 -4.0384 0.9640
-3.4655 -7.4680 -4.0384 0.9640
-2.7871 -7.7468 -4.0384 0.9640
-1.3694 -8.1182 -4.0384 0.9640
1.5499 -8.0857 -4.0384 0.9640
2.9590 -7.6828 -4.0384 0.9640
3.6310 -7.3889 -4.0384 0.9640
4.2743 -7.0364 -4.0384 0.9640
4.8836 -6.6281 -4.0384 0.9640
5.4541 -6.1671 -4.0384 0.9640
6.0874 -5.7574 -4.1100 0.9634
8.4673 -1.1387 -4.1908 0.9627
8.5351 -0.3806 -4.1908 0.9627
8.4673 1.1388 -4.1908 0.9627
8.1313 2.6220 -4.1908 0.9627
7.8656 3.3353 -4.1908 0.9627
7.5376 4.0222 -4.1908 0.9627
7.1497 4.6771 -4.1908 0.9627
5.6600 6.3998 -4.1908 0.9627
3.7680 7.6678 -4.1908 0.9627
3.0706 7.9727 -4.1908 0.9627
1.6084 8.3908 -4.1908 0.9627
0.0952 8.5430 -4.1908 0.9627
-0.6656 8.5176 -4.1908 0.9627
-2.1652 8.2646 -4.1908 0.9627
-2.8922 8.0391 -4.1908 0.9627
-4.2718 7.3990 -4.1908 0.9627
-5.5160 6.5243 -4.1908 0.9627
-6.5854 5.4429 -4.1908 0.9627
-7.4461 4.1891 -4.1908 0.9627
-1.3171 0.4573 -0.6839 0.9938
-1.3257 0.2085 -0.6583 0.9940
-1.3536 -0.0302 -0.6641 0.9940
-1.3200 -0.3934 -0.6756 0.9939
-1.3059 -0.5198 -0.6895 0.9938
-7.2521 -4.5166 -4.1908 0.9627
-6.8213 -5.1442 -4.1908 0.9627
-6.3364 -5.7309 -4.1908 0.9627
-3.7947 -7.3062 -4.0384 0.9640
-2.4392 -7.8633 -4.0384 0.9640
-0.2751 -8.2283 -4.0384 0.9640
1.1882 -8.1467 -4.0384 0.9640
1.9085 -8.0086 -4.0384 0.9640
3.9566 -7.2198 -4.0384 0.9640
4.5835 -6.8390 -4.0384 0.9640
5.1740 -6.4039 -4.0384 0.9640
5.7234 -5.9180 -4.0384 0.9640
6.9342 -4.9909 -4.1908 0.9627
7.3509 -4.3539 -4.1908 0.9627
7.7093 -3.6824 -4.1908 0.9627
8.4082 -1.5148 -4.1908 0.9627
8.5097 -0.7604 -4.1908 0.9627
7.9502 1.4323 -4.1908 0.9643
7.7912 2.1342 -4.1908 0.9643
7.2894 3.4818 -4.1908 0.9643
5.6159 5.8068 -4.1908 0.9643
5.0768 6.2836 -4.1908 0.9643
3.8823 7.0842 -4.1908 0.9643
3.2363 7.4016 -4.1908 0.9643
-0.2699 8.0737 -4.1908 0.9643
-0.9875 8.0177 -4.1908 0.9643
-5.4852 5.9305 -4.1908 0.9643
-1.0665 0.5389 -0.6199 0.9946
-1.1070 0.4406 -0.6181 0.9946
-1.1266 0.3358 -0.6099 0.9947
-1.1332 0.2303 -0.5999 0.9948
-1.1649 0.1303 -0.6081 0.9947
-1.1785 0.0263 -0.6115 0.9947
-1.1739 -0.0786 -0.6103 0.9947
-1.0898 -0.4910 -0.6201 0.9946
-7.0405 -3.9609 -4.1908 0.9643
-6.2267 -5.1465 -4.1908 0.9643
-5.2069 -6.1588 -4.1839 0.9643
-2.6353 -7.3248 -4.0384 0.9655
-1.2948 -7.6760 -4.0384 0.9655
-0.6064 -7.7608 -4.0384 0.9655
0.7792 -7.7454 -4.0384 0.9655
1.4655 -7.6453 -4.0384 0.9655
2.1401 -7.4845 -4.0384 0.9655
3.4332 -6.9865 -4.0384 0.9655
4.0415 -6.6532 -4.0384 0.9655
5.8637 -5.5459 -4.1870 0.9643
7.6884 -2.4792 -4.1908 0.9643
8.0062 -1.0767 -4.1908 0.9643
8.0702 0.3599 -4.1908 0.9643
7.8785 1.7850 -4.1908 0.9643
7.1270 3.8031 -4.1908 0.9643
6.7602 4.4223 -4.1908 0.9643
5.8690 5.5509 -4.1908 0.9643
4.7918 6.5035 -4.1908 0.9643
3.5628 7.2501 -4.1908 0.9643
2.2209 7.7670 -4.1908 0.9643
0.0900 8.0777 -4.1908 0.9643
-0.6293 8.0537 -4.1908 0.9643
-2.7347 7.6013 -4.1908 0.9643
-3.4004 7.3277 -4.1908 0.9643
-4.0391 6.9960 -4.1908 0.9643
-5.7439 5.6803 -4.1908 0.9643
-7.0405 3.9609 -4.1908 0.9643
-1.1517 0.1811 -0.6048 0.9948
-1.1739 0.0786 -0.6103 0.9947
-1.1649 -0.1303 -0.6081 0.9947
-1.1332 -0.2303 -0.5999 0.9948
-1.0665 -0.5389 -0.6199 0.9946
-6.4498 -4.8640 -4.1908 0.9643
-5.4813 -5.9263 -4.1878 0.9643
-4.1887 -6.5615 -4.0384 0.9655
-2.9590 -7.2002 -4.0384 0.9655
-2.3064 -7.4350 -4.0384 0.9655
-1.6355 -7.6107 -4.0384 0.9655
-0.2601 -7.7801 -4.0384 0.9655
3.1186 -7.1325 -4.0384 0.9655
3.7411 -6.8266 -4.0384 0.9655
5.6060 -5.7966 -4.1834 0.9643
6.1105 -5.2839 -4.1908 0.9643
6.5565 -4.7191 -4.1908 0.9643
7.5703 -2.8192 -4.1908 0.9643
7.7912 -2.1342 -4.1908 0.9643
7.9502 -1.4323 -4.1908 0.9643
8.0462 -0.7190 -4.1908 0.9643
2.0356 0.1819 -1.1193 0.9907
2.0004 0.5480 -1.1360 0.9906
1.9714 0.7342 -1.1522 0.9905
6.9044 3.2979 -4.1908 0.9657
6.5835 3.8994 -4.1908 0.9657
6.2103 4.4699 -4.1908 0.9657
5.7878 5.0049 -4.1908 0.9657
5.3194 5.5002 -4.1908 0.9657
4.8087 5.9518 -4.1908 0.9657
3.6772 6.7101 -4.1908 0.9657
3.0654 7.0108 -4.1908 0.9657
2.4292 7.2558 -4.1908 0.9657
1.7738 7.4432 -4.1908 0.9657
0.4260 7.6398 -4.1908 0.9657
-0.2557 7.6474 -4.1908 0.9657
-0.9353 7.5942 -4.1908 0.9657
-2.2670 7.3081 -4.1908 0.9657
-4.1172 6.4495 -4.1908 0.9657
-4.6749 6.0575 -4.1908 0.9657
-5.1955 5.6173 -4.1908 0.9657
-6.1091 4.6071 -4.1908 0.9657
-0.9364 0.4732 -0.5746 0.9952
-0.9638 0.3836 -0.5681 0.9953
-0.9825 0.2928 -0.5615 0.9953
-1.0000 0.2033 -0.5589 0.9954
-1.0293 0.1151 -0.5673 0.9953
-1.0376 -0.0695 -0.5696 0.9953
-1.0166 -0.1599 -0.5637 0.9953
-0.9847 -0.2463 -0.5559 0.9954
-6.3083 -4.3304 -4.1908 0.9657
-3.6867 -6.3855 -4.0384 0.9669
-3.1037 -6.6883 -4.0384 0.9669
-2.4961 -6.9380 -4.0384 0.9669
-1.8687 -7.1327 -4.0384 0.9669
-1.2264 -7.2707 -4.0384 0.9669
0.0821 -7.3729 -4.0384 0.9669
0.7380 -7.3363 -4.0384 0.9669
2.0271 -7.0892 -4.0384 0.9669
2.6500 -6.8807 -4.0384 0.9669
3.2519 -6.6175 -4.0384 0.9669
3.8280 -6.3018 -4.0384 0.9669
4.4065 -5.9805 -4.0686 0.9667
5.0631 -5.7249 -4.1859 0.9657
6.4032 -4.1888 -4.1908 0.9657
6.7506 -3.6023 -4.1908 0.9657
2.0226 0.2720 -1.1178 0.9907
1.9895 0.6415 -1.1449 0.9905
6.4032 4.1888 -4.1908 0.9657
6.0050 4.7421 -4.1908 0.9657
5.5591 5.2578 -4.1908 0.9657
5.0691 5.7317 -4.1908 0.9657
3.3747 6.8672 -4.1908 0.9657
2.1036 7.3568 -4.1908 0.9657
0.7659 7.6132 -4.1908 0.9657
0.0852 7.6511 -4.1908 0.9657
-0.5961 7.6284 -4.1908 0.9657
-1.9392 7.4018 -4.1908 0.9657
-4.9401 5.8432 -4.1908 0.9657
-5.4406 5.3803 -4.1908 0.9657
-5.8979 4.8747 -4.1908 0.9657
-0.9240 0.5198 -0.5806 0.9952
-0.9472 0.4268 -0.5690 0.9953
-0.9756 0.3388 -0.5656 0.9953
-1.0166 0.1599 -0.5637 0.9953
-1.0376 0.0695 -0.5696 0.9953
-1.0415 -0.0232 -0.5706 0.9953
-1.0293 -0.1151 -0.5673 0.9953
-1.0000 -0.2033 -0.5589 0.9954
-0.9364 -0.4732 -0.5746 0.9952
-6.4950 -4.0451 -4.1908 0.9657
-5.1955 -5.6173 -4.1908 0.9657
-3.9743 -6.2256 -4.0453 0.9669
-3.3986 -6.5434 -4.0384 0.9669
-2.8027 -6.8199 -4.0384 0.9669
-1.5491 -7.2088 -4.0384 0.9669
-0.9013 -7.3181 -4.0384 0.9669
-0.2464 -7.3692 -4.0384 0.9669
0.4105 -7.3619 -4.0384 0.9669
1.0641 -7.2962 -4.0384 0.9669
1.7093 -7.1725 -4.0384 0.9669
5.7878 -5.0049 -4.1908 0.9657
1.9715 -0.7342 -1.1522 0.9905
2.0036 -0.3610 -1.1150 0.9908
1.8700 0.1671 -1.0839 0.9914
1.8267 0.5004 -1.0935 0.9913
1.7869 0.6655 -1.1009 0.9912
1.7194 0.8213 -1.1001 0.9912
6.2454 3.6992 -4.1908 0.9670
5.8914 4.2404 -4.1908 0.9670
5.0462 5.2177 -4.1908 0.9670
4.0411 6.0298 -4.1908 0.9670
3.4884 6.3655 -4.1908 0.9670
2.9080 6.6508 -4.1908 0.9670
1.0476 7.1827 -4.1908 0.9670
-1.5250 7.0967 -4.1908 0.9670
-2.7591 6.7139 -4.1908 0.9670
-3.3457 6.4417 -4.1908 0.9670
-3.9058 6.1183 -4.1908 0.9670
-4.4348 5.7464 -4.1908 0.9670
-5.7954 4.3706 -4.1908 0.9670
-0.8491 0.5288 -0.5776 0.9954
-0.8760 0.4427 -0.5667 0.9955
-0.9237 0.1033 -0.5366 0.9957
-0.9306 0.0207 -0.5374 0.9957
-0.9273 -0.0621 -0.5366 0.9957
-0.9189 -0.1445 -0.5370 0.9957
-0.8984 -0.3119 -0.5490 0.9956
-5.9844 -4.1080 -4.1908 0.9670
-5.5950 -4.6244 -4.1908 0.9670
-4.1714 -5.9338 -4.1877 0.9671
-3.5841 -6.2078 -4.1385 0.9674
-2.3679 -6.5818 -4.0384 0.9682
-1.7727 -6.7664 -4.0384 0.9682
-1.1634 -6.8973 -4.0384 0.9682
-0.5449 -6.9735 -4.0384 0.9682
1.3168 -6.8697 -4.0384 0.9682
1.9230 -6.7252 -4.0384 0.9682
2.5140 -6.5274 -4.0384 0.9682
4.3002 -5.8363 -4.1855 0.9671
5.2736 -4.9878 -4.1908 0.9670
5.6966 -4.4986 -4.1908 0.9670
1.7564 -0.7448 -1.1014 0.9912
1.8316 -0.4150 -1.0843 0.9914
1.8108 0.5839 -1.0985 0.9913
5.2736 4.9878 -4.1908 0.9670
4.3057 5.8438 -4.1908 0.9670
3.7685 6.2038 -4.1908 0.9670
3.2014 6.5146 -4.1908 0.9670
1.3665 7.1289 -4.1908 0.9670
-1.2073 7.1576 -4.1908 0.9670
-1.8396 7.0217 -4.1908 0.9670
-2.4573 6.8301 -4.1908 0.9670
-3.6294 6.2862 -4.1908 0.9670
-4.6864 5.5431 -4.1908 0.9670
-0.8983 0.3119 -0.5490 0.9956
-0.9189 0.1445 -0.5370 0.9957
-0.9306 -0.0207 -0.5374 0.9957
-0.9237 -0.1033 -0.5366 0.9957
-0.9120 -0.1854 -0.5373 0.9957
-5.7955 -4.3705 -4.1908 0.9670
-5.3834 -4.8690 -4.1908 0.9670
-4.9287 -5.3289 -4.1908 0.9670
-3.2328 -6.2243 -4.0494 0.9681
-2.0724 -6.6807 -4.0384 0.9682
-0.8550 -6.9423 -4.0384 0.9682
0.3894 -6.9839 -4.0384 0.9682
1.0095 -6.9215 -4.0384 0.9682
2.8022 -6.4089 -4.0384 0.9682
3.3615 -6.1341 -4.0384 0.9682
4.0229 -6.0025 -4.1719 0.9672
4.5590 -5.6427 -4.1882 0.9670
5.0462 -5.2177 -4.1908 0.9670
5.4906 -4.7479 -4.1908 0.9670
6.2454 -3.6992 -4.1908 0.9670
1.7194 -0.8213 -1.1001 0.9912
1.8267 -0.5004 -1.0935 0.9913
